ply
format ascii 1.0
element vertex 1592
property float32 x
property float32 y
property float32 z
property float32 I
end_header
-11.5326 -7.2258 -1.8013 0.9466
-11.2658 -7.6351 -1.8013 0.9466
-10.6890 -8.4237 -1.8013 0.9466
-10.3797 -8.8020 -1.8013 0.9466
-9.7214 -9.5240 -1.8013 0.9466
-9.3733 -9.8668 -1.8013 0.9466
-9.0131 -10.1969 -1.8013 0.9466
-7.0475 -11.6424 -1.8013 0.9466
-6.1940 -12.1181 -1.8013 0.9466
-4.8554 -12.7137 -1.8013 0.9466
-2.9858 -13.2777 -1.8013 0.9466
-2.0255 -13.4577 -1.8013 0.9466
-0.0703 -12.1794 -1.8013 0.9519
0.3670 -12.1741 -1.8013 0.9519
2.1056 -11.9962 -1.8013 0.9519
3.8008 -11.5714 -1.8013 0.9519
5.0228 -11.0957 -1.8013 0.9519
5.4178 -10.9083 -1.8013 0.9519
5.8059 -10.7068 -1.8013 0.9519
6.9233 -10.0206 -1.8013 0.9519
8.2862 -8.9265 -1.8013 0.9519
7.7911 -6.7630 -1.5258 0.9591
7.9022 -6.3767 -1.5017 0.9598
8.2075 -6.1500 -1.5168 0.9594
8.7954 -6.1102 -1.5839 0.9576
10.6919 -5.8333 -1.8013 0.9519
11.0828 -5.0512 -1.8013 0.9519
11.9064 -2.5654 -1.8013 0.9519
12.1132 -1.2705 -1.8013 0.9519
12.1703 0.4762 -1.8013 0.9519
12.1454 0.9128 -1.8013 0.9519
12.0486 1.7818 -1.8013 0.9519
11.8897 2.6417 -1.8013 0.9519
11.7872 3.0667 -1.8013 0.9519
11.1805 4.2370 -1.7683 0.9528
9.9405 5.0489 -1.6489 0.9559
9.1155 6.4196 -1.6489 0.9559
7.2327 8.4848 -1.6489 0.9559
5.6014 9.6399 -1.6489 0.9559
4.5326 10.1862 -1.6489 0.9559
4.1640 10.3424 -1.6489 0.9559
2.6410 10.8319 -1.6489 0.9559
1.0635 11.0983 -1.6489 0.9559
-0.1358 11.1483 -1.6489 0.9559
-1.3335 11.0691 -1.6489 0.9559
-1.7300 11.0141 -1.6489 0.9559
-2.5157 10.8616 -1.6489 0.9559
-4.0444 10.3897 -1.6489 0.9559
-4.4147 10.2379 -1.6489 0.9559
-5.8346 9.5006 -1.6489 0.9559
-6.1718 9.2851 -1.6489 0.9559
-6.5011 9.0575 -1.6489 0.9559
-6.8221 8.8183 -1.6489 0.9559
-7.4372 8.3062 -1.6489 0.9559
-7.7306 8.0338 -1.6489 0.9559
-8.0139 7.7512 -1.6489 0.9559
-9.3396 7.8176 -1.8013 0.9519
-9.6142 7.4773 -1.8013 0.9519
-9.8764 7.1274 -1.8013 0.9519
-10.1259 6.7683 -1.8013 0.9519
-10.5854 6.0243 -1.8013 0.9519
-11.1717 4.8515 -1.8013 0.9519
-11.4910 4.0374 -1.8013 0.9519
-11.6285 3.6223 -1.8013 0.9519
-11.7510 3.2026 -1.8013 0.9519
-11.9505 2.3512 -1.8013 0.9519
-12.0272 1.9208 -1.8013 0.9519
-12.0884 1.4878 -1.8013 0.9519
-12.1340 1.0529 -1.8013 0.9519
-12.1640 0.6167 -1.8013 0.9519
-12.1783 0.1796 -1.8013 0.9519
-12.1598 -0.6946 -1.8013 0.9519
-12.1270 -1.1306 -1.8013 0.9519
-12.0786 -1.5652 -1.8013 0.9519
-11.6050 -3.6968 -1.8013 0.9519
-11.3099 -4.5199 -1.8013 0.9519
-10.9565 -5.3197 -1.8013 0.9519
-10.3211 -6.4667 -1.8013 0.9519
-9.2893 -7.8773 -1.8013 0.9519
-9.0005 -8.2057 -1.8013 0.9519
-8.7002 -8.5235 -1.8013 0.9519
-8.0662 -9.1257 -1.8013 0.9519
-7.7335 -9.4094 -1.8013 0.9519
-7.3907 -9.6809 -1.8013 0.9519
-7.0384 -9.9400 -1.8013 0.9519
-6.6771 -10.1862 -1.8013 0.9519
-5.5433 -10.8450 -1.8013 0.9519
-4.3453 -11.3781 -1.8013 0.9519
-3.9341 -11.5267 -1.8013 0.9519
-2.6721 -11.8829 -1.8013 0.9519
-1.3792 -12.1013 -1.8013 0.9519
0.3319 -11.0120 -1.8013 0.9563
0.7270 -10.9930 -1.8013 0.9563
1.1211 -10.9598 -1.8013 0.9563
1.5138 -10.9125 -1.8013 0.9563
1.9046 -10.8512 -1.8013 0.9563
2.2929 -10.7758 -1.8013 0.9563
3.4380 -10.4669 -1.8013 0.9563
3.8115 -10.3367 -1.8013 0.9563
4.5433 -10.0366 -1.8013 0.9563
4.9007 -9.8671 -1.8013 0.9563
5.2517 -9.6848 -1.8013 0.9563
5.9330 -9.2830 -1.8013 0.9563
6.2624 -9.0641 -1.8013 0.9563
6.5837 -8.8334 -1.8013 0.9563
6.8966 -8.5914 -1.8013 0.9563
7.7802 -7.8002 -1.8013 0.9563
8.3198 -7.2219 -1.8013 0.9563
8.2927 -6.2139 -1.6943 0.9589
9.0480 -6.2856 -1.8013 0.9563
10.1825 -4.2063 -1.8013 0.9563
10.3269 -3.8380 -1.8013 0.9563
10.4580 -3.4649 -1.8013 0.9563
10.5756 -3.0872 -1.8013 0.9563
10.6797 -2.7056 -1.8013 0.9563
10.7699 -2.3205 -1.8013 0.9563
10.8462 -1.9324 -1.8013 0.9563
10.9086 -1.5418 -1.8013 0.9563
10.9570 -1.1492 -1.8013 0.9563
11.0112 -0.3602 -1.8013 0.9563
11.0086 0.4308 -1.8013 0.9563
10.9861 0.8257 -1.8013 0.9563
10.8985 1.6117 -1.8013 0.9563
10.8337 2.0019 -1.8013 0.9563
10.7548 2.3895 -1.8013 0.9563
10.6621 2.7740 -1.8013 0.9563
10.5557 3.1550 -1.8013 0.9563
10.4356 3.5318 -1.8013 0.9563
10.2877 3.8987 -1.7988 0.9564
9.9937 4.2035 -1.7726 0.9570
9.1498 4.2412 -1.6489 0.9599
8.2454 5.8068 -1.6489 0.9599
7.5734 6.6596 -1.6489 0.9599
5.3765 8.5323 -1.6489 0.9599
4.1000 9.2139 -1.6489 0.9599
2.7390 9.7058 -1.6489 0.9599
2.3889 9.7979 -1.6489 0.9599
2.0356 9.8774 -1.6489 0.9599
1.6797 9.9441 -1.6489 0.9599
0.9620 10.0390 -1.6489 0.9599
0.6010 10.0670 -1.6489 0.9599
0.2392 10.0821 -1.6489 0.9599
-0.1228 10.0842 -1.6489 0.9599
-0.4847 10.0733 -1.6489 0.9599
-0.8460 10.0494 -1.6489 0.9599
-1.2062 10.0125 -1.6489 0.9599
-1.5648 9.9628 -1.6489 0.9599
-1.9215 9.9002 -1.6489 0.9599
-2.2756 9.8248 -1.6489 0.9599
-2.6268 9.7368 -1.6489 0.9599
-3.6583 9.3980 -1.6489 0.9599
-3.9933 9.2606 -1.6489 0.9599
-4.3232 9.1113 -1.6489 0.9599
-4.9657 8.7777 -1.6489 0.9599
-5.5827 8.3988 -1.6489 0.9599
-6.1709 7.9766 -1.6489 0.9599
-6.4533 7.7499 -1.6489 0.9599
-6.9926 7.2670 -1.6489 0.9599
-7.2490 7.0113 -1.6489 0.9599
-8.4429 7.0671 -1.8002 0.9564
-8.9337 6.4471 -1.8013 0.9563
-10.1053 4.3884 -1.8013 0.9563
-10.7265 2.5135 -1.8013 0.9563
-10.9345 1.3458 -1.8013 0.9563
-10.9758 0.9524 -1.8013 0.9563
-11.0029 0.5578 -1.8013 0.9563
-11.0158 0.1625 -1.8013 0.9563
-10.9991 -0.6283 -1.8013 0.9563
-10.9695 -1.0227 -1.8013 0.9563
-10.7959 -2.1961 -1.8013 0.9563
-10.3705 -3.7186 -1.8013 0.9563
-10.2303 -4.0884 -1.8013 0.9563
-10.0770 -4.4531 -1.8013 0.9563
-9.9106 -4.8119 -1.8013 0.9563
-9.7315 -5.1646 -1.8013 0.9563
-8.1414 -7.4225 -1.8013 0.9563
-7.8697 -7.7099 -1.8013 0.9563
-7.2963 -8.2547 -1.8013 0.9563
-6.6852 -8.7569 -1.8013 0.9563
-6.0397 -9.2139 -1.8013 0.9563
-3.5586 -10.4265 -1.8013 0.9563
-3.1820 -10.5475 -1.8013 0.9563
-2.8014 -10.6549 -1.8013 0.9563
-2.0297 -10.8285 -1.8013 0.9563
-1.2476 -10.9462 -1.8013 0.9563
-0.7791 -10.0225 -1.8013 0.9600
-0.4188 -10.0439 -1.8013 0.9600
0.3029 -10.0481 -1.8013 0.9600
1.3813 -9.9573 -1.8013 0.9600
1.7379 -9.9013 -1.8013 0.9600
2.0922 -9.8325 -1.8013 0.9600
2.4438 -9.7511 -1.8013 0.9600
2.7922 -9.6571 -1.8013 0.9600
3.4779 -9.4319 -1.8013 0.9600
3.8142 -9.3010 -1.8013 0.9600
4.1456 -9.1581 -1.8013 0.9600
5.1061 -8.6593 -1.8013 0.9600
5.4137 -8.4705 -1.8013 0.9600
6.0075 -8.0602 -1.8013 0.9600
7.0992 -7.1174 -1.8013 0.9600
7.3501 -6.8580 -1.8013 0.9600
7.5916 -6.5898 -1.8013 0.9600
7.8232 -6.3130 -1.8013 0.9600
9.2912 -3.8381 -1.8013 0.9600
9.4230 -3.5021 -1.8013 0.9600
9.6499 -2.8170 -1.8013 0.9600
9.7448 -2.4688 -1.8013 0.9600
9.9538 -1.4069 -1.8013 0.9600
9.9979 -1.0487 -1.8013 0.9600
10.0526 0.0322 -1.8013 0.9600
10.0450 0.3930 -1.8013 0.9600
10.0244 0.7534 -1.8013 0.9600
9.8853 1.8267 -1.8013 0.9600
9.5221 3.2227 -1.8013 0.9600
9.4003 3.5624 -1.8013 0.9600
7.5237 5.2985 -1.6489 0.9633
6.9105 6.0767 -1.6489 0.9633
6.6879 6.3208 -1.6489 0.9633
3.9149 4.5926 -1.0813 0.9758
5.4518 7.4134 -1.6489 0.9633
4.6232 7.9565 -1.6489 0.9633
4.3346 8.1173 -1.6489 0.9633
4.0405 8.2677 -1.6489 0.9633
3.7411 8.4074 -1.6489 0.9633
3.4369 8.5363 -1.6489 0.9633
2.1798 8.9403 -1.6489 0.9633
1.8575 9.0128 -1.6489 0.9633
1.5327 9.0736 -1.6489 0.9633
1.2060 9.1228 -1.6489 0.9633
0.8778 9.1602 -1.6489 0.9633
0.2183 9.1996 -1.6489 0.9633
-0.1121 9.2015 -1.6489 0.9633
-1.4279 9.0907 -1.6489 0.9633
-2.0764 8.9648 -1.6489 0.9633
-2.3969 8.8845 -1.6489 0.9633
-3.6438 8.4500 -1.6489 0.9633
-3.9447 8.3138 -1.6489 0.9633
-4.2406 8.1668 -1.6489 0.9633
-4.5311 8.0093 -1.6489 0.9633
-4.8156 7.8415 -1.6489 0.9633
-5.3658 7.4758 -1.6489 0.9633
-5.6307 7.2784 -1.6489 0.9633
-5.8884 7.0716 -1.6489 0.9633
-7.6949 6.4409 -1.7981 0.9600
-7.9353 6.1716 -1.8013 0.9600
-8.3576 5.5863 -1.8013 0.9600
-8.9097 4.6555 -1.8013 0.9600
-9.0711 4.3326 -1.8013 0.9600
-9.3586 3.6707 -1.8013 0.9600
-9.5978 2.9898 -1.8013 0.9600
-2.0428 0.2514 -0.3688 0.9917
-2.0521 0.1781 -0.3691 0.9917
-2.0197 0.0298 -0.3619 0.9918
-2.0246 -0.0428 -0.3629 0.9918
-2.0449 -0.1168 -0.3670 0.9917
-9.7727 -2.3561 -1.8013 0.9600
-9.6818 -2.7054 -1.8013 0.9600
-9.4627 -3.3931 -1.8013 0.9600
-9.0431 -4.3907 -1.8013 0.9600
-8.8797 -4.7125 -1.8013 0.9600
-8.7048 -5.0282 -1.8013 0.9600
-8.1138 -5.9349 -1.8013 0.9600
-7.8955 -6.2223 -1.8013 0.9600
-7.6671 -6.5017 -1.8013 0.9600
-7.1809 -7.0350 -1.8013 0.9600
-6.9237 -7.2883 -1.8013 0.9600
-6.1001 -7.9904 -1.8013 0.9600
-5.8093 -8.2042 -1.8013 0.9600
-5.2057 -8.5998 -1.8013 0.9600
-4.8937 -8.7811 -1.8013 0.9600
-4.5753 -8.9511 -1.8013 0.9600
-3.9213 -9.2563 -1.8013 0.9600
-3.5865 -9.3911 -1.8013 0.9600
-3.2471 -9.5138 -1.8013 0.9600
-2.9035 -9.6242 -1.8013 0.9600
-2.5561 -9.7223 -1.8013 0.9600
-2.2055 -9.8077 -1.8013 0.9600
-0.3849 -9.2315 -1.8013 0.9630
0.2784 -9.2353 -1.8013 0.9630
0.6097 -9.2193 -1.8013 0.9630
0.9403 -9.1915 -1.8013 0.9630
1.2696 -9.1519 -1.8013 0.9630
1.5973 -9.1004 -1.8013 0.9630
1.9229 -9.0372 -1.8013 0.9630
2.2461 -8.9623 -1.8013 0.9630
2.5664 -8.8759 -1.8013 0.9630
2.8833 -8.7781 -1.8013 0.9630
4.6931 -7.9588 -1.8013 0.9630
4.9758 -7.7852 -1.8013 0.9630
5.2520 -7.6016 -1.8013 0.9630
5.5215 -7.4082 -1.8013 0.9630
5.7839 -7.2052 -1.8013 0.9630
6.0388 -6.9930 -1.8013 0.9630
6.2859 -6.7717 -1.8013 0.9630
6.5249 -6.5417 -1.8013 0.9630
6.7555 -6.3033 -1.8013 0.9630
6.9775 -6.0567 -1.8013 0.9630
8.2645 -4.1312 -1.8013 0.9630
8.5396 -3.5276 -1.8013 0.9630
8.9566 -2.2691 -1.8013 0.9630
9.0322 -1.9461 -1.8013 0.9630
9.0963 -1.6206 -1.8013 0.9630
9.1891 -0.9638 -1.8013 0.9630
9.2346 -0.3021 -1.8013 0.9630
9.2325 0.3613 -1.8013 0.9630
9.1827 1.0227 -1.8013 0.9630
9.0196 2.0040 -1.8013 0.9630
8.6399 3.2742 -1.8013 0.9630
8.5168 3.5823 -1.8013 0.9630
8.2055 4.1676 -1.7942 0.9632
7.0854 4.6185 -1.6489 0.9661
6.9151 4.8699 -1.6489 0.9661
6.7358 5.1150 -1.6489 0.9661
6.3515 5.5851 -1.6489 0.9661
6.1469 5.8095 -1.6489 0.9661
4.0953 4.4690 -1.1817 0.9756
5.0108 6.8137 -1.6489 0.9661
4.2492 7.3129 -1.6489 0.9661
3.9840 7.4607 -1.6489 0.9661
2.5878 8.0522 -1.6489 0.9661
2.2971 8.1399 -1.6489 0.9661
2.0034 8.2171 -1.6489 0.9661
1.7072 8.2837 -1.6489 0.9661
1.4087 8.3396 -1.6489 0.9661
0.8068 8.4192 -1.6489 0.9661
0.5040 8.4427 -1.6489 0.9661
0.2006 8.4554 -1.6489 0.9661
-0.1030 8.4572 -1.6489 0.9661
-0.4065 8.4480 -1.6489 0.9661
-0.7095 8.4280 -1.6489 0.9661
-2.2030 8.1658 -1.6489 0.9661
-2.4947 8.0815 -1.6489 0.9661
-3.3490 7.7665 -1.6489 0.9661
-4.9318 6.8711 -1.6489 0.9661
-5.8644 6.0945 -1.6489 0.9661
-6.0794 5.8800 -1.6489 0.9661
-6.2882 5.6595 -1.6493 0.9661
-7.0706 5.9183 -1.7976 0.9631
-7.8609 4.8554 -1.8013 0.9630
-8.0301 4.5701 -1.8013 0.9630
-8.1890 4.2789 -1.8013 0.9630
-8.3373 3.9822 -1.8013 0.9630
-8.4749 3.6803 -1.8013 0.9630
-8.7171 3.0628 -1.8013 0.9630
-1.7744 0.5527 -0.3623 0.9925
-1.7358 0.4067 -0.3476 0.9928
-1.6983 0.2712 -0.3353 0.9930
-1.7073 0.1482 -0.3341 0.9930
-1.7084 0.0866 -0.3335 0.9931
-1.7076 -0.0361 -0.3330 0.9931
-1.7030 -0.2207 -0.3348 0.9930
-1.6971 -0.2822 -0.3354 0.9930
-1.7395 -0.4194 -0.3489 0.9927
-1.7774 -0.5662 -0.3637 0.9924
-8.5797 -3.4288 -1.8013 0.9630
-8.3116 -4.0355 -1.8013 0.9630
-8.0006 -4.6214 -1.8013 0.9630
-7.4575 -5.4548 -1.8013 0.9630
-7.0469 -5.9758 -1.8013 0.9630
-6.3636 -6.6987 -1.8013 0.9630
-5.6066 -7.3440 -1.8013 0.9630
-5.3394 -7.5405 -1.8013 0.9630
-5.0653 -7.7273 -1.8013 0.9630
-4.7846 -7.9042 -1.8013 0.9630
-3.9072 -8.3727 -1.8013 0.9630
-3.2964 -8.6314 -1.8013 0.9630
-2.9844 -8.7442 -1.8013 0.9630
-2.6686 -8.8457 -1.8013 0.9630
-2.3494 -8.9358 -1.8013 0.9630
-2.0271 -9.0144 -1.8013 0.9630
-1.3751 -9.1366 -1.8013 0.9630
-1.0463 -9.1801 -1.8013 0.9630
-0.6622 -8.5185 -1.8013 0.9657
-0.3560 -8.5368 -1.8013 0.9657
-0.0493 -8.5441 -1.8013 0.9657
1.4771 -8.4156 -1.8013 0.9657
1.7782 -8.3571 -1.8013 0.9657
2.0771 -8.2879 -1.8013 0.9657
3.5236 -7.7838 -1.8013 0.9657
4.0729 -7.5110 -1.8013 0.9657
4.6013 -7.1994 -1.8013 0.9657
5.1060 -6.8507 -1.8013 0.9657
6.2472 -5.8289 -1.8013 0.9657
6.4524 -5.6009 -1.8013 0.9657
6.6493 -5.3657 -1.8013 0.9657
6.8376 -5.1235 -1.8013 0.9657
7.3488 -4.3588 -1.8013 0.9657
7.5005 -4.0922 -1.8013 0.9657
7.7748 -3.5435 -1.8013 0.9657
8.2019 -2.3943 -1.8013 0.9657
8.2826 -2.0983 -1.8013 0.9657
8.3525 -1.7997 -1.8013 0.9657
8.5397 -0.2793 -1.8013 0.9657
8.5442 0.0274 -1.8013 0.9657
8.4917 0.9458 -1.8013 0.9657
8.4020 1.5526 -1.8013 0.9657
8.2689 2.1514 -1.8013 0.9657
7.9897 3.0278 -1.8013 0.9657
7.8759 3.3127 -1.8013 0.9657
7.4477 4.1256 -1.7949 0.9658
7.0000 4.2128 -1.7224 0.9672
6.5522 4.2710 -1.6489 0.9685
6.3947 4.5035 -1.6489 0.9685
6.2289 4.7301 -1.6489 0.9685
5.8735 5.1648 -1.6489 0.9685
5.6843 5.3723 -1.6489 0.9685
5.4878 5.5729 -1.6489 0.9685
3.9068 4.5832 -1.2696 0.9757
4.8569 6.1306 -1.6489 0.9685
4.1697 6.6172 -1.6489 0.9685
3.4342 7.0271 -1.6489 0.9685
3.1797 7.1458 -1.6489 0.9685
2.9211 7.2553 -1.6489 0.9685
2.3931 7.4462 -1.6489 0.9685
2.1242 7.5273 -1.6489 0.9685
1.8527 7.5987 -1.6489 0.9685
0.1855 7.8191 -1.6489 0.9685
-0.6561 7.7938 -1.6489 0.9685
-0.9355 7.7652 -1.6489 0.9685
-1.2136 7.7266 -1.6489 0.9685
-1.4902 7.6781 -1.6489 0.9685
-2.3070 7.4733 -1.6489 0.9685
-2.8372 7.2886 -1.6489 0.9685
-3.0970 7.1821 -1.6489 0.9685
-3.3528 7.0662 -1.6489 0.9685
-3.6043 6.9413 -1.6489 0.9685
-4.0930 6.6649 -1.6489 0.9685
-4.3296 6.5136 -1.6489 0.9685
-4.5607 6.3540 -1.6489 0.9685
-4.7858 6.1862 -1.6489 0.9685
-6.5405 5.4747 -1.7982 0.9657
-7.1035 4.7481 -1.8013 0.9657
-7.7099 3.6825 -1.8013 0.9657
-1.6254 0.5711 -0.3632 0.9930
-1.6130 0.5025 -0.3562 0.9931
-1.5992 0.4358 -0.3494 0.9932
-1.5836 0.3711 -0.3429 0.9934
-1.5663 0.3082 -0.3365 0.9935
-1.5740 0.0798 -0.3323 0.9936
-1.5734 -0.0333 -0.3318 0.9936
-1.5739 -0.0899 -0.3324 0.9936
-1.5695 -0.3193 -0.3377 0.9935
-1.5865 -0.3825 -0.3441 0.9934
-1.6275 -0.5836 -0.3645 0.9930
-7.9341 -3.1708 -1.8013 0.9657
-7.8152 -3.4535 -1.8013 0.9657
-7.5472 -4.0053 -1.8013 0.9657
-7.2404 -4.5365 -1.8013 0.9657
-7.0729 -4.7935 -1.8013 0.9657
-6.7108 -5.2886 -1.8013 0.9657
-6.3140 -5.7564 -1.8013 0.9657
-6.1033 -5.9794 -1.8013 0.9657
-5.4251 -6.6009 -1.8013 0.9657
-4.9376 -6.9731 -1.8013 0.9657
-4.4246 -7.3093 -1.8013 0.9657
-4.1593 -7.4635 -1.8013 0.9657
-3.3329 -7.8674 -1.8013 0.9657
-1.8746 -8.3360 -1.8013 0.9657
-1.5741 -8.3980 -1.8013 0.9657
-1.2716 -8.4491 -1.8013 0.9657
-0.9675 -8.4892 -1.8013 0.9657
-0.6156 -7.9188 -1.8013 0.9679
-0.3309 -7.9358 -1.8013 0.9679
-0.0458 -7.9425 -1.8013 0.9679
0.2393 -7.9391 -1.8013 0.9679
0.5241 -7.9253 -1.8013 0.9679
0.8083 -7.9014 -1.8013 0.9679
1.0914 -7.8673 -1.8013 0.9679
1.9308 -7.7044 -1.8013 0.9679
2.4786 -7.5460 -1.8013 0.9679
2.7479 -7.4522 -1.8013 0.9679
3.7862 -6.9822 -1.8013 0.9679
4.0344 -6.8418 -1.8013 0.9679
4.2774 -6.6925 -1.8013 0.9679
5.4036 -5.8212 -1.8013 0.9679
5.6091 -5.6235 -1.8013 0.9679
5.9981 -5.2066 -1.8013 0.9679
6.1811 -4.9879 -1.8013 0.9679
6.3562 -4.7628 -1.8013 0.9679
6.5231 -4.5316 -1.8013 0.9679
6.6815 -4.2945 -1.8013 0.9679
6.8314 -4.0519 -1.8013 0.9679
6.9724 -3.8041 -1.8013 0.9679
7.1045 -3.5513 -1.8013 0.9679
7.4451 -2.7670 -1.8013 0.9679
7.5396 -2.4980 -1.8013 0.9679
7.6244 -2.2257 -1.8013 0.9679
7.8195 -1.3932 -1.8013 0.9679
7.8993 -0.8286 -1.8013 0.9679
7.9240 -0.5445 -1.8013 0.9679
7.9366 0.3106 -1.8013 0.9679
7.9203 0.5952 -1.8013 0.9679
7.8939 0.8792 -1.8013 0.9679
7.8572 1.1620 -1.8013 0.9679
7.8104 1.4433 -1.8013 0.9679
7.7536 1.7227 -1.8013 0.9679
7.6100 2.2746 -1.8013 0.9679
7.4272 2.8147 -1.8013 0.9679
7.3214 3.0795 -1.8013 0.9679
7.2062 3.3403 -1.8013 0.9679
6.9417 3.8452 -1.7997 0.9680
6.7840 4.0828 -1.7956 0.9680
6.4558 4.2081 -1.7476 0.9689
5.9974 4.2237 -1.6636 0.9704
5.6288 4.6021 -1.6489 0.9706
5.2841 4.9941 -1.6489 0.9706
4.5150 5.6989 -1.6489 0.9706
4.3075 5.8573 -1.6489 0.9706
3.6528 6.2865 -1.6489 0.9706
3.4248 6.4135 -1.6489 0.9706
2.2246 6.9220 -1.6489 0.9706
1.9747 6.9974 -1.6489 0.9706
1.4676 7.1210 -1.6489 0.9706
1.2110 7.1691 -1.6489 0.9706
0.9529 7.2079 -1.6489 0.9706
0.6935 7.2375 -1.6489 0.9706
0.4333 7.2577 -1.6489 0.9706
-0.0886 7.2701 -1.6489 0.9706
-0.6099 7.2450 -1.6489 0.9706
-0.8696 7.2185 -1.6489 0.9706
-1.1282 7.1826 -1.6489 0.9706
-1.8938 7.0197 -1.6489 0.9706
-4.2396 5.9067 -1.6489 0.9706
-5.2261 5.0547 -1.6489 0.9706
-6.2697 4.8762 -1.8013 0.9679
-6.6034 4.4138 -1.8013 0.9679
-6.7575 4.1739 -1.8013 0.9679
-6.9030 3.9286 -1.8013 0.9679
-7.0396 3.6783 -1.8013 0.9679
-7.1671 3.4232 -1.8013 0.9679
-7.2854 3.1638 -1.8013 0.9679
-1.4941 0.5860 -0.3640 0.9934
-1.4542 0.1790 -0.3323 0.9940
-1.4585 0.0739 -0.3312 0.9940
-1.4584 -0.0833 -0.3313 0.9940
-1.4440 -0.2937 -0.3342 0.9940
-1.4800 -0.4715 -0.3523 0.9936
-1.4886 -0.5338 -0.3586 0.9935
-7.0159 -3.7233 -1.8013 0.9679
-6.5749 -4.4560 -1.8013 0.9679
-6.2383 -4.9162 -1.8013 0.9679
-5.8695 -5.3511 -1.8013 0.9679
-5.6736 -5.5584 -1.8013 0.9679
-5.2602 -5.9511 -1.8013 0.9679
-3.8665 -6.9380 -1.8013 0.9679
-2.8337 -7.4200 -1.8013 0.9679
-2.5655 -7.5169 -1.8013 0.9679
-2.0196 -7.6816 -1.8013 0.9679
-1.1821 -7.8542 -1.8013 0.9679
-0.3090 -7.4104 -1.8013 0.9699
-0.0428 -7.4167 -1.8013 0.9699
0.7548 -7.3784 -1.8013 0.9699
1.2822 -7.3052 -1.8013 0.9699
1.8030 -7.1944 -1.8013 0.9699
2.0601 -7.1250 -1.8013 0.9699
2.5660 -6.9588 -1.8013 0.9699
2.8141 -6.8623 -1.8013 0.9699
3.0586 -6.7568 -1.8013 0.9699
3.2992 -6.6427 -1.8013 0.9699
3.7673 -6.3888 -1.8013 0.9699
4.2160 -6.1021 -1.8013 0.9699
4.4323 -5.9468 -1.8013 0.9699
4.6429 -5.7839 -1.8013 0.9699
5.2378 -5.2512 -1.8013 0.9699
5.4229 -5.0599 -1.8013 0.9699
5.6010 -4.8619 -1.8013 0.9699
5.7720 -4.6577 -1.8013 0.9699
5.9354 -4.4475 -1.8013 0.9699
6.2392 -4.0102 -1.8013 0.9699
6.3792 -3.7837 -1.8013 0.9699
6.7490 -3.0760 -1.8013 0.9699
6.8550 -2.8317 -1.8013 0.9699
6.9523 -2.5838 -1.8013 0.9699
7.0405 -2.3326 -1.8013 0.9699
7.3439 -1.0380 -1.8013 0.9699
7.3764 -0.7737 -1.8013 0.9699
7.4129 -0.2425 -1.8013 0.9699
7.4112 0.2900 -1.8013 0.9699
7.3960 0.5558 -1.8013 0.9699
7.3713 0.8210 -1.8013 0.9699
7.3371 1.0850 -1.8013 0.9699
7.2934 1.3477 -1.8013 0.9699
6.9355 2.6283 -1.8013 0.9699
6.7291 3.1192 -1.8013 0.9699
6.6128 3.3587 -1.8013 0.9699
6.1965 4.0391 -1.7964 0.9700
5.5546 4.2181 -1.6939 0.9717
5.2562 4.2974 -1.6489 0.9724
5.0985 4.4833 -1.6489 0.9724
4.9343 4.6635 -1.6489 0.9724
4.0843 4.4569 -1.4682 0.9754
4.0223 5.4696 -1.6489 0.9724
3.8234 5.6104 -1.6489 0.9724
3.6195 5.7441 -1.6489 0.9724
3.4110 5.8703 -1.6489 0.9724
3.1981 5.9890 -1.6489 0.9724
2.9811 6.0999 -1.6489 0.9724
2.7602 6.2030 -1.6489 0.9724
2.0773 6.4637 -1.6489 0.9724
1.6082 6.5961 -1.6489 0.9724
0.1611 6.7875 -1.6489 0.9724
-0.0827 6.7889 -1.6489 0.9724
-0.3263 6.7815 -1.6489 0.9724
-0.8120 6.7406 -1.6489 0.9724
-1.2936 6.6650 -1.6489 0.9724
-1.7684 6.5550 -1.6489 0.9724
-2.0026 6.4873 -1.6489 0.9724
-2.2341 6.4112 -1.6489 0.9724
-2.6884 6.2344 -1.6489 0.9724
-2.9104 6.1339 -1.6489 0.9724
-3.3430 5.9093 -1.6489 0.9724
-3.9589 5.5157 -1.6489 0.9724
-4.1543 5.3700 -1.6489 0.9724
-4.3444 5.2174 -1.6489 0.9724
-4.7076 4.8923 -1.6489 0.9724
-5.4985 4.9488 -1.7966 0.9700
-5.6861 4.7595 -1.8009 0.9699
-5.8546 4.5534 -1.8013 0.9699
-6.1662 4.1216 -1.8013 0.9699
-6.3102 3.8976 -1.8013 0.9699
-1.3767 0.5979 -0.3645 0.9938
-1.3743 0.5391 -0.3585 0.9939
-1.3699 0.4813 -0.3526 0.9940
-1.3423 0.2641 -0.3323 0.9944
-1.3540 0.1667 -0.3313 0.9944
-1.3579 -0.0287 -0.3299 0.9944
-1.3582 -0.0776 -0.3304 0.9944
-1.3566 -0.1265 -0.3309 0.9944
-1.3409 -0.2728 -0.3323 0.9944
-1.3570 -0.3792 -0.3422 0.9942
-1.3649 -0.4348 -0.3479 0.9941
-1.3709 -0.4916 -0.3537 0.9940
-1.3749 -0.5495 -0.3596 0.9939
-1.3769 -0.6084 -0.3656 0.9938
-6.6720 -3.2394 -1.8013 0.9699
-6.4224 -3.7098 -1.8013 0.9699
-6.2851 -3.9379 -1.8013 0.9699
-6.1397 -4.1610 -1.8013 0.9699
-5.6568 -4.7969 -1.8013 0.9699
-5.4809 -4.9969 -1.8013 0.9699
-5.1083 -5.3773 -1.8013 0.9699
-4.5006 -5.8953 -1.8013 0.9699
-4.2861 -6.0530 -1.8013 0.9699
-4.0661 -6.2030 -1.8013 0.9699
-3.6105 -6.4787 -1.8013 0.9699
-3.1364 -6.7211 -1.8013 0.9699
-2.8931 -6.8293 -1.8013 0.9699
-2.6461 -6.9288 -1.8013 0.9699
-2.3957 -7.0193 -1.8013 0.9699
-2.1422 -7.1008 -1.8013 0.9699
-1.8859 -7.1731 -1.8013 0.9699
-1.6272 -7.2362 -1.8013 0.9699
-1.3664 -7.2899 -1.8013 0.9699
-0.8399 -7.3692 -1.8013 0.9699
-0.2897 -6.9471 -1.8013 0.9717
-0.0401 -6.9530 -1.8013 0.9717
0.4588 -6.9380 -1.8013 0.9717
1.4471 -6.8009 -1.8013 0.9717
1.6903 -6.7446 -1.8013 0.9717
1.9313 -6.6796 -1.8013 0.9717
2.1698 -6.6059 -1.8013 0.9717
2.6382 -6.4332 -1.8013 0.9717
2.8674 -6.3344 -1.8013 0.9717
3.0929 -6.2274 -1.8013 0.9717
3.3145 -6.1123 -1.8013 0.9717
3.7445 -5.8588 -1.8013 0.9717
3.9524 -5.7206 -1.8013 0.9717
4.1552 -5.5750 -1.8013 0.9717
4.9103 -4.9229 -1.8013 0.9717
5.0839 -4.7435 -1.8013 0.9717
5.2509 -4.5579 -1.8013 0.9717
5.4111 -4.3665 -1.8013 0.9717
5.5643 -4.1695 -1.8013 0.9717
5.7104 -3.9670 -1.8013 0.9717
5.8491 -3.7595 -1.8013 0.9717
5.9803 -3.5471 -1.8013 0.9717
6.1038 -3.3302 -1.8013 0.9717
6.3270 -2.8836 -1.8013 0.9717
6.4264 -2.6547 -1.8013 0.9717
6.6003 -2.1868 -1.8013 0.9717
6.6746 -1.9484 -1.8013 0.9717
6.8454 -1.2196 -1.8013 0.9717
6.9368 -0.4766 -1.8013 0.9717
6.9494 -0.2273 -1.8013 0.9717
6.9336 0.5211 -1.8013 0.9717
6.8374 1.2634 -1.8013 0.9717
6.7877 1.5081 -1.8013 0.9717
6.5019 2.4640 -1.8013 0.9717
6.3084 2.9241 -1.8013 0.9717
6.1994 3.1487 -1.8013 0.9717
6.0823 3.3692 -1.8013 0.9717
5.8224 3.7953 -1.8005 0.9717
5.6718 3.9944 -1.7971 0.9717
4.6359 4.3814 -1.6525 0.9740
4.4659 4.5351 -1.6489 0.9740
3.8946 4.5688 -1.5553 0.9755
3.7708 5.1276 -1.6489 0.9740
3.5844 5.2597 -1.6489 0.9740
3.3933 5.3849 -1.6489 0.9740
3.1977 5.5033 -1.6489 0.9740
2.5876 5.8152 -1.6489 0.9740
1.9475 6.0596 -1.6489 0.9740
1.7287 6.1256 -1.6489 0.9740
1.5077 6.1837 -1.6489 0.9740
0.8342 6.3100 -1.6489 0.9740
0.6071 6.3359 -1.6489 0.9740
0.1510 6.3631 -1.6489 0.9740
-0.0775 6.3644 -1.6489 0.9740
-0.5339 6.3425 -1.6489 0.9740
-0.9876 6.2878 -1.6489 0.9740
-1.2127 6.2483 -1.6489 0.9740
-2.3089 5.9313 -1.6489 0.9740
-2.5203 5.8446 -1.6489 0.9740
-2.7285 5.7504 -1.6489 0.9740
-2.9331 5.6487 -1.6489 0.9740
-3.8946 5.0342 -1.6489 0.9740
-4.2458 4.7418 -1.6489 0.9740
-5.1609 4.6449 -1.7987 0.9717
-5.3318 4.4629 -1.8013 0.9717
-5.4886 4.2687 -1.8013 0.9717
-5.6383 4.0689 -1.8013 0.9717
-5.9157 3.6539 -1.8013 0.9717
-6.0430 3.4392 -1.8013 0.9717
-1.2882 0.6153 -0.3698 0.9941
-1.2893 0.5599 -0.3641 0.9942
-1.2890 0.5056 -0.3587 0.9943
-1.2845 0.4002 -0.3485 0.9945
-1.2804 0.3490 -0.3438 0.9945
-1.2765 0.2991 -0.3397 0.9946
-1.2844 0.2051 -0.3370 0.9946
-1.2877 0.1585 -0.3361 0.9947
-1.2899 0.1119 -0.3354 0.9947
-1.2910 0.0655 -0.3349 0.9947
-1.2910 -0.0273 -0.3345 0.9947
-1.2909 -0.0737 -0.3350 0.9947
-1.2896 -0.1202 -0.3355 0.9947
-1.2872 -0.1668 -0.3363 0.9947
-1.2837 -0.2134 -0.3371 0.9946
-1.2813 -0.3580 -0.3446 0.9945
-1.2878 -0.4618 -0.3544 0.9944
-1.2892 -0.5152 -0.3597 0.9943
-6.0209 -3.4778 -1.8013 0.9717
-5.6121 -4.1050 -1.8013 0.9717
-5.1383 -4.6845 -1.8013 0.9717
-4.9668 -4.8659 -1.8013 0.9717
-4.0181 -5.6746 -1.8013 0.9717
-3.8118 -5.8151 -1.8013 0.9717
-3.3848 -6.0736 -1.8013 0.9717
-2.9403 -6.3008 -1.8013 0.9717
-2.7122 -6.4023 -1.8013 0.9717
-2.4807 -6.4956 -1.8013 0.9717
-1.5255 -6.7837 -1.8013 0.9717
-1.2810 -6.8341 -1.8013 0.9717
-1.0348 -6.8757 -1.8013 0.9717
0.6656 -6.5070 -1.8013 0.9732
0.8988 -6.4789 -1.8013 0.9732
1.3613 -6.3977 -1.8013 0.9732
1.5901 -6.3447 -1.8013 0.9732
1.8168 -6.2836 -1.8013 0.9732
2.0412 -6.2143 -1.8013 0.9732
2.4818 -6.0518 -1.8013 0.9732
3.3224 -5.6343 -1.8013 0.9732
4.4500 -4.7939 -1.8013 0.9732
4.6192 -4.6311 -1.8013 0.9732
5.3719 -3.7319 -1.8013 0.9732
5.5024 -3.5366 -1.8013 0.9732
5.8507 -2.9246 -1.8013 0.9732
5.9519 -2.7127 -1.8013 0.9732
6.0455 -2.4973 -1.8013 0.9732
6.1312 -2.2787 -1.8013 0.9732
6.2789 -1.8329 -1.8013 0.9732
6.3406 -1.6064 -1.8013 0.9732
6.3942 -1.3777 -1.8013 0.9732
6.4396 -1.1473 -1.8013 0.9732
6.5256 -0.4484 -1.8013 0.9732
6.5375 -0.2138 -1.8013 0.9732
6.5409 0.0210 -1.8013 0.9732
6.5360 0.2558 -1.8013 0.9732
6.3302 1.6470 -1.8013 0.9732
6.2670 1.8731 -1.8013 0.9732
5.9344 2.7508 -1.8013 0.9732
5.4796 3.5718 -1.8013 0.9732
5.3471 3.7657 -1.8010 0.9732
5.0460 4.1256 -1.7949 0.9733
4.7841 4.2069 -1.7544 0.9739
4.4635 4.2185 -1.6913 0.9748
4.2011 4.2663 -1.6489 0.9755
3.8842 4.5567 -1.6489 0.9755
3.7182 4.6932 -1.6489 0.9755
3.5473 4.8236 -1.6489 0.9755
3.3719 4.9479 -1.6489 0.9755
3.1921 5.0657 -1.6489 0.9755
2.8204 5.2817 -1.6489 0.9755
2.6290 5.3795 -1.6489 0.9755
2.4342 5.4704 -1.6489 0.9755
2.0354 5.6310 -1.6489 0.9755
1.4183 5.8172 -1.6489 0.9755
1.2086 5.8643 -1.6489 0.9755
0.9973 5.9039 -1.6489 0.9755
0.7847 5.9359 -1.6489 0.9755
-0.0729 5.9871 -1.6489 0.9755
-0.2878 5.9806 -1.6489 0.9755
-0.5023 5.9664 -1.6489 0.9755
-0.9291 5.9150 -1.6489 0.9755
-1.5596 5.7809 -1.6489 0.9755
-1.9703 5.6541 -1.6489 0.9755
-2.5667 5.4095 -1.6489 0.9755
-2.7592 5.3139 -1.6489 0.9755
-3.1334 5.1022 -1.6489 0.9755
-3.4914 4.8643 -1.6489 0.9755
-3.6637 4.7358 -1.6489 0.9755
-3.8314 4.6012 -1.6489 0.9755
-4.1050 4.5847 -1.6947 0.9748
-4.6913 4.5375 -1.7974 0.9733
-4.8610 4.3750 -1.8010 0.9732
-5.0157 4.1984 -1.8013 0.9732
-5.3040 3.8277 -1.8013 0.9732
-5.4380 3.6349 -1.8013 0.9732
-5.5650 3.4373 -1.8013 0.9732
-1.2200 0.6375 -0.3791 0.9943
-1.2235 0.5844 -0.3734 0.9944
-1.2255 0.5322 -0.3679 0.9945
-1.2221 0.3331 -0.3488 0.9948
-1.2268 0.2414 -0.3443 0.9948
-1.2312 0.1966 -0.3434 0.9948
-1.2345 0.1519 -0.3425 0.9949
-1.2378 0.0627 -0.3413 0.9949
-1.2259 -0.2494 -0.3445 0.9948
-1.2223 -0.3416 -0.3495 0.9947
-1.2239 -0.3899 -0.3538 0.9947
-1.2257 -0.4395 -0.3586 0.9946
-1.2261 -0.4900 -0.3636 0.9945
-1.2252 -0.5414 -0.3689 0.9945
-1.2193 -0.6471 -0.3801 0.9943
-5.2794 -3.8616 -1.8013 0.9732
-5.1374 -4.0486 -1.8013 0.9732
-4.9887 -4.2304 -1.8013 0.9732
-4.8337 -4.4068 -1.8013 0.9732
-4.6724 -4.5775 -1.8013 0.9732
-4.3319 -4.9009 -1.8013 0.9732
-4.1532 -5.0532 -1.8013 0.9732
-3.9691 -5.1990 -1.8013 0.9732
-3.3872 -5.5956 -1.8013 0.9732
-3.1841 -5.7136 -1.8013 0.9732
-2.7660 -5.9273 -1.8013 0.9732
-2.5515 -6.0228 -1.8013 0.9732
-2.1128 -6.1903 -1.8013 0.9732
-1.6632 -6.3259 -1.8013 0.9732
-0.9735 -6.4681 -1.8013 0.9732
-0.2571 -6.1666 -1.8013 0.9746
0.4073 -6.1585 -1.8013 0.9746
0.6281 -6.1400 -1.8013 0.9746
1.7143 -5.9291 -1.8013 0.9746
1.9261 -5.8638 -1.8013 0.9746
2.1353 -5.7908 -1.8013 0.9746
2.5453 -5.6227 -1.8013 0.9746
2.7455 -5.5277 -1.8013 0.9746
3.3238 -5.2006 -1.8013 0.9746
3.5084 -5.0779 -1.8013 0.9746
3.8636 -4.8131 -1.8013 0.9746
4.0339 -4.6713 -1.8013 0.9746
4.5127 -4.2106 -1.8013 0.9746
4.9392 -3.7010 -1.8013 0.9746
5.0689 -3.5213 -1.8013 0.9746
5.1920 -3.3371 -1.8013 0.9746
5.3085 -3.1486 -1.8013 0.9746
5.7854 -2.1501 -1.8013 0.9746
5.8588 -1.9411 -1.8013 0.9746
5.9247 -1.7295 -1.8013 0.9746
6.1383 -0.6438 -1.8013 0.9746
6.1575 -0.4231 -1.8013 0.9746
6.1687 -0.2018 -1.8013 0.9746
6.1720 0.0198 -1.8013 0.9746
6.1056 0.9029 -1.8013 0.9746
6.0692 1.1215 -1.8013 0.9746
6.0251 1.3387 -1.8013 0.9746
5.9731 1.5541 -1.8013 0.9746
5.7715 2.1872 -1.8013 0.9746
5.6892 2.3930 -1.8013 0.9746
5.5997 2.5956 -1.8013 0.9746
5.2882 3.1826 -1.8013 0.9746
4.9154 3.7326 -1.8013 0.9746
4.6212 4.0636 -1.7960 0.9747
3.8692 4.2222 -1.6714 0.9764
3.6651 4.2997 -1.6489 0.9767
3.5084 4.4285 -1.6489 0.9767
3.3472 4.5515 -1.6489 0.9767
3.1817 4.6688 -1.6489 0.9767
3.0120 4.7800 -1.6489 0.9767
2.4807 5.0761 -1.6489 0.9767
2.2969 5.1618 -1.6489 0.9767
1.5345 5.4374 -1.6489 0.9767
1.1404 5.5335 -1.6489 0.9767
0.9410 5.5709 -1.6489 0.9767
0.7404 5.6011 -1.6489 0.9767
0.5389 5.6240 -1.6489 0.9767
0.3367 5.6398 -1.6489 0.9767
0.1340 5.6482 -1.6489 0.9767
-0.2716 5.6433 -1.6489 0.9767
-0.4740 5.6299 -1.6489 0.9767
-0.6757 5.6092 -1.6489 0.9767
-1.2748 5.5041 -1.6489 0.9767
-1.4716 5.4548 -1.6489 0.9767
-2.0495 5.2650 -1.6489 0.9767
-2.6036 5.0141 -1.6489 0.9767
-2.7819 4.9174 -1.6489 0.9767
-2.9566 4.8144 -1.6489 0.9767
-3.1275 4.7052 -1.6489 0.9767
-3.4571 4.4687 -1.6489 0.9767
-4.0838 4.5610 -1.7867 0.9748
-4.5875 4.1289 -1.8013 0.9746
-4.7328 3.9616 -1.8013 0.9746
-4.8720 3.7891 -1.8013 0.9746
-5.0048 3.6118 -1.8013 0.9746
-5.1313 3.4298 -1.8013 0.9746
-5.2511 3.2434 -1.8013 0.9746
-1.1644 0.5562 -0.3766 0.9946
-1.1672 0.5069 -0.3714 0.9947
-1.1687 0.4106 -0.3615 0.9949
-1.1697 0.3644 -0.3576 0.9949
-1.1695 0.3187 -0.3538 0.9950
-1.1720 0.2746 -0.3513 0.9950
-1.1775 0.2317 -0.3502 0.9950
-1.1819 0.1888 -0.3493 0.9950
-1.1884 0.0602 -0.3473 0.9951
-1.1871 -0.1107 -0.3480 0.9950
-1.1847 -0.1535 -0.3486 0.9950
-1.1766 -0.2393 -0.3504 0.9950
-1.1709 -0.2823 -0.3515 0.9950
-1.1696 -0.3726 -0.3582 0.9949
-1.1688 -0.4191 -0.3624 0.9948
-1.1668 -0.5156 -0.3723 0.9947
-1.1638 -0.5651 -0.3776 0.9946
-5.3444 -3.0871 -1.8013 0.9746
-5.1092 -3.4626 -1.8013 0.9746
-4.9816 -3.6438 -1.8013 0.9746
-4.8476 -3.8203 -1.8013 0.9746
-4.7073 -3.9918 -1.8013 0.9746
-4.5610 -4.1582 -1.8013 0.9746
-3.9189 -4.7682 -1.8013 0.9746
-3.7452 -4.9058 -1.8013 0.9746
-3.3836 -5.1618 -1.8013 0.9746
-3.1961 -5.2800 -1.8013 0.9746
-2.8091 -5.4957 -1.8013 0.9746
-2.2020 -5.7658 -1.8013 0.9746
-1.9936 -5.8411 -1.8013 0.9746
-1.7826 -5.9089 -1.8013 0.9746
-1.5694 -5.9691 -1.8013 0.9746
-1.3541 -6.0216 -1.8013 0.9746
-0.9186 -6.1032 -1.8013 0.9746
-0.6989 -6.1323 -1.8013 0.9746
-0.4526 -5.8221 -1.8013 0.9759
-0.0337 -5.8395 -1.8013 0.9759
0.1759 -5.8370 -1.8013 0.9759
0.3854 -5.8269 -1.8013 0.9759
1.0095 -5.7517 -1.8013 0.9759
1.2154 -5.7118 -1.8013 0.9759
1.6220 -5.6098 -1.8013 0.9759
1.8224 -5.5480 -1.8013 0.9759
2.0203 -5.4790 -1.8013 0.9759
2.2157 -5.4030 -1.8013 0.9759
2.5976 -5.2301 -1.8013 0.9759
2.7837 -5.1335 -1.8013 0.9759
2.9662 -5.0302 -1.8013 0.9759
3.1448 -4.9205 -1.8013 0.9759
3.3194 -4.8045 -1.8013 0.9759
3.4897 -4.6822 -1.8013 0.9759
4.1240 -4.1345 -1.8013 0.9759
4.4100 -3.8280 -1.8013 0.9759
5.0226 -2.9791 -1.8013 0.9759
5.2234 -2.6110 -1.8013 0.9759
5.3138 -2.4219 -1.8013 0.9759
5.4738 -2.0344 -1.8013 0.9759
5.6608 -1.4341 -1.8013 0.9759
5.7086 -1.2300 -1.8013 0.9759
5.7822 -0.8173 -1.8013 0.9759
5.8365 -0.1909 -1.8013 0.9759
5.8396 0.0187 -1.8013 0.9759
5.8352 0.2283 -1.8013 0.9759
5.8038 0.6464 -1.8013 0.9759
5.7768 0.8543 -1.8013 0.9759
5.7006 1.2666 -1.8013 0.9759
5.5951 1.6723 -1.8013 0.9759
5.4607 2.0694 -1.8013 0.9759
5.2981 2.4559 -1.8013 0.9759
5.2066 2.6445 -1.8013 0.9759
5.0034 3.0112 -1.8013 0.9759
4.7745 3.3624 -1.8013 0.9759
4.5209 3.6963 -1.8013 0.9759
4.3811 3.8525 -1.7996 0.9759
4.2340 4.0016 -1.7970 0.9759
3.8543 4.2059 -1.7597 0.9764
3.3464 4.2239 -1.6622 0.9777
3.1670 4.3065 -1.6489 0.9779
2.6857 4.6220 -1.6489 0.9779
2.3471 4.8027 -1.6489 0.9779
2.1732 4.8839 -1.6489 0.9779
1.6356 5.0892 -1.6489 0.9779
1.4518 5.1446 -1.6489 0.9779
1.2662 5.1934 -1.6489 0.9779
0.5099 5.3212 -1.6489 0.9779
0.3186 5.3361 -1.6489 0.9779
0.1268 5.3441 -1.6489 0.9779
-0.4484 5.3267 -1.6489 0.9779
-0.8295 5.2808 -1.6489 0.9779
-1.2062 5.2077 -1.6489 0.9779
-2.1167 4.9087 -1.6489 0.9779
-2.4634 4.7441 -1.6489 0.9779
-2.7974 4.5552 -1.6489 0.9779
-2.9591 4.4518 -1.6489 0.9779
-3.1269 4.3565 -1.6541 0.9778
-3.8847 4.3386 -1.7964 0.9759
-4.0446 4.2033 -1.7993 0.9759
-4.4779 3.7482 -1.8013 0.9759
-4.8550 3.2451 -1.8013 0.9759
-1.0997 0.6259 -0.3903 0.9947
-1.1057 0.5778 -0.3848 0.9948
-1.1104 0.5304 -0.3796 0.9949
-1.1137 0.4837 -0.3745 0.9949
-1.1164 0.4379 -0.3699 0.9950
-1.1191 0.3932 -0.3659 0.9950
-1.1209 0.3055 -0.3584 0.9951
-1.1262 0.2639 -0.3568 0.9952
-1.1392 0.1402 -0.3541 0.9952
-1.1414 0.0991 -0.3534 0.9952
-1.1422 0.0168 -0.3524 0.9952
-1.1424 -0.0242 -0.3524 0.9952
-1.1423 -0.0652 -0.3529 0.9952
-1.1411 -0.1064 -0.3535 0.9952
-1.1387 -0.1476 -0.3542 0.9952
-1.1353 -0.1888 -0.3550 0.9952
-1.1251 -0.2713 -0.3570 0.9952
-1.1158 -0.4459 -0.3706 0.9950
-4.4538 -3.7769 -1.8013 0.9759
-4.1714 -4.0867 -1.8013 0.9759
-4.0220 -4.2338 -1.8013 0.9759
-3.8674 -4.3754 -1.8013 0.9759
-3.7079 -4.5114 -1.8013 0.9759
-3.3746 -4.7658 -1.8013 0.9759
-3.2014 -4.8839 -1.8013 0.9759
-3.0240 -4.9957 -1.8013 0.9759
-2.8427 -5.1010 -1.8013 0.9759
-2.6578 -5.1997 -1.8013 0.9759
-1.8862 -5.5266 -1.8013 0.9759
-1.6866 -5.5908 -1.8013 0.9759
-1.4849 -5.6477 -1.8013 0.9759
-1.2812 -5.6974 -1.8013 0.9759
-0.8691 -5.7746 -1.8013 0.9759
-0.6613 -5.8021 -1.8013 0.9759
-0.2308 -5.5338 -1.8013 0.9770
-0.0320 -5.5385 -1.8013 0.9770
0.5636 -5.5098 -1.8013 0.9770
0.9575 -5.4552 -1.8013 0.9770
1.5384 -5.3206 -1.8013 0.9770
1.7284 -5.2620 -1.8013 0.9770
1.9162 -5.1966 -1.8013 0.9770
2.1015 -5.1244 -1.8013 0.9770
2.2841 -5.0457 -1.8013 0.9770
2.8133 -4.7709 -1.8013 0.9770
2.9827 -4.6668 -1.8013 0.9770
3.7681 -4.0593 -1.8013 0.9770
3.9114 -3.9214 -1.8013 0.9770
4.0496 -3.7785 -1.8013 0.9770
4.1826 -3.6307 -1.8013 0.9770
4.4323 -3.3212 -1.8013 0.9770
4.6592 -2.9946 -1.8013 0.9770
4.7637 -2.8255 -1.8013 0.9770
4.8620 -2.6527 -1.8013 0.9770
4.9541 -2.4764 -1.8013 0.9770
5.2575 -1.7419 -1.8013 0.9770
5.5084 -0.5778 -1.8013 0.9770
5.5256 -0.3797 -1.8013 0.9770
5.5356 -0.1811 -1.8013 0.9770
5.5386 0.0178 -1.8013 0.9770
5.5344 0.2166 -1.8013 0.9770
5.5230 0.4151 -1.8013 0.9770
5.5046 0.6131 -1.8013 0.9770
5.4790 0.8103 -1.8013 0.9770
5.4067 1.2013 -1.8013 0.9770
5.3601 1.3946 -1.8013 0.9770
5.3066 1.5861 -1.8013 0.9770
4.7455 2.8560 -1.8013 0.9770
4.6399 3.0245 -1.8013 0.9770
4.4109 3.3496 -1.8013 0.9770
4.2879 3.5058 -1.8013 0.9770
4.1593 3.6574 -1.8013 0.9770
4.0233 3.8025 -1.8004 0.9770
3.7307 4.0710 -1.7958 0.9770
2.8785 4.2239 -1.6624 0.9787
2.3882 4.4723 -1.6489 0.9789
2.2261 4.5551 -1.6489 0.9789
2.0612 4.6321 -1.6489 0.9789
1.8936 4.7031 -1.6489 0.9789
1.7235 4.7680 -1.6489 0.9789
1.5513 4.8268 -1.6489 0.9789
1.3770 4.8794 -1.6489 0.9789
1.2009 4.9257 -1.6489 0.9789
1.0234 4.9656 -1.6489 0.9789
0.8445 4.9992 -1.6489 0.9789
0.6645 5.0263 -1.6489 0.9789
0.4836 5.0469 -1.6489 0.9789
0.3021 5.0610 -1.6489 0.9789
0.1203 5.0686 -1.6489 0.9789
-0.0617 5.0696 -1.6489 0.9789
-0.4253 5.0521 -1.6489 0.9789
-0.7867 5.0086 -1.6489 0.9789
-0.9660 4.9771 -1.6489 0.9789
-1.1440 4.9392 -1.6489 0.9789
-1.3206 4.8950 -1.6489 0.9789
-1.4954 4.8444 -1.6489 0.9789
-2.0075 4.6556 -1.6489 0.9789
-2.1734 4.5805 -1.6489 0.9789
-2.3364 4.4996 -1.6489 0.9789
-2.4964 4.4128 -1.6489 0.9789
-2.8639 4.3085 -1.6825 0.9785
-3.5346 4.2448 -1.7965 0.9770
-3.6900 4.1212 -1.7991 0.9770
-4.1167 3.7052 -1.8013 0.9770
-4.2471 3.5550 -1.8013 0.9770
-4.3720 3.4003 -1.8013 0.9770
-4.4912 3.2411 -1.8013 0.9770
-1.0413 0.6432 -0.3981 0.9949
-1.0492 0.5971 -0.3926 0.9949
-1.0607 0.5067 -0.3823 0.9951
-1.0657 0.4628 -0.3779 0.9951
-1.0700 0.4197 -0.3738 0.9952
-1.0731 0.3770 -0.3699 0.9952
-1.0749 0.3349 -0.3662 0.9953
-1.0770 0.2935 -0.3631 0.9953
-1.0931 0.1746 -0.3600 0.9954
-1.0963 0.1349 -0.3592 0.9954
-1.0993 0.0162 -0.3576 0.9954
-1.0992 -0.0628 -0.3581 0.9954
-1.0958 -0.1420 -0.3594 0.9954
-1.0924 -0.1816 -0.3602 0.9954
-1.0824 -0.2609 -0.3621 0.9953
-1.0758 -0.3006 -0.3633 0.9953
-1.0693 -0.4273 -0.3745 0.9952
-1.0599 -0.5146 -0.3832 0.9951
-4.5848 -3.1073 -1.8013 0.9770
-4.3501 -3.4282 -1.8013 0.9770
-4.0929 -3.7315 -1.8013 0.9770
-3.8146 -4.0155 -1.8013 0.9770
-3.6680 -4.1498 -1.8013 0.9770
-3.3608 -4.4023 -1.8013 0.9770
-3.2007 -4.5201 -1.8013 0.9770
-2.8681 -4.7381 -1.8013 0.9770
-2.6962 -4.8380 -1.8013 0.9770
-1.7890 -5.2417 -1.8013 0.9770
-1.2151 -5.4036 -1.8013 0.9770
-1.0204 -5.4438 -1.8013 0.9770
-0.8243 -5.4769 -1.8013 0.9770
0.1586 -5.2621 -1.8013 0.9780
0.3474 -5.2530 -1.8013 0.9780
1.0956 -5.1492 -1.8013 0.9780
1.2798 -5.1065 -1.8013 0.9780
1.4623 -5.0573 -1.8013 0.9780
1.8213 -4.9394 -1.8013 0.9780
1.9975 -4.8708 -1.8013 0.9780
2.1710 -4.7960 -1.8013 0.9780
2.3418 -4.7150 -1.8013 0.9780
3.7178 -3.7273 -1.8013 0.9780
3.8492 -3.5915 -1.8013 0.9780
3.9756 -3.4510 -1.8013 0.9780
4.0969 -3.3060 -1.8013 0.9780
4.3236 -3.0036 -1.8013 0.9780
4.5279 -2.6856 -1.8013 0.9780
4.7089 -2.3539 -1.8013 0.9780
4.7904 -2.1833 -1.8013 0.9780
4.9347 -1.8340 -1.8013 0.9780
5.1464 -1.1089 -1.8013 0.9780
5.1829 -0.9234 -1.8013 0.9780
5.2127 -0.7367 -1.8013 0.9780
5.2358 -0.5492 -1.8013 0.9780
5.2521 -0.3609 -1.8013 0.9780
5.2617 -0.1721 -1.8013 0.9780
5.2604 0.2058 -1.8013 0.9780
5.0949 1.3256 -1.8013 0.9780
5.0440 1.5076 -1.8013 0.9780
4.9866 1.6877 -1.8013 0.9780
4.8527 2.0411 -1.8013 0.9780
4.6938 2.3840 -1.8013 0.9780
4.5106 2.7146 -1.8013 0.9780
4.4103 2.8748 -1.8013 0.9780
4.3042 3.0312 -1.8013 0.9780
4.1926 3.1838 -1.8013 0.9780
4.0757 3.3322 -1.8013 0.9780
3.9534 3.4764 -1.8013 0.9780
3.8261 3.6161 -1.8013 0.9780
3.2580 4.1124 -1.7951 0.9781
3.0896 4.2013 -1.7844 0.9782
2.8683 4.2090 -1.7428 0.9787
2.2700 4.2509 -1.6489 0.9798
2.1159 4.3297 -1.6489 0.9798
1.9592 4.4029 -1.6489 0.9798
1.7999 4.4703 -1.6489 0.9798
1.3088 4.6379 -1.6489 0.9798
1.1415 4.6819 -1.6489 0.9798
0.8027 4.7517 -1.6489 0.9798
0.4597 4.7971 -1.6489 0.9798
0.2872 4.8105 -1.6489 0.9798
-0.0587 4.8187 -1.6489 0.9798
-0.2316 4.8135 -1.6489 0.9798
-0.4043 4.8021 -1.6489 0.9798
-0.9182 4.7308 -1.6489 0.9798
-1.2552 4.6527 -1.6489 0.9798
-1.5858 4.5507 -1.6489 0.9798
-1.9082 4.4252 -1.6489 0.9798
-2.8527 4.2917 -1.7632 0.9784
-3.3648 4.0409 -1.7992 0.9780
-3.5117 3.9220 -1.8013 0.9780
-3.7841 3.6600 -1.8013 0.9780
-4.2689 3.0807 -1.8013 0.9780
-1.0097 0.5276 -0.3898 0.9952
-1.0167 0.4856 -0.3855 0.9952
-1.0269 0.4028 -0.3774 0.9953
-1.0372 0.2827 -0.3678 0.9955
-1.0529 0.1682 -0.3648 0.9955
-1.0581 0.0918 -0.3634 0.9955
-1.0591 0.0156 -0.3624 0.9955
-1.0592 -0.0224 -0.3625 0.9955
-1.0578 -0.0986 -0.3635 0.9955
-1.0556 -0.1368 -0.3642 0.9955
-1.0523 -0.1750 -0.3650 0.9955
-1.0478 -0.2132 -0.3659 0.9955
-1.0424 -0.2513 -0.3669 0.9955
-1.0359 -0.2895 -0.3680 0.9955
-1.0322 -0.3288 -0.3707 0.9954
-1.0298 -0.3692 -0.3743 0.9954
-1.0155 -0.4931 -0.3863 0.9952
-1.0013 -0.5784 -0.3956 0.9951
-4.2491 -3.1080 -1.8013 0.9780
-4.1348 -3.2585 -1.8013 0.9780
-4.0152 -3.4049 -1.8013 0.9780
-3.7605 -3.6841 -1.8013 0.9780
-3.3427 -4.0671 -1.8013 0.9780
-3.0423 -4.2964 -1.8013 0.9780
-2.0535 -4.8474 -1.8013 0.9780
-1.8782 -4.9180 -1.8013 0.9780
-1.3386 -5.0914 -1.8013 0.9780
-0.5961 -5.2306 -1.8013 0.9780
-0.2089 -5.0094 -1.8013 0.9789
0.1511 -5.0114 -1.8013 0.9789
0.3309 -5.0028 -1.8013 0.9789
0.6889 -4.9662 -1.8013 0.9789
1.0435 -4.9039 -1.8013 0.9789
1.2188 -4.8633 -1.8013 0.9789
1.5646 -4.7633 -1.8013 0.9789
1.7346 -4.7041 -1.8013 0.9789
1.9023 -4.6388 -1.8013 0.9789
2.2302 -4.4904 -1.8013 0.9789
2.3900 -4.4074 -1.8013 0.9789
2.7000 -4.2246 -1.8013 0.9789
2.9962 -4.0200 -1.8013 0.9789
3.1386 -3.9098 -1.8013 0.9789
3.4110 -3.6746 -1.8013 0.9789
3.6658 -3.4204 -1.8013 0.9789
3.7863 -3.2866 -1.8013 0.9789
4.0123 -3.0065 -1.8013 0.9789
4.1176 -2.8605 -1.8013 0.9789
4.4847 -2.2417 -1.8013 0.9789
4.6339 -1.9142 -1.8013 0.9789
4.6997 -1.7467 -1.8013 0.9789
4.8129 -1.4050 -1.8013 0.9789
4.8602 -1.2313 -1.8013 0.9789
5.0019 -0.3437 -1.8013 0.9789
5.0111 -0.1639 -1.8013 0.9789
5.0137 0.0161 -1.8013 0.9789
4.9996 0.3757 -1.8013 0.9789
4.8944 1.0874 -1.8013 0.9789
4.8522 1.2624 -1.8013 0.9789
4.8038 1.4358 -1.8013 0.9789
4.7491 1.6073 -1.8013 0.9789
4.6884 1.7767 -1.8013 0.9789
4.5488 2.1085 -1.8013 0.9789
4.4702 2.2705 -1.8013 0.9789
4.3858 2.4295 -1.8013 0.9789
4.2958 2.5853 -1.8013 0.9789
3.9929 3.0322 -1.8013 0.9789
3.8815 3.1735 -1.8013 0.9789
3.7651 3.3108 -1.8013 0.9789
3.3874 3.6964 -1.8013 0.9789
2.6474 4.2014 -1.7841 0.9791
2.4451 4.2080 -1.7485 0.9795
2.2502 4.2139 -1.7163 0.9799
2.0620 4.2193 -1.6872 0.9802
1.8796 4.2241 -1.6611 0.9805
1.4043 4.3694 -1.6489 0.9807
1.2465 4.4170 -1.6489 0.9807
0.7644 4.5254 -1.6489 0.9807
0.2735 4.5814 -1.6489 0.9807
0.1089 4.5883 -1.6489 0.9807
-0.3850 4.5734 -1.6489 0.9807
-0.7121 4.5340 -1.6489 0.9807
-1.0356 4.4712 -1.6489 0.9807
-1.1954 4.4311 -1.6489 0.9807
-1.3537 4.3854 -1.6489 0.9807
-1.5103 4.3339 -1.6489 0.9807
-1.8242 4.2304 -1.6552 0.9806
-2.0071 4.2300 -1.6821 0.9803
-2.3998 4.2421 -1.7510 0.9795
-2.6124 4.2538 -1.7935 0.9790
-3.2082 3.8529 -1.8013 0.9789
-3.6038 3.4857 -1.8013 0.9789
-3.7266 3.3540 -1.8013 0.9789
-3.8446 3.2181 -1.8013 0.9789
-0.9513 0.5876 -0.4017 0.9953
-0.9607 0.5467 -0.3971 0.9953
-0.9690 0.5063 -0.3928 0.9954
-0.9761 0.4662 -0.3886 0.9954
-0.9868 0.3870 -0.3808 0.9955
-0.9904 0.3480 -0.3771 0.9955
-0.9929 0.3093 -0.3736 0.9956
-1.0059 0.2357 -0.3712 0.9956
-1.0152 0.1621 -0.3694 0.9956
-1.0182 0.1253 -0.3686 0.9956
-1.0202 0.0885 -0.3679 0.9957
-1.0200 -0.0951 -0.3680 0.9957
-1.0178 -0.1319 -0.3687 0.9956
-1.0146 -0.1687 -0.3695 0.9956
-1.0103 -0.2055 -0.3704 0.9956
-0.9860 -0.3941 -0.3815 0.9955
-0.9591 -0.5540 -0.3979 0.9953
-0.9398 -0.6369 -0.4079 0.9952
-4.0467 -2.9600 -1.8013 0.9789
-3.8239 -3.2427 -1.8013 0.9789
-3.7051 -3.3779 -1.8013 0.9789
-3.4532 -3.6350 -1.8013 0.9789
-3.3204 -3.7566 -1.8013 0.9789
-3.1835 -3.8734 -1.8013 0.9789
-2.8974 -4.0918 -1.8013 0.9789
-2.7486 -4.1931 -1.8013 0.9789
-2.5963 -4.2891 -1.8013 0.9789
-2.4407 -4.3795 -1.8013 0.9789
-2.2819 -4.4643 -1.8013 0.9789
-1.6195 -4.7450 -1.8013 0.9789
-1.4481 -4.8000 -1.8013 0.9789
-1.2749 -4.8489 -1.8013 0.9789
-1.1000 -4.8916 -1.8013 0.9789
-0.7462 -4.9579 -1.8013 0.9789
-0.5677 -4.9815 -1.8013 0.9789
0.3157 -4.7730 -1.8013 0.9798
0.4868 -4.7586 -1.8013 0.9798
1.1628 -4.6399 -1.8013 0.9798
1.6549 -4.4880 -1.8013 0.9798
2.1278 -4.2841 -1.8013 0.9798
2.5760 -4.0305 -1.8013 0.9798
2.8585 -3.8353 -1.8013 0.9798
3.1263 -3.6203 -1.8013 0.9798
3.3780 -3.3867 -1.8013 0.9798
3.8280 -2.8684 -1.8013 0.9798
4.0239 -2.5863 -1.8013 0.9798
4.1142 -2.4402 -1.8013 0.9798
4.1991 -2.2910 -1.8013 0.9798
4.3526 -1.9838 -1.8013 0.9798
4.5407 -1.5044 -1.8013 0.9798
4.5918 -1.3404 -1.8013 0.9798
4.6369 -1.1747 -1.8013 0.9798
4.6761 -1.0075 -1.8013 0.9798
4.7092 -0.8390 -1.8013 0.9798
4.7363 -0.6694 -1.8013 0.9798
4.7573 -0.4990 -1.8013 0.9798
4.7721 -0.3279 -1.8013 0.9798
4.7798 0.1870 -1.8013 0.9798
4.7700 0.3585 -1.8013 0.9798
4.7319 0.6998 -1.8013 0.9798
4.6695 1.0375 -1.8013 0.9798
4.5831 1.3698 -1.8013 0.9798
4.4730 1.6951 -1.8013 0.9798
4.3399 2.0117 -1.8013 0.9798
4.2648 2.1661 -1.8013 0.9798
4.1843 2.3178 -1.8013 0.9798
4.0984 2.4666 -1.8013 0.9798
4.0072 2.6121 -1.8013 0.9798
3.9109 2.7542 -1.8013 0.9798
3.8095 2.8929 -1.8013 0.9798
3.7032 3.0277 -1.8013 0.9798
3.5921 3.1587 -1.8013 0.9798
3.2318 3.5266 -1.8013 0.9798
2.8312 3.8499 -1.7996 0.9798
2.6888 3.9455 -1.7980 0.9798
2.2427 4.1997 -1.7929 0.9799
1.8735 4.2104 -1.7354 0.9805
1.6970 4.2149 -1.7110 0.9808
1.3570 4.2225 -1.6701 0.9812
0.8838 4.2886 -1.6489 0.9815
0.4177 4.3587 -1.6489 0.9815
0.2616 4.3811 -1.6527 0.9814
-0.3673 4.3633 -1.6489 0.9815
-0.6794 4.3257 -1.6489 0.9815
-0.9880 4.2658 -1.6489 0.9815
-1.3037 4.2235 -1.6645 0.9813
-1.6412 4.2162 -1.7038 0.9808
-2.0004 4.2158 -1.7572 0.9803
-2.4968 4.0657 -1.7967 0.9798
-2.6437 3.9772 -1.7984 0.9798
-2.7876 3.8837 -1.8002 0.9798
-2.9269 3.7834 -1.8013 0.9798
-3.0608 3.6759 -1.8013 0.9798
-3.1908 3.5636 -1.8013 0.9798
-3.3167 3.4468 -1.8013 0.9798
-3.4383 3.3255 -1.8013 0.9798
-3.6680 3.0703 -1.8013 0.9798
-3.7758 2.9366 -1.8013 0.9798
-0.8905 0.6426 -0.4135 0.9953
-0.9227 0.5251 -0.3998 0.9955
-0.9492 0.3723 -0.3840 0.9957
-0.9575 0.2983 -0.3777 0.9957
-0.9757 0.1920 -0.3745 0.9958
-0.9846 0.0854 -0.3722 0.9958
-0.9857 0.0500 -0.3717 0.9958
-0.9858 -0.0208 -0.3713 0.9958
-0.9822 -0.1273 -0.3730 0.9958
-0.9696 -0.2338 -0.3756 0.9957
-0.9634 -0.2692 -0.3767 0.9957
-0.9525 -0.3415 -0.3810 0.9957
-0.9485 -0.3790 -0.3846 0.9956
-0.9371 -0.4550 -0.3923 0.9956
-3.6483 -3.0937 -1.8013 0.9798
-3.2945 -3.4680 -1.8013 0.9798
-3.0372 -3.6954 -1.8013 0.9798
-2.7643 -3.9038 -1.8013 0.9798
-2.3286 -4.1783 -1.8013 0.9798
-2.0228 -4.3347 -1.8013 0.9798
-1.8659 -4.4045 -1.8013 0.9798
-1.7066 -4.4686 -1.8013 0.9798
-1.0494 -4.6669 -1.8013 0.9798
-0.7119 -4.7301 -1.8013 0.9798
-0.3542 -4.5572 -1.8013 0.9805
-0.1904 -4.5670 -1.8013 0.9805
-0.0264 -4.5709 -1.8013 0.9805
0.1377 -4.5689 -1.8013 0.9805
0.3016 -4.5610 -1.8013 0.9805
0.6281 -4.5276 -1.8013 0.9805
0.7902 -4.5022 -1.8013 0.9805
1.1112 -4.4339 -1.8013 0.9805
1.2696 -4.3911 -1.8013 0.9805
1.4265 -4.3427 -1.8013 0.9805
1.5814 -4.2887 -1.8013 0.9805
1.7343 -4.2292 -1.8013 0.9805
2.0333 -4.0938 -1.8013 0.9805
2.1789 -4.0182 -1.8013 0.9805
2.4616 -3.8515 -1.8013 0.9805
2.5983 -3.7607 -1.8013 0.9805
3.2280 -3.2363 -1.8013 0.9805
3.6580 -2.7410 -1.8013 0.9805
4.0126 -2.1892 -1.8013 0.9805
4.1594 -1.8957 -1.8013 0.9805
4.2247 -1.7452 -1.8013 0.9805
4.2846 -1.5924 -1.8013 0.9805
4.3390 -1.4376 -1.8013 0.9805
4.4684 -0.9628 -1.8013 0.9805
4.5710 0.0146 -1.8013 0.9805
4.5675 0.1787 -1.8013 0.9805
4.4949 0.8306 -1.8013 0.9805
4.4622 0.9914 -1.8013 0.9805
4.3297 1.4654 -1.8013 0.9805
4.2743 1.6198 -1.8013 0.9805
4.2135 1.7722 -1.8013 0.9805
4.1471 1.9223 -1.8013 0.9805
3.9985 2.2149 -1.8013 0.9805
3.8293 2.4961 -1.8013 0.9805
3.3221 3.1397 -1.8013 0.9805
3.2072 3.2569 -1.8013 0.9805
2.7081 3.6824 -1.8013 0.9805
2.4343 3.8631 -1.7994 0.9806
2.0005 4.0935 -1.7955 0.9806
1.5201 4.2054 -1.7622 0.9810
1.1887 4.2123 -1.7248 0.9814
1.0277 4.2151 -1.7097 0.9815
0.8692 4.2175 -1.6969 0.9817
0.7127 4.2195 -1.6863 0.9818
0.2521 4.2230 -1.6671 0.9820
-0.6628 4.2200 -1.6834 0.9818
-0.8187 4.2182 -1.6933 0.9817
-1.2996 4.2102 -1.7364 0.9812
-1.4659 4.2067 -1.7555 0.9810
-1.6359 4.2026 -1.7772 0.9808
-1.8027 4.1805 -1.7941 0.9806
-1.9529 4.1158 -1.7952 0.9806
-2.2464 3.9709 -1.7979 0.9806
-2.3896 3.8911 -1.7994 0.9806
-2.5301 3.8063 -1.8011 0.9805
-3.0491 3.4054 -1.8013 0.9805
-3.2856 3.1779 -1.8013 0.9805
-0.8546 0.6168 -0.4153 0.9955
-0.8667 0.5793 -0.4108 0.9955
-0.9090 0.3948 -0.3905 0.9957
-0.9141 0.3585 -0.3869 0.9958
-0.9422 0.1854 -0.3784 0.9959
-0.9461 0.1511 -0.3776 0.9959
-0.9511 0.0825 -0.3762 0.9959
-0.9522 0.0140 -0.3753 0.9959
-0.9523 -0.0201 -0.3754 0.9959
-0.9508 -0.0886 -0.3763 0.9959
-0.9486 -0.1229 -0.3770 0.9959
-0.9415 -0.1915 -0.3786 0.9959
-0.9364 -0.2258 -0.3796 0.9959
-0.9175 -0.3290 -0.3841 0.9958
-0.9133 -0.3650 -0.3876 0.9958
-0.9016 -0.4378 -0.3950 0.9957
-0.8646 -0.5860 -0.4116 0.9955
-0.8524 -0.6235 -0.4162 0.9955
-0.8388 -0.6611 -0.4209 0.9954
-3.1482 -3.3140 -1.8013 0.9805
-2.6415 -3.7304 -1.8013 0.9805
-2.5059 -3.8229 -1.8013 0.9805
-2.2252 -3.9928 -1.8013 0.9805
-2.0804 -4.0701 -1.8013 0.9805
-1.7830 -4.2089 -1.8013 0.9805
-1.3202 -4.3762 -1.8013 0.9805
-1.1623 -4.4207 -1.8013 0.9805
-1.0028 -4.4596 -1.8013 0.9805
-0.6803 -4.5201 -1.8013 0.9805
-0.5176 -4.5416 -1.8013 0.9805
-0.3390 -4.3612 -1.8013 0.9813
-0.0252 -4.3743 -1.8013 0.9813
0.1318 -4.3724 -1.8013 0.9813
0.4452 -4.3517 -1.8013 0.9813
0.6011 -4.3329 -1.8013 0.9813
1.0634 -4.2432 -1.8013 0.9813
1.2150 -4.2022 -1.8013 0.9813
1.3651 -4.1559 -1.8013 0.9813
1.5134 -4.1042 -1.8013 0.9813
1.8039 -3.9851 -1.8013 0.9813
1.9458 -3.9178 -1.8013 0.9813
2.0852 -3.8454 -1.8013 0.9813
2.3558 -3.6859 -1.8013 0.9813
2.7383 -3.4113 -1.8013 0.9813
3.3034 -2.8675 -1.8013 0.9813
3.4042 -2.7471 -1.8013 0.9813
3.5007 -2.6231 -1.8013 0.9813
3.6798 -2.3652 -1.8013 0.9813
3.7624 -2.2316 -1.8013 0.9813
3.8400 -2.0951 -1.8013 0.9813
3.9128 -1.9559 -1.8013 0.9813
4.0430 -1.6701 -1.8013 0.9813
4.1004 -1.5239 -1.8013 0.9813
4.1524 -1.3757 -1.8013 0.9813
4.1991 -1.2258 -1.8013 0.9813
4.2763 -0.9214 -1.8013 0.9813
4.3505 -0.4563 -1.8013 0.9813
4.3641 -0.2999 -1.8013 0.9813
4.2703 0.9488 -1.8013 0.9813
4.1435 1.4023 -1.8013 0.9813
4.0322 1.6960 -1.8013 0.9813
3.8265 2.1196 -1.8013 0.9813
3.7480 2.2556 -1.8013 0.9813
3.5765 2.5187 -1.8013 0.9813
3.4838 2.6455 -1.8013 0.9813
3.2850 2.8886 -1.8013 0.9813
3.0693 3.1169 -1.8013 0.9813
2.9554 3.2250 -1.8013 0.9813
2.8377 3.3290 -1.8013 0.9813
2.0585 3.8549 -1.7995 0.9813
1.9176 3.9237 -1.7983 0.9813
1.7744 3.9876 -1.7973 0.9813
1.4822 4.1003 -1.7954 0.9813
1.3334 4.1490 -1.7945 0.9813
1.0245 4.2019 -1.7810 0.9815
0.8665 4.2044 -1.7677 0.9816
0.5563 4.2081 -1.7479 0.9818
0.4033 4.2093 -1.7412 0.9819
0.0999 4.2106 -1.7343 0.9819
-0.3544 4.2096 -1.7396 0.9819
-0.6608 4.2070 -1.7536 0.9817
-1.1331 4.2000 -1.7913 0.9814
-1.2852 4.1635 -1.7943 0.9813
-1.7279 4.0072 -1.7970 0.9813
-2.0136 3.8779 -1.7993 0.9813
-2.6767 3.4599 -1.8013 0.9813
-2.7991 3.3616 -1.8013 0.9813
-2.9180 3.2589 -1.8013 0.9813
-3.0331 3.1521 -1.8013 0.9813
-3.2514 2.9263 -1.8013 0.9813
-0.8004 0.6700 -0.4298 0.9955
-0.8089 0.6291 -0.4220 0.9956
-0.8539 0.4859 -0.4046 0.9958
-0.8696 0.4154 -0.3969 0.9958
-0.8759 0.3804 -0.3932 0.9959
-0.8811 0.3456 -0.3897 0.9959
-0.8857 0.3112 -0.3866 0.9959
-0.8934 0.2783 -0.3853 0.9960
-0.9059 0.2123 -0.3831 0.9960
-0.9106 0.1792 -0.3822 0.9960
-0.9174 0.1129 -0.3806 0.9960
-0.9206 -0.0195 -0.3792 0.9960
-0.9191 -0.0857 -0.3801 0.9960
-0.9169 -0.1188 -0.3807 0.9960
-0.9139 -0.1519 -0.3815 0.9960
-0.9099 -0.1851 -0.3823 0.9960
-0.9049 -0.2182 -0.3833 0.9960
