ply
format ascii 1.0
element vertex 1551
property float32 x
property float32 y
property float32 z
property float32 I
end_header
40.2325 16.9223 1.5726 0.8397
40.1815 22.2579 1.6550 0.8321
40.1878 26.1960 1.7284 0.8253
40.2174 30.5402 1.8195 0.8170
40.2003 35.3497 1.9288 0.8071
40.3007 38.0886 1.9979 0.8010
8.6171 11.7176 0.5241 0.9434
7.9882 11.7219 0.5111 0.9448
7.3890 11.7260 0.4994 0.9460
6.8163 11.7308 0.4888 0.9471
6.2796 11.7596 0.4803 0.9480
4.7517 11.8019 0.4584 0.9504
2.8728 11.7828 0.4370 0.9526
1.9686 11.6539 0.4258 0.9538
0.7062 11.8295 0.4270 0.9537
0.2808 11.8324 0.4264 0.9537
-0.1442 11.8353 0.4265 0.9537
-0.5697 11.8382 0.4270 0.9537
-1.6676 13.8425 0.5024 0.9457
-2.6879 13.8494 0.5083 0.9451
-44.0162 77.8049 3.2208 0.6992
-43.9572 71.5771 3.0264 0.7145
-43.7943 65.8852 2.8504 0.7286
-43.7563 60.9621 2.7037 0.7406
-43.6220 56.3864 2.5686 0.7518
-44.6635 49.8819 2.4124 0.7649
-44.7088 43.2426 2.2411 0.7796
-44.7482 37.4560 2.1026 0.7917
-53.0819 35.4806 2.3005 0.7745
-62.4556 35.5445 2.5892 0.7500
-68.0994 35.5830 2.7684 0.7353
-64.4049 30.7618 2.5716 0.7515
-77.6744 -41.2221 3.1683 0.7033
-66.8515 -41.8861 2.8422 0.7292
-61.2380 -41.5025 2.6654 0.7437
-32.9516 -24.1025 1.4710 0.8492
-55.4669 -43.7121 2.5445 0.7538
-50.4199 -42.7561 2.3819 0.7675
-34.4390 -31.3977 1.6791 0.8298
-24.4557 -23.9590 1.2335 0.8719
-32.3604 -34.0642 1.6929 0.8286
-34.9349 -39.5236 1.9006 0.8097
-26.1246 -31.7861 1.4824 0.8482
-24.3158 -31.8507 1.4438 0.8518
-23.8606 -33.6970 1.4877 0.8477
-24.8007 -40.9705 1.7256 0.8256
-16.0644 -31.4285 1.2717 0.8682
-14.6707 -31.4381 1.2500 0.8703
-15.1458 -39.6585 1.5296 0.8437
-12.6222 -41.8389 1.5746 0.8395
-2.2981 -15.2690 0.5563 0.9401
-5.0605 -44.4016 1.6102 0.8362
-3.0820 -39.6475 0.8264 0.8529
-1.6619 -39.8528 0.8289 0.8525
-0.2517 -43.6124 0.9063 0.8399
1.1963 -39.6907 0.8252 0.8531
2.0529 -20.0683 0.4192 0.9225
5.5121 -39.7343 0.8336 0.8517
7.8087 -44.4894 0.9387 0.8347
11.5654 -39.9998 0.8653 0.8465
13.0763 -39.8101 0.8708 0.8457
14.7645 -40.0408 0.8868 0.8430
19.9281 -40.1236 0.9310 0.8359
21.7288 -40.0708 0.9472 0.8333
24.8297 -42.1079 1.0158 0.8224
9.9460 -15.5618 0.3838 0.9288
11.3176 -16.3808 0.4137 0.9234
12.1967 -16.3644 0.4241 0.9216
13.1594 -16.3933 0.4368 0.9193
59.8277 -69.2811 1.9022 0.6933
59.9935 -44.9543 1.5579 0.7409
59.8749 -41.5953 1.5150 0.7470
59.8960 -38.4979 1.4796 0.7521
61.1179 -36.2510 1.4767 0.7525
71.5609 -35.7713 1.6625 0.7261
54.1764 10.0110 1.1449 0.8022
40.1018 13.5721 0.8798 0.8442
40.0742 16.8556 0.9034 0.8404
40.0981 20.3662 0.9346 0.8353
40.2174 30.5402 1.0494 0.8171
40.2003 35.3497 1.1124 0.8072
40.2957 40.9205 1.1934 0.7947
40.5282 44.2255 1.2466 0.7866
9.3048 11.7449 0.3114 0.9418
8.6405 11.7494 0.3031 0.9433
6.8163 11.7308 0.2819 0.9472
5.2500 11.7985 0.2684 0.9496
4.7517 11.8019 0.2644 0.9504
4.2673 11.8052 0.2609 0.9510
3.3333 11.8116 0.2550 0.9521
2.8728 11.7828 0.2520 0.9526
2.4355 11.8177 0.2507 0.9529
1.9686 11.6539 0.2456 0.9538
1.5631 11.8236 0.2478 0.9534
1.1333 11.8266 0.2469 0.9536
0.7062 11.8295 0.2463 0.9537
0.2808 11.8324 0.2460 0.9538
-0.5697 11.8382 0.2463 0.9537
-1.1678 13.8710 0.2893 0.9458
-2.1798 13.8779 0.2919 0.9453
-2.6942 13.8814 0.2938 0.9450
-9.5499 18.3916 0.4307 0.9204
-43.8552 65.9768 1.6463 0.7284
-43.7563 60.9621 1.5594 0.7407
-44.6381 53.6074 1.4496 0.7565
-44.6870 46.4400 1.3393 0.7727
-44.7291 40.2571 1.2505 0.7860
-44.7482 37.4561 1.2127 0.7918
-49.1280 35.4536 1.2590 0.7847
-68.0994 35.5830 1.5967 0.7354
-71.0042 33.9139 1.6352 0.7299
-22.0381 9.5703 0.4993 0.9083
-72.3131 28.3631 1.6142 0.7329
-69.4153 24.3895 1.5289 0.7450
-79.7459 12.7355 1.6781 0.7239
-57.9619 -39.2823 1.4550 0.7557
-49.9481 -39.3629 1.3215 0.7754
-34.3362 -31.3039 0.9656 0.8304
-24.5970 -24.0974 0.7156 0.8713
-25.7763 -31.3623 0.8436 0.8501
-23.9524 -31.3748 0.8203 0.8539
-23.7404 -33.5272 0.8537 0.8484
-24.8007 -40.9705 0.9952 0.8256
-14.6707 -31.4381 0.7209 0.8704
-15.1458 -39.6585 0.8822 0.8438
-14.1166 -41.3609 0.9082 0.8396
-12.6222 -41.8389 0.9081 0.8396
-8.2771 -31.4816 0.6764 0.8779
-7.0812 -31.4898 0.6707 0.8789
-5.9040 -31.4978 0.6659 0.8797
-2.2979 -15.2679 0.3209 0.9401
-3.4524 -44.4126 0.2468 0.8368
-0.2517 -43.6124 0.2416 0.8399
1.3052 -43.3000 0.2400 0.8409
10.5250 -41.9968 0.2399 0.8410
15.4982 -42.0307 0.2482 0.8359
19.2192 -42.4570 0.2582 0.8299
20.9004 -42.0811 0.2603 0.8287
9.9460 -15.5619 0.1023 0.9288
12.1967 -16.3644 0.1131 0.9216
13.1594 -16.3933 0.1165 0.9194
59.7319 -69.1702 0.5064 0.6938
59.7209 -64.3363 0.4864 0.7039
59.7511 -59.9046 0.4688 0.7129
71.1528 -35.5673 0.4407 0.7275
79.4746 -36.2221 0.4839 0.7051
26.4225 -10.9148 0.1584 0.8919
57.6627 -14.6085 0.3296 0.7882
52.4383 9.6898 0.2954 0.8079
40.1924 10.4571 0.2301 0.8469
40.0909 11.9827 0.2318 0.8459
40.0742 16.8556 0.2409 0.8404
40.0981 20.3662 0.2492 0.8354
40.1815 22.2579 0.2545 0.8322
39.5419 23.7975 0.2557 0.8314
40.2023 28.3124 0.2724 0.8214
39.6251 40.2395 0.3129 0.7978
23.7233 25.8875 0.1946 0.8690
9.8880 11.6000 0.0845 0.9409
7.4090 11.7578 0.0770 0.9459
6.8163 11.7308 0.0752 0.9472
5.7643 11.7950 0.0727 0.9488
4.7517 11.8019 0.0705 0.9504
4.2673 11.8052 0.0696 0.9510
3.3333 11.8116 0.0680 0.9521
2.8728 11.7828 0.0672 0.9526
2.4355 11.8177 0.0669 0.9529
1.9686 11.6539 0.0655 0.9538
1.1333 11.8266 0.0658 0.9536
0.7062 11.8295 0.0657 0.9537
-0.1442 11.8353 0.0656 0.9538
-0.5697 11.8382 0.0657 0.9537
-1.1678 13.8710 0.0771 0.9458
-1.6715 13.8744 0.0774 0.9456
-2.1798 13.8779 0.0778 0.9454
-2.6942 13.8814 0.0783 0.9450
-43.7889 77.4031 0.4927 0.7007
-43.6220 56.3864 0.3950 0.7519
-45.2612 54.3557 0.3919 0.7536
-44.7781 50.0099 0.3719 0.7645
-65.3101 63.1683 0.5034 0.6953
-66.6201 55.7636 0.4814 0.7064
-83.0297 36.0567 0.5016 0.6962
-72.3131 28.3630 0.4304 0.7329
-80.2061 24.9846 0.4655 0.7146
-72.2014 19.6775 0.4146 0.7413
-90.6207 -36.2156 0.5407 0.6768
-73.9758 -39.2593 0.4640 0.7153
-58.1323 -39.3978 0.3891 0.7551
-42.6801 -31.2184 0.2930 0.8094
-50.0950 -39.4787 0.3534 0.7748
-31.7775 -31.1321 0.2465 0.8370
-29.5891 -31.1470 0.2380 0.8421
-27.5432 -31.1610 0.2304 0.8467
-25.6216 -31.1741 0.2236 0.8509
-22.0912 -31.1982 0.2118 0.8582
-20.4578 -31.2093 0.2068 0.8613
-17.4043 -31.2301 0.1981 0.8667
-15.9680 -31.2399 0.1944 0.8691
-13.2422 -31.2585 0.1881 0.8730
-11.9411 -31.2674 0.1854 0.8747
-10.6746 -31.2760 0.1831 0.8762
-9.4381 -31.2845 0.1811 0.8775
-6.3393 -24.1114 0.1381 0.9051
-7.0387 -31.3008 0.1778 0.8796
1.8345 -27.7398 -0.2696 0.8948
11.3176 -16.3808 -0.1931 0.9234
12.1967 -16.3644 -0.1979 0.9216
13.1594 -16.3933 -0.2038 0.9193
9.6499 -10.3956 -0.1375 0.9448
11.4471 -9.9365 -0.1470 0.9412
39.5882 -31.9460 -0.4933 0.8159
46.8688 -32.5599 -0.5534 0.7959
46.8918 -30.1394 -0.5405 0.8001
34.6657 -20.5613 -0.3908 0.8511
24.9875 -11.3886 -0.2663 0.8960
28.7893 -9.5382 -0.2941 0.8858
71.3085 -20.8163 -0.7203 0.7429
57.6570 -14.6070 -0.5767 0.7883
48.4045 -10.4294 -0.4801 0.8203
73.9174 -7.7531 -0.7207 0.7428
37.8279 0.1212 -0.3668 0.8596
44.2325 9.8276 -0.4394 0.8342
40.0981 20.3662 -0.4361 0.8354
40.1818 22.2581 -0.4454 0.8321
40.3942 28.4476 -0.4791 0.8207
40.2003 35.3497 -0.5191 0.8072
24.3455 23.0092 -0.3248 0.8746
9.8880 11.6000 -0.1478 0.9408
8.6405 11.7494 -0.1414 0.9433
8.0099 11.7537 -0.1379 0.9447
7.4090 11.7578 -0.1348 0.9459
6.8163 11.7307 -0.1316 0.9472
6.2966 11.7914 -0.1296 0.9479
5.7643 11.7950 -0.1273 0.9488
4.7517 11.8019 -0.1234 0.9504
4.2673 11.8052 -0.1217 0.9510
3.3333 11.8116 -0.1190 0.9521
0.2808 11.8324 -0.1148 0.9538
-1.1677 13.8710 -0.1350 0.9458
-1.6715 13.8744 -0.1355 0.9456
-25.1831 53.0746 -0.5696 0.7906
-9.5478 18.3875 -0.2008 0.9205
-44.0359 71.7053 -0.8159 0.7142
-43.8582 65.9813 -0.7682 0.7284
-25.4712 32.9244 -0.4036 0.8466
-29.3454 32.7741 -0.4266 0.8386
-46.5140 44.9886 -0.6275 0.7719
-45.1156 40.6049 -0.5886 0.7844
-52.1920 40.5916 -0.6411 0.7676
-52.2496 37.7063 -0.6248 0.7728
-53.6439 35.8562 -0.6257 0.7725
-62.4556 35.5445 -0.6968 0.7502
-68.0994 35.5830 -0.7450 0.7354
-62.7676 27.2576 -0.6635 0.7605
-62.7824 22.0590 -0.6453 0.7663
-63.3476 19.7331 -0.6434 0.7669
-66.0802 15.4841 -0.6581 0.7622
-68.6065 13.4982 -0.6780 0.7560
-73.9210 11.8052 -0.7259 0.7412
-99.5320 -9.2797 -0.9693 0.6704
-82.1638 -19.8094 -0.8195 0.7131
-70.8812 -19.8066 -0.7136 0.7450
-62.2779 -19.8387 -0.6338 0.7699
-44.7481 -19.7743 -0.4744 0.8223
-42.6536 -20.7095 -0.4598 0.8272
-42.6299 -26.7099 -0.4878 0.8177
-32.7190 -23.9324 -0.3931 0.8503
-32.7452 -27.7679 -0.4163 0.8422
-25.6933 -23.4243 -0.3371 0.8702
-24.2227 -23.7308 -0.3288 0.8732
-24.2349 -25.5109 -0.3412 0.8687
-24.2480 -27.4329 -0.3550 0.8638
-25.6216 -31.1741 -0.3913 0.8509
-23.8087 -31.1865 -0.3805 0.8547
-15.4007 -23.4945 -0.2724 0.8937
-14.5474 -24.0322 -0.2724 0.8937
-14.5780 -28.5205 -0.3106 0.8797
-14.5827 -31.2494 -0.3344 0.8711
-7.1050 -23.5511 -0.2385 0.9063
-5.9071 -26.2686 -0.2611 0.8979
-5.5955 -71.9823 -1.8005 0.7491
-0.4168 -72.2302 -1.8013 0.7490
2.1761 -72.1960 -1.8013 0.7490
2.7877 -20.0952 -0.5059 0.9220
3.5284 -20.1026 -0.5090 0.9216
4.2790 -20.1100 -0.5127 0.9210
5.8021 -20.0671 -0.5209 0.9198
6.6124 -20.1309 -0.5284 0.9187
7.4260 -20.1390 -0.5353 0.9177
9.1240 -20.1558 -0.5518 0.9153
12.1967 -16.3644 -0.5090 0.9216
9.4653 -10.9610 -0.3612 0.9437
10.5619 -9.8547 -0.3602 0.9438
11.3439 -9.8469 -0.3746 0.9417
29.8184 -20.7149 -0.9055 0.8648
24.1828 -11.0218 -0.6628 0.8991
63.4844 -18.5323 -1.6493 0.7675
29.4465 -6.3446 -0.7512 0.8865
66.8205 -11.9050 -1.6926 0.7622
47.5827 -6.7254 -1.1984 0.8251
71.8509 -7.5364 -1.8017 0.7490
37.8445 0.1213 -0.9438 0.8595
72.1898 2.8247 -1.8017 0.7490
72.0419 5.4143 -1.8017 0.7490
44.2325 9.8276 -1.1300 0.8342
37.5636 11.2273 -0.9777 0.8548
31.7609 12.0363 -0.8470 0.8729
31.6137 13.2970 -0.8553 0.8718
31.5539 14.6263 -0.8673 0.8701
31.6487 16.0747 -0.8852 0.8676
31.6519 17.5331 -0.9024 0.8652
31.5720 19.0009 -0.9189 0.8629
31.6284 20.6166 -0.9415 0.8598
25.9456 19.7024 -0.8125 0.8778
25.9897 21.2491 -0.8372 0.8743
31.6950 27.8707 -1.0525 0.8446
24.3468 23.0105 -0.8354 0.8746
9.8880 11.6000 -0.3801 0.9408
9.3048 11.7449 -0.3737 0.9418
6.2966 11.7914 -0.3334 0.9479
5.7643 11.7950 -0.3274 0.9488
5.2500 11.7985 -0.3220 0.9496
4.2673 11.8052 -0.3130 0.9510
3.7950 11.8084 -0.3093 0.9516
1.1333 11.8266 -0.2963 0.9536
-0.1442 11.8353 -0.2952 0.9537
-0.5697 11.8382 -0.2956 0.9537
-2.1798 13.8779 -0.3503 0.9453
-2.6942 13.8814 -0.3526 0.9450
-16.3017 70.3819 -1.8017 0.7490
-18.8176 69.7513 -1.8017 0.7490
-20.1859 65.3916 -1.7067 0.7605
-21.8631 62.7393 -1.6569 0.7666
-23.3679 60.0304 -1.6065 0.7728
-9.5467 18.3855 -0.5165 0.9205
-13.8418 24.4674 -0.7011 0.8936
-15.2419 22.9303 -0.6866 0.8957
-17.6845 24.6384 -0.7563 0.8857
-18.0829 23.3741 -0.7370 0.8885
-20.8910 25.0887 -0.8142 0.8775
-21.0528 23.5126 -0.7871 0.8814
-47.2868 45.7361 -1.6406 0.7686
-44.7482 37.4561 -1.4553 0.7918
-45.5543 35.4292 -1.4392 0.7938
-49.1280 35.4536 -1.5109 0.7847
-57.4776 32.7114 -1.6493 0.7675
-58.6147 30.6271 -1.6493 0.7675
-63.8068 17.3897 -1.6493 0.7675
-64.3899 15.0880 -1.6493 0.7675
-65.3065 10.4295 -1.6493 0.7675
-65.8865 5.7171 -1.6493 0.7675
-49.7690 0.7340 -1.2413 0.8194
-72.2289 -1.5284 -1.8017 0.7490
-65.0273 -6.0627 -1.6287 0.7700
-71.6460 -9.2844 -1.8017 0.7490
-64.2918 -15.5005 -1.6493 0.7675
-63.6940 -17.7983 -1.6493 0.7675
-54.9398 -19.6999 -1.4555 0.7917
-45.0494 -19.9075 -1.2283 0.8211
-42.9105 -20.8342 -1.1896 0.8262
-42.7815 -24.7120 -1.2321 0.8206
-42.8202 -29.0203 -1.2900 0.8130
-32.7317 -25.7951 -1.0393 0.8464
-32.7452 -27.7679 -1.0707 0.8422
-25.6933 -23.4243 -0.8671 0.8701
-24.2349 -25.5109 -0.8775 0.8687
-24.2480 -27.4329 -0.9131 0.8637
-44.4957 -54.1385 -1.7476 0.7555
-42.6477 -55.8632 -1.7527 0.7549
-15.4007 -23.4945 -0.7006 0.8937
-30.1600 -64.6302 -1.7786 0.7517
-27.8747 -65.7989 -1.7821 0.7513
-25.5406 -66.8769 -1.7853 0.7509
-23.1615 -67.8612 -1.7882 0.7506
-7.1050 -23.5511 -0.6135 0.9063
-5.9071 -26.2686 -0.6715 0.8979
-13.2757 -70.8258 -1.7970 0.7495
-1.7768 -42.6096 -1.7140 0.8431
1.2849 -42.6297 -1.7141 0.8430
3.6505 -20.7981 -0.8487 0.9189
5.2274 -20.8585 -0.8643 0.9175
6.6510 -20.2487 -0.8566 0.9182
8.4614 -20.6330 -0.8963 0.9146
9.3789 -20.7187 -0.9141 0.9130
9.9862 -20.1064 -0.9023 0.9140
11.0023 -20.2896 -0.9277 0.9117
11.3176 -16.3808 -0.8002 0.9234
12.1967 -16.3644 -0.8203 0.9215
8.6054 -10.7201 -0.5525 0.9465
8.8519 -10.2506 -0.5443 0.9472
9.7125 -9.7374 -0.5528 0.9464
11.1958 -9.7184 -0.5959 0.9424
9.4941 -7.1141 -0.4768 0.9536
34.5829 -20.5123 -1.6161 0.8513
36.0225 -19.6535 -1.6493 0.8485
24.1818 -11.0213 -1.0681 0.8991
25.4404 -9.4550 -1.0908 0.8970
28.6411 -9.4891 -1.2127 0.8862
29.0077 -6.2501 -1.1926 0.8880
44.1320 -7.8627 -1.8017 0.8357
44.3858 -6.2735 -1.8017 0.8357
44.5824 -4.6762 -1.8017 0.8357
38.7076 -1.2662 -1.5566 0.8564
44.8267 0.1437 -1.8017 0.8357
44.7927 1.7527 -1.8017 0.8357
40.5937 6.0032 -1.6493 0.8485
40.0583 8.9002 -1.6493 0.8485
32.1712 10.8880 -1.3651 0.8729
31.6707 13.3210 -1.3809 0.8715
31.6685 14.6794 -1.4029 0.8696
31.5164 16.0075 -1.4207 0.8680
31.6416 19.0428 -1.4843 0.8626
25.8776 18.2243 -1.2721 0.8810
24.1781 24.5530 -1.3850 0.8711
9.8880 11.6000 -0.6126 0.9408
9.3048 11.7449 -0.6022 0.9418
8.6405 11.7494 -0.5862 0.9433
8.0099 11.7537 -0.5717 0.9447
7.4090 11.7578 -0.5586 0.9459
5.7643 11.7950 -0.5276 0.9488
5.2500 11.7985 -0.5190 0.9496
4.7517 11.8019 -0.5113 0.9503
3.7950 11.8084 -0.4985 0.9516
3.3333 11.8116 -0.4933 0.9521
2.4355 11.8177 -0.4850 0.9528
1.9686 11.6539 -0.4750 0.9538
1.5631 11.8236 -0.4793 0.9534
1.1333 11.8266 -0.4775 0.9536
0.7062 11.8295 -0.4763 0.9537
0.2808 11.8324 -0.4757 0.9537
-0.1442 11.8353 -0.4757 0.9537
-1.1677 13.8710 -0.5595 0.9458
-2.1798 13.8779 -0.5646 0.9453
-2.6942 13.8814 -0.5683 0.9450
-11.6760 43.2796 -1.8017 0.8357
-13.2221 42.8326 -1.8017 0.8357
-17.7501 41.1630 -1.8017 0.8357
-19.2163 40.4992 -1.8017 0.8357
-9.5456 18.3834 -0.8324 0.9204
-13.7304 24.2705 -1.1208 0.8944
-13.7694 22.4213 -1.0575 0.9000
-17.8484 23.0711 -1.1724 0.8898
-20.8910 25.0887 -1.3122 0.8775
-20.9335 15.1068 -1.0376 0.9018
-23.5808 15.7617 -1.1400 0.8927
-36.3695 19.0036 -1.6493 0.8485
-37.6392 16.3453 -1.6493 0.8485
-38.2017 14.9837 -1.6493 0.8485
-39.1783 12.2042 -1.6493 0.8485
-39.5911 10.7900 -1.6493 0.8485
-40.2632 7.9217 -1.6493 0.8485
-40.5216 6.4713 -1.6493 0.8485
-40.7278 5.0125 -1.6493 0.8485
-44.7694 2.2696 -1.8017 0.8357
-44.8221 0.6610 -1.8017 0.8357
-44.8169 -0.9483 -1.8017 0.8357
-44.6334 -4.1613 -1.8017 0.8357
-44.4552 -5.7608 -1.8017 0.8357
-42.7122 -13.6060 -1.8017 0.8357
-38.1049 -15.2282 -1.6493 0.8485
-37.5337 -16.5862 -1.6493 0.8485
-36.2469 -19.2364 -1.6493 0.8485
-35.5331 -20.5251 -1.6493 0.8485
-34.2686 -23.2247 -1.6638 0.8473
-32.7190 -23.9324 -1.6293 0.8502
-24.2480 -27.4329 -1.4716 0.8637
-15.4007 -23.4945 -1.1291 0.8936
-14.5474 -24.0322 -1.1291 0.8936
-14.5617 -26.1293 -1.2023 0.8871
-16.5314 -39.0209 -1.7033 0.8440
-15.1363 -39.6314 -1.7051 0.8438
-13.7165 -40.1887 -1.7067 0.8437
-7.1050 -23.5511 -0.9887 0.9062
-6.1936 -23.5573 -0.9790 0.9071
-5.9071 -26.2686 -1.0821 0.8978
-7.8464 -41.8606 -1.7118 0.8432
-2.3595 -30.3528 -1.6886 0.8852
-1.2690 -30.4328 -1.6894 0.8851
-0.1759 -30.4736 -1.6902 0.8851
1.6029 -24.2376 -1.3472 0.9073
2.0492 -20.0321 -1.1169 0.9225
4.3887 -20.6253 -1.1696 0.9190
5.0755 -20.2522 -1.1580 0.9198
5.8021 -20.0671 -1.1586 0.9197
6.6510 -20.2487 -1.1821 0.9182
8.3174 -20.2821 -1.2158 0.9159
9.9862 -20.1064 -1.2452 0.9140
12.1778 -20.6519 -1.3297 0.9084
9.9460 -15.5619 -1.0243 0.9287
11.3176 -16.3808 -1.1043 0.9233
7.9703 -9.9290 -0.7062 0.9503
8.3768 -9.7005 -0.7109 0.9499
8.9944 -9.6895 -0.7333 0.9484
10.3831 -9.6879 -0.7876 0.9447
11.1048 -9.6394 -0.8156 0.9428
9.2288 -7.4472 -0.6577 0.9536
9.2925 -6.4555 -0.6276 0.9557
10.6545 -6.3195 -0.6871 0.9516
26.9731 -14.7162 -1.7042 0.8842
28.9899 -14.4912 -1.7976 0.8782
25.0367 -11.4110 -1.5261 0.8956
28.8493 -9.5581 -1.6856 0.8854
26.3495 -7.6919 -1.5224 0.8959
26.2451 -6.6490 -1.5016 0.8972
29.0357 -6.2561 -1.6474 0.8878
31.9801 -5.6977 -1.8017 0.8780
32.1641 -4.5461 -1.8017 0.8780
32.4836 0.1041 -1.8017 0.8780
32.4589 1.2701 -1.8017 0.8780
32.3924 2.4344 -1.8017 0.8780
31.9430 5.9026 -1.8017 0.8780
31.7105 7.0454 -1.8017 0.8780
31.1233 9.3024 -1.8017 0.8780
30.7693 10.4136 -1.8017 0.8780
29.9429 12.5943 -1.8017 0.8780
29.4715 13.6610 -1.8017 0.8780
28.4154 15.7403 -1.8017 0.8780
27.8321 16.7502 -1.8017 0.8780
25.8773 18.2240 -1.7555 0.8809
25.1482 20.5609 -1.8017 0.8780
24.3940 21.4506 -1.8017 0.8780
17.1677 16.2253 -1.3102 0.9097
21.9466 23.9487 -1.8017 0.8780
9.3048 11.7449 -0.8311 0.9417
8.6405 11.7494 -0.8089 0.9432
6.8163 11.7308 -0.7525 0.9471
6.2796 11.7596 -0.7394 0.9480
5.2359 11.7667 -0.7143 0.9497
4.2557 11.7733 -0.6943 0.9511
3.7848 11.7766 -0.6861 0.9517
3.3243 11.7797 -0.6789 0.9521
2.8728 11.7828 -0.6727 0.9526
1.1333 11.8266 -0.6590 0.9535
-2.1798 13.8779 -0.7792 0.9453
-2.6942 13.8814 -0.7843 0.9449
-6.7098 28.9691 -1.6493 0.8877
-9.1928 26.3801 -1.5494 0.8941
-9.5045 18.3042 -1.1439 0.9207
-13.7274 24.2651 -1.5463 0.8943
-14.2670 21.4636 -1.4295 0.9019
-17.7350 24.7087 -1.6869 0.8853
-17.8505 23.0738 -1.6180 0.8897
-20.7135 21.5261 -1.6569 0.8872
-22.2045 19.9845 -1.6569 0.8872
-20.9335 15.1068 -1.4318 0.9017
-28.2319 16.0672 -1.8017 0.8780
-28.7904 15.0434 -1.8017 0.8780
-29.3119 14.0003 -1.8017 0.8780
-29.7955 12.9391 -1.8017 0.8780
-31.6271 7.4109 -1.8017 0.8780
-31.8727 6.2709 -1.8017 0.8780
-32.0773 5.1228 -1.8017 0.8780
-32.2405 3.9680 -1.8017 0.8780
-32.4421 1.6446 -1.8017 0.8780
-32.4802 0.4790 -1.8017 0.8780
-32.4765 -0.6872 -1.8017 0.8780
-31.8318 -6.4751 -1.8017 0.8780
-31.5789 -7.6136 -1.8017 0.8780
-30.9513 -9.8596 -1.8017 0.8780
-30.5774 -10.9642 -1.8017 0.8780
-30.1641 -12.0548 -1.8017 0.8780
-29.7120 -13.1298 -1.8017 0.8780
-29.2215 -14.1879 -1.8017 0.8780
-27.7170 -14.7095 -1.7404 0.8819
-25.7669 -14.8839 -1.6504 0.8876
-24.0008 -17.5554 -1.6493 0.8877
-23.3551 -18.4056 -1.6493 0.8877
-21.9744 -20.0338 -1.6493 0.8877
-15.4007 -23.4945 -1.5581 0.8936
-14.5617 -26.1293 -1.6591 0.8871
-11.8237 -27.9102 -1.6812 0.8857
-9.8002 -28.7141 -1.6828 0.8855
-5.9071 -26.2686 -1.4933 0.8977
-3.4458 -30.2337 -1.6877 0.8852
-0.1378 -23.8777 -1.6897 0.9087
0.7197 -23.8765 -1.6903 0.9087
1.5769 -23.8444 -1.6910 0.9086
2.0492 -20.0321 -1.4249 0.9224
2.8040 -20.2128 -1.4440 0.9214
4.3856 -20.6109 -1.4911 0.9190
5.0767 -20.2570 -1.4778 0.9197
5.8021 -20.0671 -1.4782 0.9196
9.1873 -20.2956 -1.5764 0.9145
9.9862 -20.1064 -1.5886 0.9139
11.0023 -20.2896 -1.6332 0.9116
11.8387 -20.0768 -1.6493 0.9108
12.5517 -19.6389 -1.6493 0.9108
13.2486 -19.1757 -1.6493 0.9108
7.8704 -10.5597 -0.9319 0.9486
8.7401 -7.5867 -0.8190 0.9547
22.7742 -11.3842 -1.8017 0.9029
23.1682 -10.5593 -1.8017 0.9029
23.5323 -9.7209 -1.8017 0.9029
23.8661 -8.8699 -1.8017 0.9029
24.4410 -7.1348 -1.8017 0.9029
24.8899 -5.3628 -1.8017 0.9029
25.2105 -3.5633 -1.8017 0.9029
25.3222 -2.6560 -1.8017 0.9029
25.4475 -0.8324 -1.8017 0.9029
25.4416 0.9955 -1.8017 0.9029
25.3895 1.9081 -1.8017 0.9029
25.3046 2.8183 -1.8017 0.9029
25.1871 3.7248 -1.8017 0.9029
25.0372 4.6265 -1.8017 0.9029
24.8550 5.5223 -1.8017 0.9029
24.1173 8.1623 -1.8017 0.9029
23.8088 9.0227 -1.8017 0.9029
23.1000 10.7076 -1.8017 0.9029
22.7008 11.5300 -1.8017 0.9029
22.2723 12.3374 -1.8017 0.9029
21.8151 13.1290 -1.8017 0.9029
21.3297 13.9036 -1.8017 0.9029
16.3327 12.4027 -1.4512 0.9211
15.7469 17.1834 -1.6493 0.9108
8.6405 11.7494 -1.0320 0.9432
7.4090 11.7578 -0.9834 0.9458
6.7527 11.6213 -0.9511 0.9475
6.2078 11.6250 -0.9325 0.9485
4.2071 11.6387 -0.8757 0.9516
3.7415 11.6419 -0.8653 0.9521
3.2863 11.6450 -0.8562 0.9526
1.1173 11.6597 -0.8288 0.9541
0.6962 11.6626 -0.8267 0.9542
0.2768 11.6655 -0.8257 0.9543
-0.1421 11.6683 -0.8257 0.9543
-0.5616 11.6712 -0.8268 0.9542
-1.1678 13.8710 -0.9850 0.9457
-2.6942 13.8814 -1.0006 0.9449
-6.8747 22.2704 -1.6493 0.9108
-9.2290 21.4023 -1.6493 0.9108
-10.9146 23.0030 -1.8017 0.9029
-12.5368 22.1606 -1.8017 0.9029
-13.3242 21.6963 -1.8017 0.9029
-14.8465 20.6844 -1.8017 0.9029
-15.5794 20.1382 -1.8017 0.9029
-16.9841 18.9685 -1.8017 0.9029
-20.0981 15.6311 -1.8017 0.9029
-20.3775 14.7056 -1.7782 0.9041
-20.4135 11.6177 -1.6620 0.9101
-21.1287 10.0917 -1.6569 0.9104
-21.4773 9.3268 -1.6569 0.9104
-24.9821 4.9152 -1.8017 0.9029
-25.4284 1.2891 -1.8017 0.9029
-25.4583 0.3754 -1.8017 0.9029
-25.4554 -0.5386 -1.8017 0.9029
-25.3511 -2.3636 -1.8017 0.9029
-25.1162 -4.1763 -1.8017 0.9029
-24.9501 -5.0752 -1.8017 0.9029
-24.7518 -5.9676 -1.8017 0.9029
-24.5217 -6.8522 -1.8017 0.9029
-23.9669 -8.5939 -1.8017 0.9029
-23.6429 -9.4487 -1.8017 0.9029
-23.2885 -10.2913 -1.8017 0.9029
-22.9041 -11.1206 -1.8017 0.9029
-22.4901 -11.9356 -1.8017 0.9029
-21.5758 -13.5184 -1.8017 0.9029
-21.0707 -14.2801 -1.8012 0.9030
-18.6786 -14.7202 -1.6829 0.9090
-17.2237 -15.7027 -1.6493 0.9108
-15.4358 -17.4633 -1.6493 0.9108
-14.7990 -18.0062 -1.6493 0.9108
-14.1431 -18.5258 -1.6493 0.9108
-13.4690 -19.0215 -1.6493 0.9108
-9.1627 -21.6294 -1.6622 0.9101
-6.0554 -23.0318 -1.6852 0.9089
-2.2855 -15.1852 -1.0866 0.9403
-2.7008 -23.6973 -1.6877 0.9088
-1.4847 -19.0993 -1.6493 0.9260
0.5772 -19.1482 -1.6493 0.9260
1.2642 -19.1152 -1.6493 0.9260
3.3118 -18.8685 -1.6493 0.9260
4.6570 -18.5822 -1.6493 0.9260
5.9782 -18.2002 -1.6493 0.9260
6.6277 -17.9739 -1.6493 0.9260
7.2686 -17.7244 -1.6493 0.9260
9.7305 -16.5016 -1.6493 0.9260
10.3166 -16.1417 -1.6493 0.9260
10.8894 -15.7610 -1.6493 0.9260
7.8828 -10.5763 -1.1356 0.9484
8.3939 -9.7202 -1.1057 0.9497
8.8644 -9.5495 -1.1218 0.9490
9.6066 -9.6313 -1.1711 0.9469
7.9226 -7.3921 -0.9329 0.9574
8.3836 -6.2820 -0.9019 0.9588
8.8799 -6.1689 -0.9309 0.9575
9.5274 -6.1237 -0.9751 0.9555
10.3132 -6.1171 -1.0323 0.9530
11.3192 -6.1756 -1.1101 0.9495
18.7187 -9.3569 -1.8017 0.9194
19.0425 -8.6790 -1.8017 0.9194
19.6161 -7.2904 -1.8017 0.9194
19.8652 -6.5816 -1.8017 0.9194
20.0886 -5.8642 -1.8017 0.9194
20.4576 -4.4079 -1.8017 0.9194
20.6027 -3.6707 -1.8017 0.9194
20.8129 -2.1830 -1.8017 0.9194
20.9159 -0.6842 -1.8017 0.9194
20.9111 0.8182 -1.8017 0.9194
20.7020 3.0615 -1.8017 0.9194
20.5787 3.8027 -1.8017 0.9194
16.7577 9.2826 -1.6493 0.9260
15.2566 11.5855 -1.6493 0.9260
14.8309 12.1257 -1.6493 0.9260
14.3861 12.6502 -1.6493 0.9260
13.9227 13.1585 -1.6493 0.9260
9.8880 11.6000 -1.3123 0.9406
9.3048 11.7449 -1.2900 0.9416
7.4090 11.7578 -1.1965 0.9457
6.2078 11.6250 -1.1346 0.9485
5.6830 11.6286 -1.1143 0.9494
5.1760 11.6321 -1.0961 0.9502
4.2071 11.6387 -1.0655 0.9515
2.4012 11.6510 -1.0241 0.9534
1.9686 11.6539 -1.0175 0.9537
1.5410 11.6568 -1.0123 0.9539
1.1173 11.6597 -1.0084 0.9541
0.6962 11.6626 -1.0059 0.9542
0.2768 11.6655 -1.0046 0.9542
-1.1678 13.8710 -1.1984 0.9456
-1.6715 13.8744 -1.2031 0.9454
-4.9898 18.4956 -1.6493 0.9260
-5.6505 18.3046 -1.6493 0.9260
-6.3039 18.0900 -1.6493 0.9260
-6.9492 17.8521 -1.6493 0.9260
-8.2121 17.3075 -1.6493 0.9260
-10.9515 17.8328 -1.8017 0.9194
-12.2027 17.0011 -1.8017 0.9194
-15.0423 14.5490 -1.8017 0.9194
-15.5548 13.9996 -1.8017 0.9194
-16.5192 12.8476 -1.8017 0.9194
-19.1952 8.3358 -1.8017 0.9194
-19.7438 6.9371 -1.8017 0.9194
-19.9801 6.2239 -1.8017 0.9194
-20.1907 5.5027 -1.8017 0.9194
-20.6652 3.3002 -1.8017 0.9194
-20.7704 2.5563 -1.8017 0.9194
-20.8487 1.8091 -1.8017 0.9194
-20.9248 0.3086 -1.8017 0.9194
-20.9224 -0.4427 -1.8017 0.9194
-20.8930 -1.1935 -1.8017 0.9194
-20.8367 -1.9427 -1.8017 0.9194
-20.5071 -4.1714 -1.8017 0.9194
-20.3442 -4.9049 -1.8017 0.9194
-20.1550 -5.6320 -1.8017 0.9194
-19.6990 -7.0635 -1.8017 0.9194
-18.8254 -9.1403 -1.8017 0.9194
-17.3235 -11.7405 -1.8017 0.9194
-16.4365 -12.9532 -1.8017 0.9194
-15.4648 -14.0991 -1.8017 0.9194
-14.8999 -14.5973 -1.7958 0.9197
-11.0705 -15.6343 -1.6493 0.9260
-10.5022 -16.0216 -1.6493 0.9260
-9.9203 -16.3882 -1.6493 0.9260
-9.3256 -16.7338 -1.6493 0.9260
-8.7189 -17.0577 -1.6493 0.9260
-8.1010 -17.3597 -1.6493 0.9260
-7.4726 -17.6393 -1.6493 0.9260
-6.8346 -17.8962 -1.6493 0.9260
-6.1878 -18.1300 -1.6493 0.9260
-5.5330 -18.3404 -1.6493 0.9260
-4.8711 -18.5273 -1.6493 0.9260
-4.2029 -18.6902 -1.6493 0.9260
-3.5293 -18.8290 -1.6493 0.9260
-2.2840 -15.1752 -1.3212 0.9402
-0.0938 -16.2545 -1.6493 0.9367
0.4897 -16.2474 -1.6493 0.9367
1.0726 -16.2193 -1.6493 0.9367
2.2336 -16.1005 -1.6493 0.9367
2.8100 -16.0100 -1.6493 0.9367
3.3829 -15.8988 -1.6493 0.9367
5.0725 -15.4430 -1.6493 0.9367
5.6236 -15.2509 -1.6493 0.9367
6.1674 -15.0392 -1.6493 0.9367
7.9806 -14.7172 -1.6987 0.9349
8.6746 -14.7109 -1.7328 0.9336
10.0635 -14.5656 -1.7963 0.9313
8.1520 -10.9376 -1.3841 0.9466
8.2667 -9.5730 -1.2834 0.9504
9.5727 -9.5972 -1.3754 0.9470
7.5730 -7.0660 -1.0509 0.9592
7.8568 -6.3401 -1.0244 0.9602
9.4978 -6.1047 -1.1456 0.9556
10.2833 -6.0993 -1.2131 0.9531
11.1993 -6.1102 -1.2945 0.9500
15.8829 -7.9394 -1.8017 0.9311
16.1577 -7.3642 -1.8017 0.9311
16.4116 -6.7794 -1.8017 0.9311
16.6444 -6.1860 -1.8017 0.9311
16.8557 -5.5845 -1.8017 0.9311
17.3584 -3.7401 -1.8017 0.9311
17.4814 -3.1146 -1.8017 0.9311
17.5820 -2.4851 -1.8017 0.9311
17.6599 -1.8523 -1.8017 0.9311
17.7472 -0.5805 -1.8017 0.9311
17.7068 1.3307 -1.8017 0.9311
17.5657 2.5977 -1.8017 0.9311
17.3341 3.8513 -1.8017 0.9311
17.1846 4.4710 -1.8017 0.9311
14.7474 6.8359 -1.6493 0.9367
13.9271 8.3817 -1.6493 0.9367
13.6172 8.8763 -1.6493 0.9367
13.2898 9.3593 -1.6493 0.9367
12.9453 9.8304 -1.6493 0.9367
12.5841 10.2887 -1.6493 0.9367
11.8135 11.1650 -1.6493 0.9367
11.4051 11.5819 -1.6493 0.9367
8.6171 11.7176 -1.4758 0.9432
7.4090 11.7578 -1.4101 0.9457
6.7527 11.6213 -1.3638 0.9474
6.2078 11.6250 -1.3372 0.9484
4.2071 11.6387 -1.2557 0.9515
3.7415 11.6419 -1.2407 0.9520
3.2863 11.6450 -1.2277 0.9525
2.4012 11.6510 -1.2070 0.9533
1.1173 11.6597 -1.1885 0.9540
0.6962 11.6626 -1.1854 0.9541
-0.5616 11.6712 -1.1856 0.9541
-1.1678 13.8710 -1.4124 0.9456
-2.6942 13.8814 -1.4348 0.9447
-4.2338 15.6937 -1.6493 0.9367
-4.7945 15.5316 -1.6493 0.9367
-5.8964 15.1475 -1.6493 0.9367
-6.4363 14.9261 -1.6493 0.9367
-6.9680 14.6855 -1.6493 0.9367
-8.0037 14.1477 -1.6493 0.9367
-9.4782 13.2053 -1.6493 0.9367
-10.8652 14.0445 -1.8017 0.9311
-11.3624 13.6455 -1.8017 0.9311
-12.7634 12.3449 -1.8017 0.9311
-13.6162 11.3973 -1.8017 0.9311
-14.7626 9.8675 -1.8017 0.9311
-15.1073 9.3312 -1.8017 0.9311
-15.4325 8.7829 -1.8017 0.9311
-15.7378 8.2233 -1.8017 0.9311
-16.2873 7.0730 -1.8017 0.9311
-16.5307 6.4837 -1.8017 0.9311
-17.1319 4.6691 -1.8017 0.9311
-17.4227 3.4279 -1.8017 0.9311
-17.5345 2.8003 -1.8017 0.9311
-17.6237 2.1690 -1.8017 0.9311
-17.6902 1.5350 -1.8017 0.9311
-17.7339 0.8990 -1.8017 0.9311
-17.7527 -0.3756 -1.8017 0.9311
-17.6095 -2.2820 -1.8017 0.9311
-17.4004 -3.5395 -1.8017 0.9311
-16.9190 -5.3896 -1.8017 0.9311
-16.2416 -7.1772 -1.8017 0.9311
-15.9735 -7.7556 -1.8017 0.9311
-15.3759 -8.8816 -1.8017 0.9311
-15.0471 -9.4279 -1.8017 0.9311
-14.3320 -10.4831 -1.8017 0.9311
-13.9464 -10.9908 -1.8017 0.9311
-13.5429 -11.4844 -1.8017 0.9311
-13.1219 -11.9631 -1.8017 0.9311
-12.6841 -12.4264 -1.8017 0.9311
-11.7598 -13.3044 -1.8017 0.9311
-11.2746 -13.7180 -1.8017 0.9311
-10.7750 -14.1139 -1.8017 0.9311
-10.2409 -14.4626 -1.7981 0.9312
-9.6369 -14.7015 -1.7836 0.9318
-8.2007 -14.7153 -1.7093 0.9345
-7.5246 -14.7212 -1.6775 0.9357
-6.3406 -14.9671 -1.6493 0.9367
-5.2504 -15.3834 -1.6493 0.9367
-4.6948 -15.5620 -1.6493 0.9367
-4.1332 -15.7205 -1.6493 0.9367
-1.8407 -16.1502 -1.6493 0.9367
-0.6135 -14.7131 -1.7212 0.9424
1.5050 -14.7117 -1.7285 0.9422
3.1292 -14.7063 -1.7574 0.9412
3.6850 -14.7037 -1.7718 0.9408
4.2505 -14.7006 -1.7886 0.9402
4.7946 -14.5968 -1.7958 0.9400
5.3235 -14.4370 -1.7985 0.9399
6.8567 -13.8053 -1.8017 0.9398
8.3011 -12.9882 -1.8017 0.9398
8.7620 -12.6819 -1.8017 0.9398
8.3284 -11.1742 -1.6289 0.9454
9.6492 -12.0205 -1.8017 0.9398
7.5522 -7.0466 -1.2073 0.9593
7.6109 -6.6065 -1.1780 0.9602
7.7825 -6.2801 -1.1689 0.9605
8.1544 -6.1102 -1.1910 0.9598
9.5085 -6.1115 -1.3212 0.9555
11.1993 -6.1102 -1.4912 0.9499
14.0262 -6.3927 -1.8017 0.9398
14.2466 -5.8851 -1.8017 0.9398
14.6322 -4.8478 -1.8017 0.9398
14.9423 -3.7855 -1.8017 0.9398
15.2626 -2.1572 -1.8017 0.9398
15.3302 -1.6080 -1.8017 0.9398
15.3781 -1.0566 -1.8017 0.9398
15.4061 -0.5039 -1.8017 0.9398
15.4142 0.0494 -1.8017 0.9398
15.4025 0.6027 -1.8017 0.9398
15.3196 1.7062 -1.8017 0.9398
15.2485 2.2550 -1.8017 0.9398
15.1577 2.8009 -1.8017 0.9398
15.0474 3.3432 -1.8017 0.9398
14.9177 3.8812 -1.8017 0.9398
14.7688 4.4142 -1.8017 0.9398
14.5907 4.9381 -1.8004 0.9399
13.1948 5.0004 -1.6493 0.9448
12.5807 6.3899 -1.6493 0.9448
12.3432 6.8374 -1.6493 0.9448
12.0899 7.2760 -1.6493 0.9448
11.8209 7.7053 -1.6493 0.9448
11.5367 8.1247 -1.6493 0.9448
10.5964 9.3178 -1.6493 0.9448
9.9006 10.0541 -1.6493 0.9448
8.7623 11.0601 -1.6493 0.9448
8.3597 11.3675 -1.6493 0.9448
7.9143 11.6134 -1.6426 0.9450
6.7527 11.6213 -1.5710 0.9473
6.2078 11.6250 -1.5404 0.9483
5.1760 11.6321 -1.4881 0.9500
4.2071 11.6387 -1.4465 0.9514
2.8400 11.6480 -1.4013 0.9529
1.9686 11.6539 -1.3814 0.9535
1.1173 11.6597 -1.3691 0.9539
0.6962 11.6626 -1.3656 0.9540
0.2768 11.6655 -1.3639 0.9541
-0.1421 11.6683 -1.3639 0.9541
-0.5616 11.6712 -1.3657 0.9540
-1.1217 13.3236 -1.5628 0.9476
-1.5992 13.2748 -1.5628 0.9476
-2.5475 13.1258 -1.5628 0.9476
-3.0170 13.0259 -1.5628 0.9476
-3.6753 13.6234 -1.6493 0.9448
-4.1620 13.4827 -1.6493 0.9448
-5.1186 13.1493 -1.6493 0.9448
-6.5025 12.5229 -1.6493 0.9448
-7.8111 11.7512 -1.6493 0.9448
-9.0291 10.8434 -1.6493 0.9448
-11.0797 10.7164 -1.8017 0.9398
-11.8200 9.8938 -1.8017 0.9398
-12.1676 9.4632 -1.8017 0.9398
-12.8151 8.5658 -1.8017 0.9398
-13.1144 8.1003 -1.8017 0.9398
-13.6617 7.1385 -1.8017 0.9398
-14.1387 6.1399 -1.8017 0.9398
-14.5428 5.1097 -1.8017 0.9398
-15.0078 3.5167 -1.8017 0.9398
-15.1244 2.9757 -1.8017 0.9398
-15.2214 2.4309 -1.8017 0.9398
-15.2989 1.8829 -1.8017 0.9398
-15.3566 1.3325 -1.8017 0.9398
-15.3945 0.7804 -1.8017 0.9398
-15.2865 -1.9809 -1.8017 0.9398
-15.1050 -3.0726 -1.8017 0.9398
-14.9850 -3.6128 -1.8017 0.9398
-14.8456 -4.1484 -1.8017 0.9398
-14.6871 -4.6786 -1.8017 0.9398
-14.5097 -5.2028 -1.8017 0.9398
-14.0990 -6.2304 -1.8017 0.9398
-13.6157 -7.2259 -1.8017 0.9398
-13.3475 -7.7100 -1.8017 0.9398
-11.7564 -9.9694 -1.8017 0.9398
-10.2085 -11.5493 -1.8017 0.9398
-9.7873 -11.9083 -1.8017 0.9398
-9.3536 -12.2520 -1.8017 0.9398
-8.9077 -12.5799 -1.8017 0.9398
-7.9822 -13.1866 -1.8017 0.9398
-7.0155 -13.7253 -1.8017 0.9398
-6.0127 -14.1932 -1.8017 0.9398
-5.4926 -14.3820 -1.7994 0.9399
-3.3069 -14.7055 -1.7618 0.9411
-2.7569 -14.7079 -1.7490 0.9415
-1.6767 -14.7113 -1.7306 0.9421
-1.0550 -13.5713 -1.8017 0.9466
-0.5671 -13.6004 -1.8017 0.9466
2.8330 -13.3142 -1.8017 0.9466
4.2479 -12.9324 -1.8017 0.9466
4.7094 -12.7716 -1.8017 0.9466
5.6135 -12.4008 -1.8017 0.9466
6.4888 -11.9661 -1.8017 0.9466
6.9142 -11.7255 -1.8017 0.9466
7.3306 -11.4697 -1.8017 0.9466
9.2608 -9.9765 -1.8017 0.9466
9.6129 -9.6376 -1.8017 0.9466
7.5404 -7.0356 -1.3650 0.9592
7.5977 -6.5951 -1.3316 0.9602
7.7613 -6.2630 -1.3200 0.9606
11.7077 -6.9442 -1.8017 0.9466
12.1758 -6.0863 -1.8017 0.9466
12.5811 -5.1971 -1.8017 0.9466
12.9215 -4.2811 -1.8017 0.9466
13.0669 -3.8145 -1.8017 0.9466
13.1954 -3.3429 -1.8017 0.9466
13.3068 -2.8671 -1.8017 0.9466
13.4783 -1.9050 -1.8017 0.9466
13.5380 -1.4200 -1.8017 0.9466
13.6050 -0.4450 -1.8017 0.9466
13.6018 0.5322 -1.8017 0.9466
13.5740 1.0201 -1.8017 0.9466
13.5286 1.5067 -1.8017 0.9466
13.4658 1.9914 -1.8017 0.9466
13.3856 2.4735 -1.8017 0.9466
13.0421 3.8982 -1.8017 0.9466
12.8655 4.3542 -1.7977 0.9467
11.4861 4.8312 -1.6493 0.9510
11.3053 5.2404 -1.6493 0.9510
11.1099 5.6428 -1.6493 0.9510
10.1879 7.1748 -1.6493 0.9510
9.9238 7.5359 -1.6493 0.9510
9.6469 7.8873 -1.6493 0.9510
8.7431 8.8786 -1.6493 0.9510
8.0835 9.4830 -1.6493 0.9510
7.0172 10.2971 -1.6493 0.9510
6.6431 10.5423 -1.6493 0.9510
4.2071 11.6387 -1.6380 0.9513
3.7415 11.6419 -1.6185 0.9519
3.2863 11.6450 -1.6015 0.9524
2.8400 11.6480 -1.5869 0.9528
1.9686 11.6539 -1.5643 0.9534
1.5410 11.6568 -1.5563 0.9537
0.6962 11.6626 -1.5464 0.9540
-0.1421 11.6683 -1.5445 0.9540
-1.4122 11.7228 -1.5628 0.9535
-1.8345 11.6799 -1.5649 0.9534
-2.2674 11.6828 -1.5752 0.9531
-2.7066 11.6858 -1.5876 0.9528
-3.2456 12.0307 -1.6493 0.9510
-3.6754 11.9064 -1.6493 0.9510
-4.1004 11.7668 -1.6493 0.9510
-5.3417 11.2578 -1.6493 0.9510
-5.7423 11.0588 -1.6493 0.9510
-6.1356 10.8456 -1.6493 0.9510
-6.5210 10.6183 -1.6493 0.9510
-7.2660 10.1231 -1.6493 0.9510
-7.6247 9.8558 -1.6493 0.9510
-8.3121 9.2833 -1.6493 0.9510
-11.0381 7.9657 -1.8017 0.9466
-11.3169 7.5644 -1.8017 0.9466
-11.5812 7.1533 -1.8017 0.9466
-12.0645 6.3039 -1.8017 0.9466
-12.2831 5.8668 -1.8017 0.9466
-12.6723 4.9704 -1.8017 0.9466
-12.8426 4.5123 -1.8017 0.9466
-12.9963 4.0484 -1.8017 0.9466
-13.1332 3.5793 -1.8017 0.9466
-13.2532 3.1055 -1.8017 0.9466
-13.5103 1.6628 -1.8017 0.9466
-13.5947 0.6892 -1.8017 0.9466
-13.6092 -0.2880 -1.8017 0.9466
-13.5901 -0.7763 -1.8017 0.9466
-13.5534 -1.2636 -1.8017 0.9466
-13.4993 -1.7493 -1.8017 0.9466
-13.3391 -2.7133 -1.8017 0.9466
-13.2330 -3.1904 -1.8017 0.9466
-12.8134 -4.5945 -1.8017 0.9466
-12.6402 -5.0515 -1.8017 0.9466
-12.2452 -5.9454 -1.8017 0.9466
-11.7871 -6.8086 -1.8017 0.9466
-11.2682 -7.6367 -1.8017 0.9466
-10.0592 -9.1709 -1.8017 0.9466
-9.7235 -9.5260 -1.8017 0.9466
-8.2600 -10.8196 -1.8017 0.9466
-7.8663 -11.1092 -1.8017 0.9466
-7.4625 -11.3844 -1.8017 0.9466
-7.0490 -11.6449 -1.8017 0.9466
-6.6265 -11.8904 -1.8017 0.9466
-5.7563 -12.3352 -1.8017 0.9466
-5.3098 -12.5339 -1.8017 0.9466
-4.3969 -12.8826 -1.8017 0.9466
-3.9316 -13.0321 -1.8017 0.9466
-3.4612 -13.1648 -1.8017 0.9466
-2.9864 -13.2806 -1.8017 0.9466
-2.5078 -13.3792 -1.8017 0.9466
-2.0259 -13.4606 -1.8017 0.9466
-1.5414 -13.5247 -1.8017 0.9466
-0.5075 -12.1717 -1.8017 0.9519
-0.0703 -12.1820 -1.8017 0.9519
0.3670 -12.1767 -1.8017 0.9519
1.2397 -12.1190 -1.8017 0.9519
2.9615 -11.8168 -1.8017 0.9519
4.6222 -11.2713 -1.8017 0.9519
5.0238 -11.0981 -1.8017 0.9519
6.1878 -10.4937 -1.8017 0.9519
6.9248 -10.0227 -1.8017 0.9519
7.2801 -9.7677 -1.8017 0.9519
7.9621 -9.2202 -1.8017 0.9519
8.6031 -8.6252 -1.8017 0.9519
8.2387 -7.6871 -1.6665 0.9555
8.1544 -6.1102 -1.5070 0.9596
10.0049 -6.9504 -1.8017 0.9519
10.4778 -6.2148 -1.8017 0.9519
10.6941 -5.8346 -1.8017 0.9519
10.8967 -5.4470 -1.8017 0.9519
11.2594 -4.6511 -1.8017 0.9519
11.4191 -4.2440 -1.8017 0.9519
11.8092 -2.9918 -1.8017 0.9519
11.9090 -2.5659 -1.8017 0.9519
11.9934 -2.1368 -1.8017 0.9519
12.0624 -1.7049 -1.8017 0.9519
12.1158 -1.2708 -1.8017 0.9519
12.1729 0.4763 -1.8017 0.9519
12.0512 1.7822 -1.8017 0.9519
11.9795 2.2136 -1.8017 0.9519
11.7897 3.0674 -1.8017 0.9519
11.6721 3.4886 -1.8017 0.9519
11.5311 3.9026 -1.8004 0.9520
11.1807 4.2371 -1.7683 0.9528
10.2795 4.3237 -1.6493 0.9559
10.1177 4.6899 -1.6493 0.9559
9.7551 5.4037 -1.6493 0.9559
9.3423 6.0897 -1.6493 0.9559
9.1177 6.4211 -1.6493 0.9559
8.8813 6.7443 -1.6493 0.9559
8.6335 7.0587 -1.6493 0.9559
8.3745 7.3641 -1.6493 0.9559
7.2344 8.4868 -1.6493 0.9559
6.9250 8.7410 -1.6493 0.9559
5.9452 9.4349 -1.6493 0.9559
5.6027 9.6422 -1.6493 0.9559
4.8965 10.0193 -1.6493 0.9559
4.5337 10.1886 -1.6493 0.9559
4.1650 10.3448 -1.6493 0.9559
3.4121 10.6170 -1.6493 0.9559
3.0288 10.7326 -1.6493 0.9559
2.6416 10.8344 -1.6493 0.9559
1.4615 11.0556 -1.6493 0.9559
0.6646 11.1320 -1.6493 0.9559
0.2646 11.1486 -1.6493 0.9559
-0.9355 11.1125 -1.6493 0.9559
-1.3338 11.0717 -1.6493 0.9559
-1.7303 11.0167 -1.6493 0.9559
-2.9047 10.7668 -1.6493 0.9559
-4.0453 10.3922 -1.6493 0.9559
-4.7805 10.0752 -1.6493 0.9559
-5.1391 9.8971 -1.6493 0.9559
-5.4910 9.7062 -1.6493 0.9559
-5.8359 9.5029 -1.6493 0.9559
-6.5027 9.0597 -1.6493 0.9559
-6.8237 8.8204 -1.6493 0.9559
-7.1359 8.5698 -1.6493 0.9559
-7.7324 8.0357 -1.6493 0.9559
-9.3416 7.8193 -1.8017 0.9519
-10.1281 6.7697 -1.8017 0.9519
-10.3646 6.4018 -1.8017 0.9519
-10.5877 6.0256 -1.8017 0.9519
-11.1741 4.8525 -1.8017 0.9519
-11.6310 3.6231 -1.8017 0.9519
-11.7536 3.2033 -1.8017 0.9519
-11.8610 2.7793 -1.8017 0.9519
-11.9531 2.3518 -1.8017 0.9519
-12.0298 1.9212 -1.8017 0.9519
-12.1366 1.0531 -1.8017 0.9519
-12.1809 0.1796 -1.8017 0.9519
-12.1795 -0.2577 -1.8017 0.9519
-12.1624 -0.6948 -1.8017 0.9519
-12.0812 -1.5656 -1.8017 0.9519
-12.0172 -1.9982 -1.8017 0.9519
-11.9378 -2.4283 -1.8017 0.9519
-11.7328 -3.2786 -1.8017 0.9519
-11.4673 -4.1119 -1.8017 0.9519
-11.1428 -4.9240 -1.8017 0.9519
-10.7608 -5.7108 -1.8017 0.9519
-10.5488 -6.0934 -1.8017 0.9519
-10.3233 -6.4681 -1.8017 0.9519
-10.0845 -6.8345 -1.8017 0.9519
-9.8326 -7.1921 -1.8017 0.9519
-9.5681 -7.5404 -1.8017 0.9519
-7.0400 -9.9421 -1.8017 0.9519
-6.6785 -10.1884 -1.8017 0.9519
-6.3085 -10.4216 -1.8017 0.9519
-5.9303 -10.6413 -1.8017 0.9519
-4.3463 -11.3805 -1.8017 0.9519
-3.5186 -11.6630 -1.8017 0.9519
-2.2444 -11.9737 -1.8017 0.9519
-1.8131 -12.0466 -1.8017 0.9519
-0.8540 -10.9863 -1.8017 0.9563
0.3320 -11.0144 -1.8017 0.9563
0.7272 -10.9954 -1.8017 0.9563
1.1214 -10.9622 -1.8017 0.9563
1.5142 -10.9149 -1.8017 0.9563
3.0607 -10.5858 -1.8017 0.9563
3.4388 -10.4691 -1.8017 0.9563
4.5443 -10.0388 -1.8017 0.9563
4.9017 -9.8692 -1.8017 0.9563
5.2528 -9.6869 -1.8017 0.9563
6.8981 -8.5933 -1.8017 0.9563
7.2021 -8.3401 -1.8017 0.9563
7.4968 -8.0762 -1.8017 0.9563
7.7819 -7.8019 -1.8017 0.9563
8.3216 -7.2235 -1.8017 0.9563
8.5755 -6.9201 -1.8017 0.9563
9.4777 -5.6215 -1.8017 0.9563
9.6734 -5.2777 -1.8017 0.9563
10.1847 -4.2072 -1.8017 0.9563
10.4603 -3.4656 -1.8017 0.9563
10.5779 -3.0879 -1.8017 0.9563
10.6820 -2.7062 -1.8017 0.9563
10.9593 -1.1495 -1.8017 0.9563
11.0193 0.0353 -1.8017 0.9563
11.0110 0.4308 -1.8017 0.9563
10.9884 0.8258 -1.8017 0.9563
10.9517 1.2197 -1.8017 0.9563
10.7571 2.3900 -1.8017 0.9563
10.5579 3.1556 -1.8017 0.9563
10.4378 3.5326 -1.8017 0.9563
10.2898 3.8995 -1.7991 0.9564
9.1519 4.2422 -1.6493 0.9599
8.8240 4.8879 -1.6493 0.9599
8.6428 5.2015 -1.6493 0.9599
8.2474 5.8082 -1.6493 0.9599
7.8094 6.3849 -1.6493 0.9599
7.5752 6.6611 -1.6493 0.9599
7.0777 7.1875 -1.6493 0.9599
6.2640 7.9067 -1.6493 0.9599
5.9762 8.1264 -1.6493 0.9599
4.7516 8.8981 -1.6493 0.9599
4.4291 9.0629 -1.6493 0.9599
3.4291 9.4866 -1.6493 0.9599
2.3894 9.8002 -1.6493 0.9599
1.6801 9.9464 -1.6493 0.9599
1.3220 10.0003 -1.6493 0.9599
0.9622 10.0413 -1.6493 0.9599
0.2393 10.0845 -1.6493 0.9599
-0.1229 10.0866 -1.6493 0.9599
-0.4849 10.0757 -1.6493 0.9599
-0.8462 10.0517 -1.6493 0.9599
-1.5652 9.9651 -1.6493 0.9599
-1.9219 9.9025 -1.6493 0.9599
-2.2761 9.8271 -1.6493 0.9599
-3.3194 9.5255 -1.6493 0.9599
-3.9943 9.2628 -1.6493 0.9599
-4.3242 9.1135 -1.6493 0.9599
-4.6485 8.9524 -1.6493 0.9599
-4.9669 8.7797 -1.6493 0.9599
-5.2789 8.5958 -1.6493 0.9599
-6.1723 7.9785 -1.6493 0.9599
-6.4548 7.7518 -1.6493 0.9599
-6.7289 7.5151 -1.6493 0.9599
-6.9943 7.2687 -1.6493 0.9599
-7.2507 7.0129 -1.6493 0.9599
-7.4978 6.7481 -1.6493 0.9599
-8.9356 6.4484 -1.8017 0.9563
-9.5770 5.4505 -1.8017 0.9563
-9.9434 4.7493 -1.8017 0.9563
-10.3964 3.6528 -1.8017 0.9563
-10.6316 2.8975 -1.8017 0.9563
-10.7288 2.5140 -1.8017 0.9563
-10.8121 2.1273 -1.8017 0.9563
-10.9782 0.9526 -1.8017 0.9563
-11.0053 0.5579 -1.8017 0.9563
-11.0169 -0.2331 -1.8017 0.9563
-11.0015 -0.6284 -1.8017 0.9563
-10.9718 -1.0229 -1.8017 0.9563
-10.9280 -1.4161 -1.8017 0.9563
-10.6128 -2.9656 -1.8017 0.9563
-10.4996 -3.3446 -1.8017 0.9563
-10.3727 -3.7194 -1.8017 0.9563
-10.2325 -4.0893 -1.8017 0.9563
-9.9128 -4.8129 -1.8017 0.9563
-9.7336 -5.1657 -1.8017 0.9563
-9.1219 -6.1821 -1.8017 0.9563
-8.6548 -6.8207 -1.8017 0.9563
-8.4044 -7.1269 -1.8017 0.9563
-7.8714 -7.7115 -1.8017 0.9563
-7.5895 -7.9891 -1.8017 0.9563
-6.6867 -8.7587 -1.8017 0.9563
-6.3680 -8.9931 -1.8017 0.9563
-5.7063 -9.4268 -1.8017 0.9563
-4.6598 -9.9857 -1.8017 0.9563
-3.9314 -10.2942 -1.8017 0.9563
-3.5594 -10.4287 -1.8017 0.9563
-3.1827 -10.5498 -1.8017 0.9563
-2.8020 -10.6572 -1.8017 0.9563
-2.4176 -10.7509 -1.8017 0.9563
-1.2478 -10.9485 -1.8017 0.9563
-0.7793 -10.0246 -1.8017 0.9600
-0.4189 -10.0461 -1.8017 0.9600
-0.0580 -10.0547 -1.8017 0.9600
0.3029 -10.0503 -1.8017 0.9600
1.0232 -10.0026 -1.8017 0.9600
1.7383 -9.9034 -1.8017 0.9600
2.0926 -9.8347 -1.8017 0.9600
2.4443 -9.7532 -1.8017 0.9600
2.7928 -9.6592 -1.8017 0.9600
3.1378 -9.5527 -1.8017 0.9600
3.4786 -9.4339 -1.8017 0.9600
5.1072 -8.6612 -1.8017 0.9600
5.7155 -8.2724 -1.8017 0.9600
6.2943 -7.8411 -1.8017 0.9600
7.1007 -7.1190 -1.8017 0.9600
7.8249 -6.3144 -1.8017 0.9600
8.0465 -6.0294 -1.8017 0.9600
8.2578 -5.7367 -1.8017 0.9600
9.5446 -3.1623 -1.8017 0.9600
9.6520 -2.8176 -1.8017 0.9600
9.8293 -2.1179 -1.8017 0.9600
9.8990 -1.7636 -1.8017 0.9600
9.9559 -1.4072 -1.8017 0.9600
10.0000 -1.0489 -1.8017 0.9600
10.0312 -0.6892 -1.8017 0.9600
10.0472 0.3931 -1.8017 0.9600
9.9931 1.1130 -1.8017 0.9600
9.9467 1.4709 -1.8017 0.9600
9.8875 1.8271 -1.8017 0.9600
9.6337 2.8794 -1.8017 0.9600
9.4023 3.5632 -1.8017 0.9600
8.3133 4.2224 -1.6708 0.9628
7.8863 4.7462 -1.6493 0.9633
7.7108 5.0262 -1.6493 0.9633
7.5254 5.2998 -1.6493 0.9633
6.9121 6.0781 -1.6493 0.9633
6.6895 6.3223 -1.6493 0.9633
6.4582 6.5583 -1.6493 0.9633
4.0990 4.4730 -1.0871 0.9756
3.9149 4.5927 -1.0813 0.9758
5.7157 7.2146 -1.6493 0.9633
5.4531 7.4151 -1.6493 0.9633
5.1834 7.6061 -1.6493 0.9633
4.6243 7.9584 -1.6493 0.9633
4.3357 8.1192 -1.6493 0.9633
4.0414 8.2696 -1.6493 0.9633
3.4377 8.5383 -1.6493 0.9633
2.4999 8.8583 -1.6493 0.9633
1.8579 9.0149 -1.6493 0.9633
1.5331 9.0758 -1.6493 0.9633
1.2063 9.1249 -1.6493 0.9633
0.8780 9.1624 -1.6493 0.9633
0.5485 9.1880 -1.6493 0.9633
0.2183 9.2017 -1.6493 0.9633
-0.7721 9.1719 -1.6493 0.9633
-1.4282 9.0928 -1.6493 0.9633
-1.7537 9.0357 -1.6493 0.9633
-2.0769 8.9670 -1.6493 0.9633
-2.3974 8.8866 -1.6493 0.9633
-2.7149 8.7948 -1.6493 0.9633
-3.9457 8.3157 -1.6493 0.9633
-4.5321 8.0112 -1.6493 0.9633
-4.8168 7.8434 -1.6493 0.9633
-6.3821 6.6324 -1.6493 0.9633
-6.6160 6.3991 -1.6493 0.9633
-6.8415 6.1575 -1.6493 0.9633
-7.6965 6.4423 -1.7985 0.9600
-7.9370 6.1729 -1.8017 0.9600
-8.3594 5.5875 -1.8017 0.9600
-8.5546 5.2839 -1.8017 0.9600
-8.9116 4.6565 -1.8017 0.9600
-9.3606 3.6715 -1.8017 0.9600
-9.7010 2.6439 -1.8017 0.9600
-9.8657 1.9411 -1.8017 0.9600
-9.9290 1.5857 -1.8017 0.9600
-2.0197 0.0298 -0.3619 0.9918
-2.0246 -0.0428 -0.3629 0.9918
-2.0516 -0.1913 -0.3692 0.9917
-9.9186 -1.6493 -1.8017 0.9600
-9.4648 -3.3938 -1.8017 0.9600
-9.1969 -4.0641 -1.8017 0.9600
-9.0451 -4.3916 -1.8017 0.9600
-8.8816 -4.7135 -1.8017 0.9600
-8.1155 -5.9361 -1.8017 0.9600
-7.6687 -6.5031 -1.8017 0.9600
-6.9252 -7.2898 -1.8017 0.9600
-6.6591 -7.5337 -1.8017 0.9600
-5.5123 -8.4092 -1.8017 0.9600
-5.2068 -8.6017 -1.8017 0.9600
-4.8947 -8.7830 -1.8017 0.9600
-4.5763 -8.9531 -1.8017 0.9600
-4.2520 -9.1116 -1.8017 0.9600
-3.9221 -9.2583 -1.8017 0.9600
-3.5873 -9.3931 -1.8017 0.9600
-1.8524 -9.8827 -1.8017 0.9600
-1.1386 -9.9902 -1.8017 0.9600
-0.7162 -9.2137 -1.8017 0.9630
0.2784 -9.2373 -1.8017 0.9630
0.6098 -9.2213 -1.8017 0.9630
2.2466 -8.9642 -1.8017 0.9630
2.8839 -8.7800 -1.8017 0.9630
3.1972 -8.6708 -1.8017 0.9630
3.5064 -8.5504 -1.8017 0.9630
4.1108 -8.2768 -1.8017 0.9630
4.6941 -7.9606 -1.8017 0.9630
4.9768 -7.7869 -1.8017 0.9630
5.2531 -7.6033 -1.8017 0.9630
5.5227 -7.4098 -1.8017 0.9630
6.0401 -6.9945 -1.8017 0.9630
6.2873 -6.7731 -1.8017 0.9630
7.5898 -5.2726 -1.8017 0.9630
7.7741 -4.9968 -1.8017 0.9630
7.9485 -4.7145 -1.8017 0.9630
8.4093 -3.8327 -1.8017 0.9630
8.8712 -2.5897 -1.8017 0.9630
9.0982 -1.6210 -1.8017 0.9630
9.1911 -0.9640 -1.8017 0.9630
9.2155 0.6926 -1.8017 0.9630
9.0876 1.6793 -1.8017 0.9630
9.0215 2.0044 -1.8017 0.9630
8.9437 2.3269 -1.8017 0.9630
8.8544 2.6465 -1.8017 0.9630
8.7537 2.9626 -1.8017 0.9630
8.6418 3.2750 -1.8017 0.9630
8.5186 3.5830 -1.8017 0.9630
8.3741 3.8817 -1.7994 0.9631
8.2072 4.1685 -1.7946 0.9632
7.6138 4.2176 -1.6969 0.9652
7.2483 4.3623 -1.6493 0.9661
7.0871 4.6196 -1.6493 0.9661
6.9167 4.8711 -1.6493 0.9661
6.7374 5.1162 -1.6493 0.9661
6.3529 5.5864 -1.6493 0.9661
5.9358 6.0278 -1.6493 0.9661
5.0120 6.8153 -1.6493 0.9661
4.5101 7.1573 -1.6493 0.9661
4.2502 7.3146 -1.6493 0.9661
3.9849 7.4624 -1.6493 0.9661
3.4393 7.7291 -1.6493 0.9661
3.1596 7.8476 -1.6493 0.9661
2.8758 7.9559 -1.6493 0.9661
2.5884 8.0541 -1.6493 0.9661
2.2976 8.1418 -1.6493 0.9661
1.4091 8.3416 -1.6493 0.9661
1.1087 8.3868 -1.6493 0.9661
0.8069 8.4212 -1.6493 0.9661
0.5041 8.4447 -1.6493 0.9661
0.2007 8.4574 -1.6493 0.9661
-1.3127 8.3573 -1.6493 0.9661
-2.7838 7.9886 -1.6493 0.9661
-3.0688 7.8835 -1.6493 0.9661
-3.6265 7.6430 -1.6493 0.9661
-3.8985 7.5079 -1.6493 0.9661
-4.1655 7.3632 -1.6493 0.9661
-4.4271 7.2089 -1.6493 0.9661
-5.1765 6.6912 -1.6493 0.9661
-5.4133 6.5010 -1.6493 0.9661
-5.6432 6.3025 -1.6493 0.9661
-6.0808 5.8814 -1.6493 0.9661
-7.2949 5.6735 -1.8017 0.9630
-7.4939 5.4080 -1.8017 0.9630
-7.6832 5.1355 -1.8017 0.9630
-8.1907 4.2798 -1.8017 0.9630
-8.3391 3.9830 -1.8017 0.9630
-8.4767 3.6811 -1.8017 0.9630
-8.6034 3.3745 -1.8017 0.9630
-8.7189 3.0635 -1.8017 0.9630
-1.7560 0.4786 -0.3548 0.9926
-1.7138 0.3372 -0.3405 0.9929
-1.6983 0.2712 -0.3353 0.9930
-1.7073 0.1482 -0.3341 0.9930
-1.7076 -0.0361 -0.3330 0.9931
-1.7084 -0.0976 -0.3336 0.9931
-1.7069 -0.1591 -0.3342 0.9930
-1.7030 -0.2207 -0.3348 0.9930
-1.7395 -0.4194 -0.3489 0.9927
-1.7595 -0.4917 -0.3562 0.9926
-1.7774 -0.5662 -0.3637 0.9924
-8.6991 -3.1193 -1.8017 0.9630
-8.4529 -3.7354 -1.8017 0.9630
-8.3134 -4.0364 -1.8017 0.9630
-8.1631 -4.3322 -1.8017 0.9630
-7.8313 -4.9067 -1.8017 0.9630
-6.8293 -6.2262 -1.8017 0.9630
-6.3650 -6.7001 -1.8017 0.9630
-6.1204 -6.9243 -1.8017 0.9630
-5.6078 -7.3455 -1.8017 0.9630
-5.3405 -7.5421 -1.8017 0.9630
-4.7856 -7.9058 -1.8017 0.9630
-4.2061 -8.2288 -1.8017 0.9630
-3.9080 -8.3745 -1.8017 0.9630
-3.6049 -8.5094 -1.8017 0.9630
-1.3754 -9.1385 -1.8017 0.9630
-1.0465 -9.1820 -1.8017 0.9630
-0.0493 -8.5459 -1.8017 0.9657
1.1743 -8.4650 -1.8017 0.9657
1.4774 -8.4174 -1.8017 0.9657
1.7786 -8.3589 -1.8017 0.9657
2.3737 -8.2098 -1.8017 0.9657
2.6669 -8.1193 -1.8017 0.9657
3.5243 -7.7855 -1.8017 0.9657
3.8015 -7.6540 -1.8017 0.9657
4.0738 -7.5126 -1.8017 0.9657
5.1071 -6.8522 -1.8017 0.9657
5.3498 -6.6645 -1.8017 0.9657
5.8141 -6.2635 -1.8017 0.9657
6.2485 -5.8302 -1.8017 0.9657
6.8391 -5.1246 -1.8017 0.9657
7.0186 -4.8758 -1.8017 0.9657
7.3504 -4.3597 -1.8017 0.9657
7.7765 -3.5443 -1.8017 0.9657
7.8987 -3.2628 -1.8017 0.9657
8.2843 -2.0988 -1.8017 0.9657
8.4994 -0.8915 -1.8017 0.9657
8.5260 -0.5858 -1.8017 0.9657
8.5395 0.3341 -1.8017 0.9657
8.5220 0.6405 -1.8017 0.9657
8.4541 1.2502 -1.8017 0.9657
8.4038 1.5529 -1.8017 0.9657
8.3426 1.8536 -1.8017 0.9657
8.2707 2.1518 -1.8017 0.9657
8.1881 2.4473 -1.8017 0.9657
7.8776 3.3134 -1.8017 0.9657
7.7536 3.5941 -1.8017 0.9657
7.6113 3.8658 -1.7997 0.9657
7.4493 4.1264 -1.7953 0.9658
7.0001 4.2128 -1.7224 0.9672
6.5538 4.2720 -1.6493 0.9685
6.2304 4.7312 -1.6493 0.9685
5.8749 5.1660 -1.6493 0.9685
5.4891 5.5742 -1.6493 0.9685
4.0917 4.4650 -1.2768 0.9755
4.8580 6.1320 -1.6493 0.9685
4.6348 6.3024 -1.6493 0.9685
4.4056 6.4647 -1.6493 0.9685
4.1707 6.6187 -1.6493 0.9685
3.4350 7.0287 -1.6493 0.9685
3.1805 7.1475 -1.6493 0.9685
2.9218 7.2570 -1.6493 0.9685
2.6595 7.3573 -1.6493 0.9685
2.3936 7.4480 -1.6493 0.9685
2.1247 7.5291 -1.6493 0.9685
1.8531 7.6005 -1.6493 0.9685
1.3030 7.7139 -1.6493 0.9685
1.0253 7.7557 -1.6493 0.9685
0.7462 7.7875 -1.6493 0.9685
-0.0953 7.8226 -1.6493 0.9685
-1.2139 7.7284 -1.6493 0.9685
-1.4905 7.6799 -1.6493 0.9685
-2.3075 7.4751 -1.6493 0.9685
-2.5744 7.3874 -1.6493 0.9685
-3.8521 6.8091 -1.6493 0.9685
-4.0940 6.6664 -1.6493 0.9685
-4.3307 6.5152 -1.6493 0.9685
-5.2185 5.8283 -1.6493 0.9685
-5.4244 5.6372 -1.6493 0.9685
-6.1471 5.5326 -1.7435 0.9668
-6.9300 5.0011 -1.8017 0.9657
-7.2709 4.4910 -1.8017 0.9657
-7.4274 4.2271 -1.8017 0.9657
-7.8388 3.4041 -1.8017 0.9657
-1.6254 0.5711 -0.3632 0.9930
-1.5992 0.4358 -0.3494 0.9932
-1.5727 0.1365 -0.3328 0.9936
-1.5734 -0.0333 -0.3318 0.9936
-1.5865 -0.3825 -0.3441 0.9934
-1.6154 -0.5146 -0.3574 0.9931
-7.9358 -3.1715 -1.8017 0.9657
-7.6878 -3.7326 -1.8017 0.9657
-7.0744 -4.7945 -1.8017 0.9657
-6.3154 -5.7577 -1.8017 0.9657
-6.1046 -5.9807 -1.8017 0.9657
-5.8860 -6.1959 -1.8017 0.9657
-5.6598 -6.4032 -1.8017 0.9657
-5.4263 -6.6023 -1.8017 0.9657
-5.1858 -6.7928 -1.8017 0.9657
-4.6851 -7.1474 -1.8017 0.9657
-4.4255 -7.3109 -1.8017 0.9657
-4.1602 -7.4651 -1.8017 0.9657
