ply
format ascii 1.0
element vertex 1548
property float32 x
property float32 y
property float32 z
property float32 I
end_header
-7.1024 -31.5841 10.9266 0.8723
-5.9216 -31.5921 10.8488 0.8731
-2.2889 -15.2081 5.1909 0.9371
-4.6673 -40.9514 13.9116 0.8403
-1.7478 -41.9139 13.4508 0.8384
1.2640 -41.9345 13.4518 0.8384
4.2918 -41.9551 13.5226 0.8376
8.7970 -41.3435 13.5530 0.8373
10.3394 -41.2564 13.6374 0.8364
11.9319 -41.2672 13.7738 0.8349
15.0685 -40.8653 13.9653 0.8328
16.7816 -40.9221 14.1816 0.8304
25.2212 -42.7718 15.9210 0.8117
29.9008 -43.2777 16.8663 0.8017
11.4171 11.5942 5.2174 0.9339
10.8350 11.8234 5.1421 0.9349
10.0501 11.7901 4.9674 0.9370
8.7603 11.9123 4.7411 0.9398
7.3234 11.6221 4.4046 0.9439
6.7554 11.6259 4.3113 0.9451
4.8070 11.9392 4.1268 0.9474
3.3721 11.9490 3.9809 0.9492
1.9694 11.6586 3.7911 0.9515
1.1106 11.5901 3.7332 0.9523
0.7112 11.9123 3.8263 0.9511
-2.2539 11.6131 3.7931 0.9515
-2.7077 11.6904 3.8476 0.9508
-49.4944 63.9771 25.9355 0.7119
-45.2869 50.5781 21.7680 0.7519
-44.7291 40.2570 19.2951 0.7766
-49.1283 35.4538 19.4258 0.7753
-54.0317 36.1154 20.8383 0.7611
-62.4432 35.5374 23.0370 0.7395
-62.7091 22.0332 21.3119 0.7564
-63.3476 19.7331 21.2743 0.7568
-64.4346 17.5608 21.4137 0.7554
-30.9250 -32.5532 14.3968 0.8281
-29.3584 -33.2146 14.2138 0.8301
-22.4007 -31.6352 12.4289 0.8497
-22.2364 -33.9227 13.0054 0.8433
-17.6707 -31.7080 11.6389 0.8586
-15.2559 -32.6921 11.5675 0.8594
-14.1149 -33.3185 11.6023 0.8590
-10.0601 -33.3462 11.1680 0.8639
-8.4404 -32.1031 10.6433 0.8698
-5.9216 -31.5921 10.3060 0.8737
-2.3001 -15.2824 4.9553 0.9371
-4.7301 -41.5024 13.3934 0.8391
1.2640 -41.9345 12.7503 0.8391
4.2918 -41.9551 12.8173 0.8384
5.8217 -41.9655 12.8760 0.8377
12.1462 -42.0087 13.2900 0.8329
15.4986 -42.0315 13.6147 0.8292
18.7643 -41.4521 13.8285 0.8268
20.3878 -41.0491 13.9294 0.8256
24.0408 -40.7700 14.3843 0.8205
42.1314 15.9664 13.6929 0.8283
42.3318 17.8052 13.9569 0.8253
11.4171 11.5942 4.9453 0.9342
10.8353 11.8238 4.8741 0.9352
10.1462 11.9028 4.7533 0.9367
6.2102 11.6297 4.0068 0.9464
5.3111 11.9358 3.9704 0.9468
4.8070 11.9392 3.9116 0.9476
3.3721 11.9490 3.7733 0.9494
2.8960 11.8779 3.7156 0.9502
2.4021 11.6556 3.6167 0.9515
1.9694 11.6586 3.5934 0.9518
1.5416 11.6615 3.5749 0.9520
0.7144 11.9671 3.6434 0.9511
-0.1458 11.9730 3.6390 0.9512
-1.0084 11.9789 3.6534 0.9510
-1.8824 11.9848 3.6870 0.9505
-2.2539 11.6131 3.5952 0.9517
-2.7077 11.6904 3.6469 0.9511
-49.4608 68.9097 25.7788 0.7014
-49.4944 63.9771 24.5828 0.7131
-44.7088 43.2426 18.9033 0.7710
-49.1283 35.4538 18.4127 0.7762
-53.0821 35.4808 19.4044 0.7657
-63.4471 39.1890 22.6641 0.7322
-71.1517 33.9843 23.9639 0.7192
-63.3476 19.7331 20.1647 0.7578
-64.4346 17.5608 20.2968 0.7564
-66.0803 15.4841 20.6267 0.7530
-68.6065 13.4982 21.2502 0.7465
-31.5391 -33.1997 13.9169 0.8258
-29.3584 -33.2146 13.4724 0.8308
-23.5742 -35.9635 13.0687 0.8355
-19.1565 -31.6463 11.2426 0.8567
-17.6690 -31.7050 11.0309 0.8592
-14.1149 -33.3185 10.9971 0.8596
-11.1802 -32.7575 10.5193 0.8653
-7.1024 -31.5841 9.8385 0.8734
-5.9216 -31.5921 9.7685 0.8743
-4.7747 -41.8932 12.8144 0.8384
1.2550 -41.6356 11.9692 0.8408
5.7802 -41.6664 12.0873 0.8394
7.3151 -41.6769 12.1587 0.8385
8.9339 -41.9867 12.3348 0.8364
10.5252 -41.9976 12.4410 0.8351
12.1462 -42.0087 12.5654 0.8336
15.4986 -42.0315 12.8725 0.8299
17.2415 -42.0434 13.0573 0.8277
19.0375 -42.0557 13.2650 0.8252
24.4327 -41.4346 13.8218 0.8186
26.1789 -40.9606 13.9683 0.8168
28.2311 -40.8611 14.2710 0.8133
31.3270 -42.0316 15.0631 0.8040
41.4492 15.7079 12.7368 0.8315
41.8407 19.3946 13.2515 0.8254
11.4171 11.5942 4.6757 0.9345
8.7603 11.9123 4.2489 0.9403
8.1209 11.9166 4.1437 0.9417
6.2102 11.6297 3.7883 0.9466
3.8392 11.9458 3.6055 0.9491
3.3721 11.9490 3.5676 0.9496
2.8960 11.8779 3.5130 0.9504
2.4021 11.6556 3.4196 0.9517
1.5416 11.6615 3.3800 0.9522
1.1106 11.5901 3.3456 0.9527
-0.5708 11.8625 3.4126 0.9518
-1.0085 11.9789 3.4542 0.9512
-1.4435 11.9818 3.4678 0.9510
-2.2539 11.6131 3.3992 0.9520
-49.4607 68.9097 24.3734 0.7026
-44.6634 49.8819 19.2393 0.7568
-44.6869 46.4400 18.5189 0.7647
-45.0781 43.5998 18.0204 0.7703
-45.3535 40.8190 17.5331 0.7757
-45.5545 35.4294 16.5827 0.7865
-49.6484 35.8291 17.5932 0.7751
-57.4922 35.5108 19.4173 0.7548
-68.5502 39.0131 22.6641 0.7202
-64.4049 30.7618 20.5090 0.7430
-66.7639 20.7973 20.0935 0.7475
-70.2633 13.8242 20.5769 0.7423
-73.9209 11.8052 21.5100 0.7323
-31.5391 -33.1997 13.1582 0.8265
-29.3584 -33.2146 12.7379 0.8315
-26.2992 -31.9986 11.9016 0.8417
-22.4608 -31.7201 11.1683 0.8506
-19.1449 -31.6271 10.6232 0.8574
-16.3081 -31.9053 10.2960 0.8615
-7.1024 -31.5841 9.3022 0.8740
-1.7520 -42.0144 11.3925 0.8401
-0.2460 -42.6271 11.5488 0.8381
2.8129 -42.5350 11.5488 0.8381
5.8574 -42.2235 11.5488 0.8381
7.3693 -41.9861 11.5488 0.8381
8.9229 -41.9350 11.6154 0.8372
10.4956 -41.8795 11.6969 0.8362
12.0905 -41.8159 11.7928 0.8349
17.2415 -42.0434 12.3110 0.8284
19.0375 -42.0557 12.5068 0.8259
28.5996 -41.3944 13.6309 0.8118
30.7015 -41.1924 13.9186 0.8082
32.9004 -40.9856 14.2388 0.8043
59.8759 -41.5960 19.7519 0.7392
60.9819 -36.1703 19.2088 0.7454
67.2826 -36.7086 20.7648 0.7279
84.0690 -42.0238 25.4631 0.6774
40.8015 15.4624 11.8211 0.8346
40.9634 17.2297 12.0395 0.8318
41.1534 19.0760 12.2889 0.8286
42.4272 25.5340 13.4155 0.8145
42.5713 29.9807 14.1065 0.8059
11.4171 11.5942 4.4084 0.9348
10.9030 11.8977 4.3721 0.9353
9.3445 11.7949 4.0768 0.9395
7.3234 11.6221 3.7216 0.9447
5.8313 11.9322 3.5981 0.9464
5.3111 11.9358 3.5393 0.9473
4.8070 11.9392 3.4869 0.9481
4.3169 11.9426 3.4404 0.9487
3.8392 11.9458 3.3994 0.9493
1.5416 11.6615 3.1868 0.9524
0.7144 11.9671 3.2479 0.9515
0.2840 11.9701 3.2438 0.9516
-1.0085 11.9789 3.2568 0.9514
-1.4435 11.9818 3.2696 0.9512
-1.8824 11.9848 3.2867 0.9510
-2.7077 11.6904 3.2510 0.9515
-11.3240 18.4394 5.8624 0.9142
-49.4608 68.9097 22.9803 0.7036
-49.4944 63.9771 21.9141 0.7152
-45.0297 50.2909 18.2883 0.7560
-45.5545 35.4294 15.6348 0.7873
-54.0317 36.1154 17.6072 0.7639
-57.4922 35.5108 18.3074 0.7558
-62.4559 35.5447 19.4689 0.7424
-68.8208 35.9599 21.0368 0.7248
-66.2215 28.7575 19.5594 0.7414
-64.4346 17.5608 18.0934 0.7582
-74.8774 17.5455 20.8353 0.7271
-76.2025 12.1696 20.9064 0.7263
-61.7502 -48.6637 21.3000 0.7219
-34.5975 -29.3387 12.2896 0.8286
-29.3584 -33.2146 12.0098 0.8322
-26.2958 -31.9944 11.2199 0.8423
-24.3158 -31.8507 10.8562 0.8470
-24.2145 -36.9403 11.9664 0.8327
-19.1689 -31.6669 10.0286 0.8578
-17.6547 -31.6793 9.8254 0.8605
-16.2338 -31.7600 9.6633 0.8626
-14.1149 -33.3185 9.8033 0.8607
-10.6041 -35.1495 9.9466 0.8589
1.2994 -43.1088 10.9818 0.8369
2.8516 -43.1194 11.0035 0.8366
5.9847 -43.1408 11.0902 0.8355
7.5739 -43.1516 11.1557 0.8346
10.6061 -42.3205 11.1094 0.8352
12.4822 -43.1706 11.4429 0.8307
13.8736 -42.2373 11.3203 0.8323
15.5380 -42.1384 11.4360 0.8308
17.2347 -42.0270 11.5663 0.8290
18.9768 -41.9217 11.7173 0.8270
20.7698 -41.8181 11.8892 0.8247
24.8298 -42.1080 12.4473 0.8173
33.4902 -41.7204 13.6226 0.8019
60.9820 -36.1703 18.0538 0.7463
66.2817 -36.1625 19.2259 0.7322
51.7925 15.4802 13.7645 0.8000
45.8593 15.5206 12.3278 0.8189
41.0413 15.5533 11.1757 0.8343
40.3199 16.9590 11.1379 0.8348
40.4938 18.7702 11.3648 0.8317
42.4509 34.7078 13.9623 0.7975
11.4171 11.5942 4.1433 0.9350
10.9030 11.8977 4.1092 0.9356
9.3445 11.7949 3.8317 0.9398
8.7603 11.9123 3.7651 0.9408
8.1209 11.9166 3.6720 0.9422
6.2102 11.6297 3.3570 0.9470
5.3111 11.9358 3.3265 0.9475
4.3169 11.9426 3.2335 0.9489
3.2632 11.5634 3.0594 0.9516
2.8380 11.6399 3.0507 0.9518
1.9686 11.6539 3.0095 0.9524
1.5410 11.6569 2.9940 0.9526
-0.1421 11.6683 2.9713 0.9530
-0.5616 11.6712 2.9753 0.9529
-0.9828 11.6740 2.9831 0.9528
-1.4067 11.6769 2.9948 0.9526
-1.8346 11.6799 3.0105 0.9524
-2.2675 11.6828 3.0303 0.9521
-2.7034 11.6719 3.0507 0.9518
-49.2365 68.5972 21.5006 0.7057
-49.4944 63.9771 20.5965 0.7161
-45.2611 54.3557 18.0107 0.7468
-44.7291 40.2571 15.3231 0.7801
-53.0821 35.4807 16.2577 0.7683
-64.0299 39.5489 19.1633 0.7330
-68.0998 35.5832 19.5648 0.7282
-68.4072 32.6734 19.3035 0.7313
-62.9251 27.3260 17.4683 0.7534
-62.5241 24.5236 17.1014 0.7579
-63.3476 19.7331 16.8948 0.7604
-68.6064 13.4982 17.8043 0.7493
-54.0418 -42.5890 17.5203 0.7528
-34.6365 -29.3718 11.5637 0.8291
-32.6353 -31.9725 11.6333 0.8281
-24.3158 -31.8507 10.2035 0.8476
-22.4454 -31.6983 9.8900 0.8519
-24.4397 -37.2839 11.3515 0.8319
-17.6631 -31.6945 9.2390 0.8609
-16.3081 -31.9053 9.1238 0.8625
-14.1149 -33.3185 9.2138 0.8613
-12.0496 -39.9410 10.6230 0.8418
-8.4290 -32.0595 8.4408 0.8721
-7.1024 -31.5841 8.2431 0.8749
-5.9216 -31.5921 8.1844 0.8758
-4.9584 -43.5053 11.1495 0.8347
-3.3888 -43.5940 10.4271 0.8354
-1.7777 -42.6325 10.1753 0.8391
-0.2517 -43.6124 10.4003 0.8358
1.3149 -43.6231 10.4074 0.8357
2.7728 -41.9283 10.0204 0.8413
4.4120 -43.1300 10.3388 0.8367
6.0330 -43.4892 10.4701 0.8348
7.5902 -43.2447 10.4701 0.8348
17.7491 -43.2814 11.1554 0.8250
23.0882 -42.5774 11.5501 0.8194
26.7694 -41.8844 11.8538 0.8151
28.9059 -41.8377 12.1266 0.8113
31.4158 -42.1507 12.5363 0.8056
33.8493 -42.1678 12.8947 0.8006
59.8784 -38.4865 16.9742 0.7462
61.1466 -36.2680 16.9535 0.7465
79.5420 -36.2528 20.8454 0.6981
78.9254 -29.3330 20.0790 0.7073
84.2668 -27.9186 21.1691 0.6942
42.4024 11.0321 10.4482 0.8351
41.0413 15.5533 10.4662 0.8349
39.4292 18.2767 10.3636 0.8363
42.4272 25.5340 11.8085 0.8158
40.7677 26.5740 11.6048 0.8186
41.2903 31.3549 12.3636 0.8080
41.6373 34.0425 12.8254 0.8016
8.1209 11.9166 3.4389 0.9424
7.3235 11.6221 3.2758 0.9451
6.7554 11.6259 3.2065 0.9462
5.6432 11.5472 3.0649 0.9485
5.1760 11.6321 3.0361 0.9490
4.6847 11.6354 2.9911 0.9497
4.2071 11.6387 2.9512 0.9504
3.7415 11.6419 2.9161 0.9510
2.4011 11.6510 2.8368 0.9523
1.9686 11.6539 2.8185 0.9526
-0.1421 11.6683 2.7827 0.9531
-0.5616 11.6712 2.7864 0.9531
-0.9828 11.6740 2.7937 0.9530
-1.4067 11.6769 2.8047 0.9528
-1.8345 11.6799 2.8194 0.9525
-2.7066 11.6858 2.8605 0.9519
-49.4608 68.9097 20.2275 0.7055
-49.4944 63.9771 19.2890 0.7170
-44.6380 53.6074 16.6352 0.7506
-44.6870 46.4400 15.3689 0.7672
-44.7088 43.2426 14.8326 0.7743
-45.3535 40.8190 14.5507 0.7781
-51.8457 40.3223 15.6626 0.7633
-50.2842 36.2880 14.7875 0.7749
-53.0821 35.4807 15.2257 0.7691
-57.4922 35.5108 16.1144 0.7574
-69.8418 39.7481 19.1633 0.7186
-68.0997 35.5832 18.3228 0.7291
-65.0602 22.8593 16.4446 0.7531
-70.2727 13.8260 17.0790 0.7449
-73.9209 11.8052 17.8511 0.7350
-58.3367 -42.6704 17.2357 0.7429
-53.9690 -42.5317 16.3860 0.7538
-32.6312 -31.9684 10.8935 0.8287
-29.0742 -32.8931 10.4689 0.8348
-26.2889 -31.9860 9.8733 0.8434
-22.3753 -31.5993 9.2333 0.8528
-17.6689 -31.7048 8.6554 0.8614
-16.3081 -31.9053 8.5447 0.8630
-15.2559 -32.6920 8.6031 0.8621
-13.3477 -34.9505 8.9217 0.8574
-13.3255 -39.0429 9.8378 0.8440
-7.1024 -31.5841 7.7199 0.8754
-0.2517 -43.6124 9.7005 0.8363
1.3149 -43.6231 9.7071 0.8362
2.7764 -41.9823 9.3581 0.8416
7.6642 -43.6664 9.8608 0.8339
12.6362 -43.7033 10.1187 0.8299
19.4563 -42.9808 10.4937 0.8242
23.5239 -43.3810 10.9762 0.8169
26.9148 -42.1119 11.1162 0.8148
29.1823 -42.2378 11.4188 0.8103
33.6101 -41.8698 11.9420 0.8025
59.7232 -38.3868 15.7910 0.7476
60.5460 -35.9117 15.6574 0.7494
84.2668 -27.9186 19.7446 0.6951
41.8990 12.5231 9.7266 0.8359
42.0085 14.2174 9.8642 0.8338
41.0417 15.5534 9.7621 0.8354
40.0981 20.3662 10.0031 0.8317
39.6573 25.8502 10.5291 0.8237
40.3293 28.4018 10.9713 0.8170
11.4171 11.5942 3.6192 0.9355
10.9030 11.8977 3.5894 0.9360
10.1462 11.9028 3.4788 0.9379
9.3445 11.7949 3.3470 0.9402
7.3122 11.6042 3.0507 0.9453
6.7527 11.6213 2.9895 0.9464
6.2077 11.6250 2.9312 0.9474
5.6830 11.6286 2.8788 0.9483
5.1760 11.6321 2.8318 0.9492
4.2071 11.6387 2.7526 0.9506
3.7415 11.6419 2.7198 0.9511
3.2863 11.6450 2.6912 0.9516
2.8399 11.6480 2.6667 0.9521
1.9686 11.6539 2.6288 0.9527
1.1173 11.6597 2.6053 0.9531
0.6963 11.6626 2.5986 0.9533
-0.1421 11.6683 2.5955 0.9533
-0.5616 11.6712 2.5989 0.9532
-0.9828 11.6740 2.6057 0.9531
-1.4067 11.6769 2.6160 0.9529
-1.8345 11.6799 2.6297 0.9527
-2.2674 11.6828 2.6470 0.9524
-49.4236 74.3541 19.8582 0.6936
-49.4608 68.9097 18.8664 0.7064
-44.6381 53.6074 15.5159 0.7514
-45.0782 43.5999 13.9488 0.7734
-45.5545 35.4293 12.8359 0.7894
-49.6484 35.8291 13.6181 0.7781
-53.6441 35.8564 14.3516 0.7677
-57.4922 35.5108 15.0301 0.7581
-62.4559 35.5447 15.9837 0.7449
-64.8978 30.9972 15.9967 0.7447
-69.3285 24.3590 16.3443 0.7400
-80.2061 24.9846 18.6851 0.7088
-72.2014 19.6775 16.6448 0.7359
-77.2286 15.1946 17.5066 0.7243
-67.6504 -42.3866 17.7564 0.7210
-62.9150 -42.6392 16.9046 0.7324
-53.4012 -42.0842 15.1226 0.7568
-32.6271 -31.9645 10.1592 0.8293
-31.5391 -33.1997 10.1852 0.8289
-29.9009 -33.8284 10.0421 0.8311
-26.2855 -31.9819 9.2077 0.8440
-24.3158 -31.8507 8.9128 0.8486
-24.6363 -37.5838 9.9953 0.8318
-24.7470 -40.8819 10.6292 0.8222
-23.2761 -41.7663 10.6349 0.8221
-16.3081 -31.9053 7.9697 0.8634
-15.2559 -32.6921 8.0242 0.8626
-14.1149 -33.3185 8.0483 0.8622
-13.8026 -40.4409 9.5044 0.8394
-12.5820 -41.7056 9.6892 0.8365
-7.1024 -31.5841 7.2004 0.8758
-5.9216 -31.5921 7.1491 0.8766
-2.2996 -15.2789 3.4366 0.9386
-4.9673 -43.5832 9.7566 0.8355
-3.3888 -43.5940 9.0286 0.8364
-1.7747 -42.5604 8.7957 0.8403
-0.2517 -43.6124 9.0054 0.8368
7.6642 -43.6664 9.1542 0.8344
10.4600 -41.7376 8.8846 0.8388
20.9139 -42.1084 9.7080 0.8253
25.1254 -42.6094 10.2138 0.8171
26.9153 -42.1126 10.3198 0.8154
30.2044 -43.7171 10.9718 0.8049
59.8783 -38.4865 14.6975 0.7477
66.2125 -36.1248 15.5742 0.7349
46.8612 10.4116 9.9120 0.8220
41.2241 10.7255 8.7955 0.8403
41.3117 12.3476 8.9030 0.8385
41.6258 15.7748 9.1915 0.8338
40.0754 18.5763 9.1207 0.8349
40.1877 26.1959 9.9053 0.8221
40.2170 30.5399 10.4271 0.8136
39.9358 32.6513 10.6514 0.8100
48.0831 45.4439 13.6609 0.7632
11.4171 11.5942 3.3599 0.9357
10.9030 11.8977 3.3322 0.9362
8.5374 11.6092 2.9755 0.9428
7.9143 11.6134 2.9019 0.9442
5.1760 11.6321 2.6289 0.9493
4.6847 11.6354 2.5899 0.9501
4.2071 11.6387 2.5554 0.9507
3.2863 11.6450 2.4984 0.9518
2.8399 11.6480 2.4756 0.9522
2.4011 11.6510 2.4563 0.9526
1.9686 11.6539 2.4404 0.9529
1.5410 11.6569 2.4279 0.9531
0.2768 11.6655 2.4094 0.9535
-0.9828 11.6740 2.4190 0.9533
-2.7066 11.6858 2.4768 0.9522
-49.4607 68.9097 17.5145 0.7072
-49.4944 63.9771 16.7019 0.7187
-45.0069 54.0503 14.5231 0.7503
-48.7551 54.4516 15.0917 0.7419
-44.6870 46.4400 13.3075 0.7686
-45.5544 35.4293 11.9162 0.7900
-53.0821 35.4807 13.1836 0.7705
-62.4559 35.5446 14.8383 0.7456
-68.9119 32.9145 15.7689 0.7320
-70.1748 30.4743 15.7972 0.7316
-62.7091 22.0332 13.7244 0.7623
-63.3476 19.7331 13.7002 0.7626
-66.0803 15.4841 14.0141 0.7579
-73.4960 -42.4538 17.5255 0.7070
-67.5955 -42.3522 16.4707 0.7219
-61.9946 -42.0154 15.4637 0.7365
-34.6733 -29.4030 9.3871 0.8305
-32.6231 -31.9605 9.4301 0.8298
-24.3158 -31.8507 8.2741 0.8490
-23.8607 -33.6970 8.5256 0.8448
-24.6362 -37.5836 9.2791 0.8323
-24.6673 -40.7501 9.8357 0.8232
-15.2559 -32.6921 7.4492 0.8630
-14.0687 -33.2095 7.4472 0.8630
-14.2755 -37.3799 8.2620 0.8492
-10.8127 -35.8410 7.7300 0.8582
-8.4246 -32.0427 6.8411 0.8734
-7.1024 -31.5841 6.6844 0.8761
-2.2995 -15.2783 3.1903 0.9388
-4.9673 -43.5832 9.0575 0.8360
-3.3888 -43.5940 8.3361 0.8369
-0.2517 -43.6124 8.3146 0.8373
1.3149 -43.6231 8.3203 0.8372
2.7765 -41.9829 8.0213 0.8425
4.2913 -41.9503 8.0394 0.8422
8.8754 -41.7118 8.1302 0.8406
10.4589 -41.7331 8.2023 0.8393
12.6362 -43.7033 8.6731 0.8309
19.8041 -43.7492 9.1553 0.8224
20.9270 -42.1346 8.9690 0.8257
25.1209 -42.6017 9.4287 0.8176
26.8189 -41.9620 9.4942 0.8165
33.8506 -42.1694 10.3092 0.8024
59.8276 -41.5624 13.8881 0.7433
66.2817 -36.1625 14.3947 0.7353
75.8869 -37.9338 16.1743 0.7079
40.7442 12.1780 8.1072 0.8410
40.8347 13.8201 8.2187 0.8390
28.7476 10.8944 5.8609 0.8823
40.2979 16.9497 8.3345 0.8369
40.2750 22.3097 8.7775 0.8290
40.1080 24.1382 8.9244 0.8264
40.1697 26.1842 9.1415 0.8226
40.2170 30.5399 9.6273 0.8141
40.1829 32.8535 9.8952 0.8095
40.2000 35.3495 10.2055 0.8041
40.1571 37.9529 10.5339 0.7985
10.6256 11.5949 2.9983 0.9380
8.5374 11.6092 2.7473 0.9430
7.9143 11.6134 2.6793 0.9444
6.2078 11.6250 2.5125 0.9478
4.6847 11.6354 2.3913 0.9502
2.7912 11.4483 2.2465 0.9531
1.5146 11.4570 2.2032 0.9540
1.0981 11.4599 2.1948 0.9542
0.6843 11.4627 2.1892 0.9543
0.2721 11.4655 2.1865 0.9544
-0.5520 11.4711 2.1894 0.9543
-0.9659 11.4739 2.1952 0.9542
-1.3826 11.4766 2.2038 0.9540
-2.6601 11.4849 2.2475 0.9531
-49.4608 68.9097 16.1711 0.7079
-49.4944 63.9771 15.4208 0.7194
-44.6635 49.8819 12.7647 0.7614
-44.6870 46.4400 12.2868 0.7692
-45.3981 38.0000 11.2868 0.7858
-46.7329 36.3458 11.2868 0.7858
-49.1282 35.4537 11.5503 0.7814
-64.4049 30.7618 13.6072 0.7478
-62.9251 27.3260 13.0787 0.7563
-64.1327 22.5334 12.9593 0.7582
-67.1993 18.3143 13.2785 0.7531
-69.8059 13.7342 13.5633 0.7485
-73.9209 11.8052 14.2713 0.7373
-66.8285 -41.8717 15.0348 0.7253
-34.6869 -29.4145 8.6705 0.8309
-32.6190 -31.9565 8.7057 0.8303
-32.4624 -36.7263 9.3448 0.8191
-16.3081 -31.9053 6.8311 0.8642
-15.2559 -32.6921 6.8778 0.8634
-14.0687 -33.2095 6.8759 0.8634
-14.3514 -37.5785 7.6688 0.8489
-14.1637 -41.4989 8.3597 0.8365
-10.8136 -35.8439 7.1377 0.8586
-7.1024 -31.5841 6.1717 0.8765
-2.2994 -15.2777 2.9455 0.9390
-4.9673 -43.5832 8.3627 0.8364
2.7764 -41.9819 7.3586 0.8429
7.5957 -43.2756 7.6846 0.8366
8.8754 -41.7119 7.4587 0.8410
10.4614 -41.7431 7.5266 0.8397
15.3949 -41.7504 7.7827 0.8347
17.8643 -43.5621 8.2347 0.8260
20.9352 -42.1513 8.2314 0.8260
25.1164 -42.5941 8.6484 0.8181
26.8406 -41.9959 8.7171 0.8168
30.2873 -43.8372 9.3190 0.8054
33.7074 -41.9910 9.4177 0.8036
61.9796 -50.0149 13.9294 0.7237
62.0038 -46.4607 13.5511 0.7301
59.7485 -38.4030 12.4224 0.7494
40.1952 12.0139 7.3374 0.8434
40.2771 13.6314 7.4369 0.8414
40.3693 15.2986 7.5506 0.8392
40.0741 16.8556 7.6037 0.8382
40.0858 18.5811 7.7275 0.8358
40.0981 20.3662 7.8659 0.8331
40.1697 26.1842 8.3864 0.8231
40.2020 28.3122 8.5999 0.8190
40.2170 30.5399 8.8321 0.8146
40.1829 32.8535 9.0780 0.8100
40.2128 38.0055 9.6773 0.7988
10.6256 11.5949 2.7507 0.9381
9.8880 11.6000 2.6659 0.9400
9.1937 11.6047 2.5894 0.9417
7.9143 11.6134 2.4580 0.9445
6.1013 11.4258 2.2654 0.9488
5.5855 11.4293 2.2249 0.9497
5.0872 11.4327 2.1886 0.9505
4.6043 11.4360 2.1562 0.9512
4.1350 11.4392 2.1274 0.9518
3.2530 11.5271 2.0948 0.9525
2.3900 11.5969 2.0709 0.9531
1.9635 11.6241 2.0618 0.9533
0.6963 11.6626 2.0434 0.9537
-0.1421 11.6683 2.0409 0.9537
-0.9828 11.6741 2.0490 0.9535
-3.1208 11.5681 2.0956 0.9525
-49.4236 74.3541 15.6153 0.6959
-49.4608 68.9097 14.8354 0.7086
-44.6381 53.6074 12.2008 0.7533
-45.0781 43.5998 10.9685 0.7752
-70.2011 54.5979 15.5543 0.6969
-72.6174 52.4048 15.6626 0.6951
-68.8207 35.9599 13.5808 0.7296
-65.9563 28.6423 12.5765 0.7468
-67.5007 26.4755 12.6814 0.7450
-69.3102 24.3525 12.8488 0.7421
-81.4414 25.3694 14.9191 0.7072
-79.2859 18.5785 14.2426 0.7184
-79.3373 15.6095 14.1420 0.7201
-52.5834 -41.4397 11.7094 0.7620
-34.4390 -31.3976 8.1508 0.8276
-32.6150 -31.9526 7.9856 0.8308
-26.2754 -31.9696 7.2376 0.8453
-23.8607 -33.6970 7.2215 0.8456
-14.1149 -33.3185 6.3287 0.8633
-14.1637 -41.4989 7.6692 0.8369
-8.4217 -32.0317 5.7927 0.8742
-7.1024 -31.5841 5.6620 0.8768
-5.9216 -31.5921 5.6217 0.8776
-2.2993 -15.2771 2.7021 0.9392
-4.9242 -43.2055 7.6055 0.8381
-3.3618 -43.2465 6.9072 0.8389
2.7762 -41.9788 6.6992 0.8433
4.2977 -42.0132 6.7249 0.8428
6.0082 -43.3104 6.9626 0.8377
8.8757 -41.7129 6.7909 0.8414
10.4611 -41.7417 6.8524 0.8400
12.4277 -42.9821 7.1247 0.8342
13.7160 -41.7576 6.9988 0.8369
19.6377 -43.3815 7.5827 0.8246
20.9302 -42.1411 7.4925 0.8265
23.3499 -43.0601 7.8000 0.8200
25.1119 -42.5866 7.8725 0.8185
26.8203 -41.9641 7.9304 0.8173
32.6827 -43.8506 8.7087 0.8013
33.7046 -41.9875 8.5736 0.8041
59.7806 -51.8918 12.6053 0.7257
61.9079 -46.3888 12.3185 0.7310
59.8761 -41.5961 11.6094 0.7443
75.2703 -37.6255 13.3998 0.7112
40.1912 10.4568 6.6130 0.8452
40.0906 11.9826 6.6629 0.8441
40.1128 15.2014 6.8307 0.8405
40.1877 26.1959 7.6388 0.8234
40.2020 28.3122 7.8298 0.8194
40.2000 35.3495 8.5242 0.8051
11.4126 11.5896 2.5901 0.9362
9.1937 11.6047 2.3575 0.9418
8.3910 11.4102 2.2553 0.9442
6.1618 11.5389 2.0830 0.9484
4.6847 11.6354 1.9973 0.9505
4.2071 11.6387 1.9707 0.9511
3.2863 11.6450 1.9267 0.9522
2.8399 11.6480 1.9091 0.9526
0.2768 11.6655 1.8581 0.9538
-0.5616 11.6712 1.8606 0.9538
-1.4067 11.6770 1.8728 0.9535
-2.7066 11.6858 1.9101 0.9526
-49.4236 74.3541 14.2169 0.6965
-45.0562 46.8237 10.3473 0.7686
-45.0781 43.5998 9.9863 0.7757
-44.7291 40.2570 9.5824 0.7837
-45.5544 35.4293 9.1895 0.7916
-49.1282 35.4537 9.6473 0.7824
-68.0997 35.5831 12.2350 0.7326
-69.3971 33.1462 12.2463 0.7323
-70.6674 30.6882 12.2681 0.7319
-62.7091 22.0332 10.5840 0.7640
-66.0802 15.4841 10.8074 0.7596
-68.6065 13.4982 11.1341 0.7534
-22.2676 2.7406 3.5726 0.9131
-21.9431 -8.7693 3.7628 0.9087
-71.7317 -41.4347 13.1910 0.7150
-21.9515 -14.8771 4.2226 0.8982
-54.3421 -42.8256 11.0174 0.7556
-32.2497 -33.9478 7.4561 0.8272
-23.8606 -33.6970 6.5748 0.8460
-24.7791 -37.8016 7.1974 0.8327
-24.8007 -40.9705 7.6262 0.8237
-23.2761 -41.7663 7.6138 0.8239
-16.3081 -31.9053 5.7057 0.8649
-15.2559 -32.6921 5.7447 0.8641
-14.1450 -41.4441 6.9732 0.8375
-12.8304 -42.5291 7.0736 0.8353
-7.1024 -31.5841 5.1549 0.8771
-4.9277 -43.2358 6.9293 0.8384
-3.3885 -43.5910 6.2807 0.8380
-1.7705 -42.4595 6.1046 0.8422
1.3033 -43.2387 6.2141 0.8396
4.2986 -42.0214 6.0679 0.8431
6.0561 -43.6554 6.3312 0.8369
8.8797 -41.7319 6.1290 0.8416
10.4555 -41.7195 6.1783 0.8405
12.4876 -43.1894 6.4583 0.8339
15.4107 -41.7933 6.3987 0.8353
17.6953 -43.1500 6.6995 0.8282
20.9043 -42.0889 6.7507 0.8270
26.7862 -41.9107 7.1451 0.8179
30.0292 -43.4636 7.5888 0.8078
32.3903 -43.4582 7.7860 0.8033
61.8325 -71.6028 13.5901 0.6823
61.8662 -66.6475 13.0629 0.6925
59.7511 -59.9046 12.1541 0.7104
61.9080 -57.7633 12.1630 0.7102
61.9609 -49.9999 11.4372 0.7249
61.9851 -46.4467 11.1266 0.7312
59.8257 -41.5611 10.4642 0.7450
59.8972 -38.4986 10.2282 0.7500
40.1013 13.5719 6.0815 0.8428
40.1129 15.2014 6.1621 0.8408
40.0858 18.5811 6.3469 0.8365
40.0981 20.3662 6.4605 0.8338
38.8778 21.5358 6.3844 0.8356
40.1950 24.1906 6.7390 0.8273
40.1821 26.1923 6.8902 0.8238
40.1113 28.2483 7.0475 0.8202
40.2170 30.5399 7.2541 0.8154
10.4434 11.3962 2.2205 0.9394
9.7185 11.4011 2.1520 0.9413
8.5117 11.5742 2.0638 0.9436
7.9143 11.6134 2.0188 0.9448
7.3206 11.6175 1.9725 0.9460
6.7527 11.6213 1.9308 0.9471
4.6847 11.6354 1.8018 0.9506
4.2071 11.6387 1.7778 0.9512
3.7415 11.6419 1.7566 0.9518
3.2863 11.6450 1.7381 0.9523
2.8399 11.6480 1.7222 0.9527
2.4011 11.6510 1.7088 0.9531
1.5410 11.6568 1.6891 0.9536
1.1173 11.6597 1.6826 0.9538
-0.5616 11.6712 1.6785 0.9539
-0.9828 11.6741 1.6829 0.9538
-1.8345 11.6799 1.6984 0.9533
-2.2674 11.6828 1.7095 0.9530
-49.4236 74.3541 12.8253 0.6971
-49.4608 68.9097 12.1848 0.7098
-44.6635 49.8819 9.6181 0.7629
-44.7088 43.2426 8.9350 0.7777
-44.7291 40.2571 8.6445 0.7841
-49.1281 35.4537 8.7030 0.7828
-53.0820 35.4807 9.1718 0.7726
-62.7091 22.0332 9.5480 0.7645
-63.8030 19.8749 9.5997 0.7633
-68.6065 13.4982 10.0442 0.7539
-22.2676 2.7406 3.2229 0.9133
-66.6906 -41.7853 11.3052 0.7276
-21.9515 -14.8771 3.8093 0.8984
-54.8715 -43.2429 10.0358 0.7540
-32.6071 -31.9448 6.5572 0.8315
-32.3604 -34.0642 6.7494 0.8271
-24.7791 -37.8016 6.4929 0.8331
-14.1149 -33.3185 5.1980 0.8640
-14.9907 -39.2525 6.0358 0.8438
-12.8258 -42.5138 6.3790 0.8357
-5.9216 -31.5921 4.6172 0.8782
-3.4524 -44.4126 5.7078 0.8356
-0.2517 -43.6124 5.5882 0.8387
1.3059 -43.3242 5.5537 0.8396
2.7757 -41.9712 5.3896 0.8440
6.1702 -44.4782 5.7536 0.8344
7.7884 -44.3735 5.7725 0.8339
8.8816 -41.7409 5.4680 0.8419
10.4531 -41.7100 5.5096 0.8408
12.8735 -44.5240 5.9386 0.8295
15.4117 -41.7961 5.7079 0.8356
23.4923 -43.3226 6.3146 0.8198
32.6827 -43.8506 7.0075 0.8021
33.6884 -41.9674 6.8955 0.8049
61.8574 -71.6317 12.1268 0.6827
61.9871 -66.7776 11.6745 0.6925
59.7511 -59.9046 10.8411 0.7109
59.8056 -51.9135 10.1472 0.7266
61.9609 -49.9998 10.2016 0.7254
61.9851 -46.4467 9.9245 0.7317
59.8761 -41.5960 9.3416 0.7453
66.3161 -36.1813 9.6795 0.7374
75.2695 -37.6251 10.7822 0.7122
46.5174 1.8202 5.9649 0.8288
40.1912 10.4568 5.3212 0.8458
40.2844 12.0405 5.3873 0.8440
40.1129 15.2014 5.4964 0.8411
40.2678 16.9371 5.5974 0.8385
40.0858 18.5811 5.6612 0.8368
40.0981 20.3662 5.7625 0.8341
40.1947 24.1904 6.0110 0.8276
40.2171 30.5399 6.4704 0.8158
40.1830 32.8535 6.6505 0.8111
11.3534 11.5295 2.0733 0.9368
5.1760 11.6321 1.6313 0.9500
4.6847 11.6354 1.6072 0.9507
4.2071 11.6387 1.5857 0.9513
2.8399 11.6480 1.5362 0.9528
1.5410 11.6568 1.5066 0.9537
1.1173 11.6597 1.5008 0.9539
0.6962 11.6626 1.4970 0.9540
-1.4067 11.6770 1.5070 0.9537
-1.8345 11.6799 1.5149 0.9534
-2.2674 11.6828 1.5249 0.9531
-2.7066 11.6858 1.5370 0.9528
-22.5910 39.9328 5.8786 0.8311
-44.6381 53.6074 8.9383 0.7548
-44.7088 43.2426 7.9697 0.7782
-45.1180 37.7655 7.5389 0.7888
-53.0820 35.4806 8.1809 0.7730
-68.0996 35.5831 9.8450 0.7336
-64.4050 30.7619 9.1453 0.7499
-65.2979 28.3564 9.1216 0.7504
-66.8866 26.2346 9.2059 0.7485
-68.9663 24.2317 9.3663 0.7447
-85.4252 26.6104 11.4644 0.6971
-72.2014 19.6775 9.5886 0.7395
-83.8269 19.6426 11.0318 0.7067
-69.6909 11.1296 9.0427 0.7523
-54.8715 -43.2429 8.9516 0.7545
-26.2655 -31.9575 5.3003 0.8464
-24.3158 -31.8507 5.1344 0.8508
-24.8007 -40.9705 6.1365 0.8244
-15.2559 -32.6921 4.6225 0.8646
-15.1274 -39.6105 5.4329 0.8428
-12.8212 -42.4985 5.6877 0.8361
-7.1024 -31.5841 4.1480 0.8776
-2.2991 -15.2755 1.9793 0.9396
-0.2517 -43.6124 4.9140 0.8390
1.3108 -43.4878 4.9021 0.8393
4.3025 -42.0592 4.7637 0.8435
7.8087 -44.4894 5.0894 0.8338
10.4607 -41.7402 4.8484 0.8410
12.8735 -44.5240 5.2221 0.8298
15.4223 -41.8246 5.0227 0.8357
19.8041 -43.7492 5.4109 0.8242
20.8803 -42.0407 5.2889 0.8278
24.1929 -44.6147 5.7184 0.8152
25.0987 -42.5640 5.5675 0.8196
26.7850 -41.9089 5.6040 0.8186
30.8559 -44.6601 6.1162 0.8037
32.6827 -43.8506 6.1621 0.8024
61.8476 -66.6274 10.2429 0.6935
61.9080 -57.7633 9.5402 0.7112
59.8056 -51.9135 8.9230 0.7270
61.9609 -49.9999 8.9709 0.7258
61.9851 -46.4467 8.7272 0.7321
59.8761 -41.5961 8.2146 0.7457
59.8972 -38.4986 8.0226 0.7508
75.2695 -37.6251 9.4814 0.7127
79.5836 -36.2718 9.8543 0.7032
46.8602 10.4114 5.4086 0.8243
40.0923 13.5689 4.7690 0.8433
40.1129 15.2014 4.8333 0.8414
40.2979 16.9498 4.9258 0.8386
40.0754 18.5763 4.9769 0.8371
38.8597 21.5258 5.0053 0.8363
40.2020 28.3122 5.5402 0.8204
8.5374 11.6092 1.6237 0.9436
6.7527 11.6213 1.5144 0.9473
6.2078 11.6250 1.4849 0.9483
5.6830 11.6286 1.4583 0.9492
4.6846 11.6354 1.4133 0.9508
3.7415 11.6419 1.3778 0.9520
3.2863 11.6450 1.3633 0.9525
2.4012 11.6510 1.3403 0.9532
1.5410 11.6568 1.3248 0.9538
1.1173 11.6597 1.3198 0.9539
0.2768 11.6655 1.3148 0.9541
-0.1421 11.6683 1.3148 0.9541
-1.8345 11.6799 1.3321 0.9535
-2.2674 11.6828 1.3409 0.9532
-2.7066 11.6858 1.3515 0.9529
-49.4236 74.3541 10.0596 0.6981
-44.6381 53.6074 7.8599 0.7552
-48.7551 54.4515 8.2352 0.7451
-53.6441 35.8563 7.2701 0.7713
-62.4557 35.5446 8.0969 0.7488
-69.8136 33.3452 8.7173 0.7324
-71.0459 30.8526 8.7272 0.7321
-64.4346 17.5608 7.5248 0.7643
-68.6065 13.4982 7.8783 0.7547
-69.6495 11.1231 7.9471 0.7528
-77.6536 -41.2111 9.9053 0.7020
-66.9028 -41.9182 8.8955 0.7277
-61.2748 -41.5275 8.3402 0.7423
-56.8686 -41.5966 7.9387 0.7531
-53.9534 -42.5194 7.7400 0.7584
-32.5992 -31.9371 5.1422 0.8322
-34.6907 -39.2473 5.9020 0.8099
-23.8607 -33.6970 4.6522 0.8469
-23.2761 -41.7663 5.3874 0.8249
-16.3081 -31.9053 4.0373 0.8657
-15.2559 -32.6921 4.0648 0.8648
-15.1292 -39.6153 4.7780 0.8431
-14.1450 -41.4440 4.9341 0.8384
-12.8166 -42.4833 4.9998 0.8364
-8.4160 -32.0099 3.7292 0.8753
-7.1024 -31.5841 3.6475 0.8778
-5.9216 -31.5921 3.6216 0.8786
-2.2990 -15.2747 1.7404 0.9397
-3.4524 -44.4126 4.3329 0.8361
-1.7690 -42.4230 4.1300 0.8431
-0.2517 -43.6124 4.2422 0.8392
1.3098 -43.4544 4.2286 0.8397
4.3017 -42.0513 4.1116 0.8438
6.0581 -43.6703 4.2884 0.8376
7.6451 -43.5570 4.3015 0.8372
12.8735 -44.5240 4.5081 0.8301
13.9664 -42.5199 4.3532 0.8354
25.0942 -42.5566 4.8054 0.8199
33.7087 -41.9926 5.2377 0.8054
61.9871 -66.7776 8.8624 0.6934
59.7511 -59.9046 8.2298 0.7117
61.9080 -57.7633 8.2358 0.7116
61.9609 -49.9999 7.7443 0.7262
59.8761 -41.5961 7.0915 0.7460
75.2695 -37.6251 8.1850 0.7131
79.5836 -36.2718 8.5070 0.7036
46.8605 10.4115 4.6692 0.8245
40.1016 13.5720 4.1179 0.8435
40.1129 15.2014 4.1725 0.8416
40.2979 16.9498 4.2523 0.8389
38.8778 21.5358 4.3230 0.8364
40.2171 30.5399 4.9119 0.8163
10.6256 11.5949 1.5298 0.9388
9.1937 11.6047 1.4401 0.9422
8.5374 11.6092 1.4017 0.9437
7.9143 11.6134 1.3670 0.9451
7.3206 11.6175 1.3356 0.9463
6.7676 11.6469 1.3102 0.9473
6.2796 11.7596 1.2967 0.9478
5.7487 11.7632 1.2735 0.9487
5.2359 11.7667 1.2527 0.9496
4.7389 11.7701 1.2342 0.9503
4.2558 11.7733 1.2177 0.9509
3.7950 11.8084 1.2064 0.9514
3.3333 11.8116 1.1938 0.9519
2.8806 11.8147 1.1828 0.9523
1.9686 11.6539 1.1496 0.9536
1.5631 11.8236 1.1601 0.9532
0.7062 11.8295 1.1527 0.9535
-0.5697 11.8382 1.1528 0.9535
-1.1300 13.4229 1.3102 0.9473
-1.6111 13.3737 1.3102 0.9473
-2.0902 13.3072 1.3102 0.9473
-2.5665 13.2236 1.3102 0.9473
-3.0395 13.1229 1.3102 0.9473
-20.8902 59.9476 6.1749 0.7748
-23.3328 59.9404 6.2564 0.7722
-51.9944 84.6643 9.6641 0.6708
-43.8534 65.9741 7.7055 0.7273
-43.8809 61.1357 7.3197 0.7390
-43.3897 56.0861 6.8973 0.7520
-45.2611 54.3557 6.8800 0.7526
-49.8670 55.6933 7.2714 0.7405
-44.6870 46.4400 6.2688 0.7718
-44.7088 43.2426 6.0500 0.7788
-44.7291 40.2571 5.8533 0.7852
-44.7482 37.4560 5.6761 0.7909
-45.5544 35.4293 5.6133 0.7930
-53.0820 35.4806 6.2104 0.7737
-83.6522 51.6689 9.5636 0.6736
-62.9251 27.3260 6.6728 0.7590
-62.5241 24.5236 6.5326 0.7634
-63.3476 19.7331 6.4537 0.7659
-64.4346 17.5608 6.4960 0.7646
-69.7142 11.1334 6.8669 0.7530
-89.6096 -35.8115 9.3864 0.6785
-66.8925 -41.9118 7.6781 0.7282
-61.2868 -41.5356 7.2013 0.7426
-54.1305 -42.6589 6.7036 0.7581
-50.4199 -42.7561 6.4302 0.7667
-34.4390 -31.3976 4.5330 0.8292
-32.3604 -34.0642 4.5701 0.8279
-34.9326 -39.5209 5.1305 0.8090
-24.3158 -31.8507 3.8977 0.8513
-23.8606 -33.6970 4.0161 0.8471
-25.9480 -39.5848 4.6038 0.8268
-24.8007 -40.9705 4.6584 0.8249
-16.3081 -31.9053 3.4853 0.8659
-14.1637 -41.4989 4.2651 0.8384
-12.8121 -42.4683 4.3147 0.8367
-8.4146 -32.0046 3.2188 0.8755
-7.1024 -31.5841 3.1488 0.8780
-2.2988 -15.2736 1.5024 0.9398
-0.2517 -43.6124 3.5723 0.8394
4.2896 -41.9332 3.4526 0.8444
7.8087 -44.4894 3.6997 0.8342
8.8730 -41.7003 3.4921 0.8427
10.4681 -41.7696 3.5271 0.8413
12.8735 -44.5240 3.7962 0.8303
13.7159 -41.7573 3.6000 0.8383
18.2738 -44.5608 3.9449 0.8242
19.4570 -42.9822 3.8646 0.8275
26.7617 -41.8724 4.0703 0.8192
32.6827 -43.8506 4.4795 0.8029
33.6547 -41.9254 4.4036 0.8059
61.8574 -71.6317 7.7521 0.6840
61.9871 -66.7776 7.4629 0.6937
59.7511 -59.9045 6.9302 0.7121
61.9080 -57.7633 6.9352 0.7119
61.9609 -49.9998 6.5214 0.7265
59.7775 -44.7925 6.1183 0.7410
59.8511 -41.5787 5.9691 0.7464
60.9387 -36.1447 5.8033 0.7525
79.5836 -36.2718 7.1637 0.7040
72.1795 -7.5709 5.9445 0.7473
46.8608 10.4116 3.9319 0.8248
40.0001 11.9556 3.4195 0.8457
40.1015 13.5720 3.4676 0.8437
40.1128 15.2014 3.5136 0.8418
40.0738 16.8555 3.5609 0.8399
40.1877 26.1960 3.9293 0.8249
40.2020 28.3122 4.0275 0.8209
11.4126 11.5896 1.3323 0.9368
9.2797 11.7131 1.2240 0.9418
8.6405 11.7494 1.1946 0.9431
8.0099 11.7537 1.1650 0.9445
6.2966 11.7914 1.0949 0.9478
4.7517 11.8019 1.0421 0.9502
4.2673 11.8052 1.0282 0.9509
3.7950 11.8084 1.0159 0.9514
3.3333 11.8116 1.0052 0.9519
1.9686 11.6539 0.9681 0.9537
1.5631 11.8236 0.9769 0.9533
1.1333 11.8266 0.9731 0.9534
0.7062 11.8295 0.9707 0.9536
-0.1442 11.8353 0.9695 0.9536
-1.1713 13.9135 1.1437 0.9455
-1.6766 13.9169 1.1481 0.9453
-2.6879 13.8494 1.1555 0.9450
-43.7852 77.3966 7.2835 0.6999
-43.6919 60.8724 6.1373 0.7403
-44.6635 49.8819 5.4842 0.7644
-44.6870 46.4400 5.2788 0.7721
-49.1281 35.4536 4.9624 0.7842
-53.0820 35.4806 5.2297 0.7740
-57.4920 35.5107 5.5349 0.7625
-65.7107 25.7734 5.7814 0.7533
-77.6529 -41.2107 7.2006 0.7027
-56.7540 -41.5128 5.7594 0.7541
-55.1436 -43.4573 5.7507 0.7544
-50.4199 -42.7561 5.4148 0.7670
-32.5913 -31.9294 3.7370 0.8327
-32.3604 -34.0642 3.8484 0.8281
-34.9349 -39.5236 4.3206 0.8092
-24.3158 -31.8507 3.2822 0.8514
-23.8606 -33.6970 3.3819 0.8473
-25.9480 -39.5848 3.8768 0.8270
-23.2761 -41.7663 3.9164 0.8254
-16.3081 -31.9053 2.9349 0.8661
-14.1149 -33.3185 2.9638 0.8648
-14.1637 -41.4989 3.5916 0.8386
-8.4132 -31.9992 2.7101 0.8756
-7.1024 -31.5841 2.6516 0.8782
-5.9216 -31.5921 2.6327 0.8790
-5.0605 -44.4016 3.6604 0.8358
-3.4524 -44.4126 2.9662 0.8365
1.3397 -44.4453 2.9608 0.8367
2.7765 -41.9833 2.8016 0.8448
7.8087 -44.4894 3.0077 0.8344
10.4566 -41.7239 2.8642 0.8416
13.7161 -41.7579 2.9267 0.8384
15.3835 -41.7194 2.9608 0.8367
18.2738 -44.5608 3.2070 0.8244
24.1929 -44.6147 3.3794 0.8159
25.0855 -42.5417 3.2885 0.8204
32.6827 -43.8506 3.6416 0.8031
61.8138 -71.5812 6.2976 0.6844
61.8662 -66.6475 6.0551 0.6945
59.7261 -59.8796 5.6315 0.7125
59.7274 -48.1975 5.1104 0.7352
59.8974 -44.8823 4.9839 0.7408
59.8749 -41.5953 4.8545 0.7466
72.1618 -36.0717 5.3719 0.7237
79.5836 -36.2718 5.8237 0.7043
87.5070 -36.1481 6.3044 0.6842
46.8612 10.4116 3.1964 0.8249
40.0909 11.9827 2.7862 0.8456
40.1129 15.2014 2.8564 0.8420
40.0981 20.3662 2.9947 0.8350
40.1817 22.2581 3.0586 0.8318
40.2953 40.9201 3.8241 0.7944
40.3166 43.9946 3.9735 0.7872
9.8880 11.6000 1.0149 0.9407
9.3048 11.7449 0.9977 0.9417
8.0099 11.7537 0.9471 0.9446
7.4090 11.7578 0.9254 0.9458
6.8163 11.7308 0.9034 0.9471
5.7643 11.7950 0.8742 0.9487
4.7517 11.8019 0.8472 0.9503
4.2673 11.8052 0.8359 0.9509
3.7950 11.8084 0.8259 0.9515
3.3333 11.8116 0.8172 0.9520
2.8806 11.8147 0.8097 0.9524
2.4355 11.8177 0.8034 0.9528
0.2808 11.8324 0.7881 0.9537
-0.1442 11.8353 0.7881 0.9537
-2.1865 13.9204 0.9383 0.9451
-9.5531 18.3978 1.3804 0.9203
-43.8634 71.4244 5.5812 0.7146
-43.8991 66.0429 5.2805 0.7277
-44.6870 46.4400 4.2914 0.7723
-45.0782 43.5999 4.1759 0.7777
-70.2010 54.5979 5.9218 0.7001
-49.6482 35.8290 4.0769 0.7824
-53.5031 35.7622 4.2852 0.7726
-70.3518 33.6022 5.1914 0.7316
-71.5541 31.0732 5.1944 0.7314
-80.2061 24.9846 5.5938 0.7141
-72.2014 19.6775 4.9830 0.7408
-61.2812 -41.5318 4.9294 0.7432
-56.7310 -41.4959 4.6802 0.7544
-55.4669 -43.7121 4.7024 0.7534
-50.4199 -42.7561 4.4019 0.7672
-34.4390 -31.3976 3.1032 0.8296
-32.5874 -31.9255 3.0375 0.8329
-32.3604 -34.0642 3.1286 0.8283
-26.2524 -31.9416 2.7530 0.8473
-23.8607 -33.6970 2.7493 0.8474
-25.9480 -39.5848 3.1516 0.8272
-16.3081 -31.9053 2.3859 0.8662
-15.2559 -32.6921 2.4022 0.8653
-14.1149 -33.3185 2.4094 0.8650
-7.1839 -23.8126 1.6562 0.9051
-6.2348 -23.7138 1.6327 0.9064
-7.1024 -31.5841 2.1556 0.8783
-5.9216 -31.5921 2.1403 0.8791
-2.2984 -15.2713 1.0283 0.9400
-5.0605 -44.4016 2.9757 0.8360
-3.4524 -44.4126 2.2851 0.8366
-1.7675 -42.3869 2.1762 0.8437
2.8856 -43.6338 2.2432 0.8393
6.1702 -44.4782 2.3034 0.8354
9.1841 -43.1626 2.2637 0.8380
10.5990 -42.2922 2.2366 0.8398
12.8735 -44.5240 2.3775 0.8306
15.6055 -42.3216 2.3138 0.8347
18.2738 -44.5608 2.4706 0.8246
19.4355 -42.9349 2.4173 0.8280
21.0727 -42.4279 2.4301 0.8272
25.0811 -42.5343 2.5329 0.8206
10.4008 -15.0539 0.9386 0.9293
13.3428 -15.4511 1.0472 0.9215
59.7209 -64.3363 4.5029 0.7036
59.7511 -59.9046 4.3402 0.7126
59.7792 -55.7770 4.1940 0.7207
59.3248 -51.4962 4.0297 0.7300
59.7274 -48.1975 3.9370 0.7354
59.8749 -41.5953 3.7398 0.7468
59.8960 -38.4979 3.6524 0.7519
79.5810 -36.2706 4.4862 0.7045
40.3123 13.6433 2.1831 0.8433
40.1129 15.2015 2.2004 0.8421
40.1994 16.9083 2.2371 0.8397
40.0981 20.3662 2.3070 0.8352
40.8375 24.5772 2.4449 0.8262
40.1878 26.1960 2.4608 0.8252
40.2174 30.5402 2.5904 0.8169
40.1833 32.8537 2.6625 0.8123
40.2003 35.3497 2.7460 0.8070
40.3008 38.0887 2.8445 0.8008
40.3166 43.9947 3.0611 0.7874
9.8880 11.6000 0.7819 0.9408
9.3048 11.7449 0.7686 0.9418
8.6405 11.7494 0.7481 0.9433
5.7487 11.7632 0.6716 0.9489
5.2359 11.7667 0.6606 0.9497
4.2557 11.7733 0.6422 0.9511
2.4289 11.7858 0.6173 0.9529
1.9686 11.6539 0.6063 0.9538
1.5588 11.7917 0.6101 0.9535
1.1302 11.7946 0.6078 0.9537
-0.1438 11.8033 0.6055 0.9538
-0.5681 11.8062 0.6063 0.9538
-2.6879 13.8494 0.7237 0.9451
-9.5521 18.3958 1.0634 0.9203
-43.8726 77.5511 4.5706 0.6999
-44.0447 66.2619 4.0814 0.7271
-43.7563 60.9621 3.8493 0.7404
-43.6220 56.3864 3.6569 0.7516
-45.0782 43.5999 3.2170 0.7779
-45.3729 37.9789 3.0352 0.7890
-53.6440 35.8563 3.3099 0.7723
-83.6522 51.6689 5.0436 0.6745
-83.6798 47.6236 4.9390 0.6800
-75.3802 36.0040 4.2852 0.7156
-63.3476 19.7331 3.4035 0.7666
-64.4346 17.5608 3.4258 0.7653
-66.0802 15.4841 3.4815 0.7620
-68.6065 13.4982 3.5867 0.7557
-73.9209 11.8052 3.8399 0.7409
-89.5407 -35.7840 4.9463 0.6796
-77.6496 -41.2090 4.5093 0.7032
-74.6236 -43.1052 4.4207 0.7081
-61.3160 -41.5555 3.7996 0.7433
-56.8853 -41.6089 3.6153 0.7541
-55.4669 -43.7121 3.6226 0.7536
-34.4390 -31.3977 2.3906 0.8297
-24.3518 -23.8572 1.7487 0.8724
-32.3604 -34.0642 2.4102 0.8285
-34.9349 -39.5236 2.7059 0.8095
-24.3158 -31.8507 2.0555 0.8517
-23.8606 -33.6970 2.1180 0.8476
-24.8007 -40.9705 2.4567 0.8255
-23.2761 -41.7663 2.4527 0.8257
-14.8287 -31.7767 1.7988 0.8690
-13.7169 -32.3792 1.8038 0.8686
-15.1458 -39.6585 2.1776 0.8436
-14.1637 -41.4989 2.2493 0.8389
-6.2509 -23.7752 1.2610 0.9062
-5.0605 -44.4016 2.2924 0.8361
-3.0820 -39.6475 1.4328 0.8529
-0.2293 -39.7339 1.4316 0.8530
1.1963 -39.6907 1.4307 0.8530
2.6296 -39.7619 1.4358 0.8526
5.5121 -39.7343 1.4453 0.8517
8.4732 -39.8219 1.4669 0.8496
9.9833 -39.8354 1.4797 0.8484
11.5226 -39.8519 1.4947 0.8470
14.7064 -39.8834 1.5316 0.8435
16.3629 -39.9012 1.5538 0.8415
19.2717 -42.5729 1.6838 0.8294
20.9884 -42.2583 1.7000 0.8279
24.9723 -42.3497 1.7714 0.8214
26.9204 -42.1207 1.8011 0.8187
12.1967 -16.3644 0.7353 0.9216
59.7209 -64.3363 3.1628 0.7037
59.7511 -59.9046 3.0485 0.7127
59.7792 -55.7770 2.9458 0.7209
59.6512 -48.1360 2.7617 0.7358
59.8974 -44.8823 2.6968 0.7411
59.8749 -41.5953 2.6268 0.7469
54.6045 -32.3877 2.2875 0.7756
71.6339 -35.8078 2.8855 0.7258
45.2608 10.0561 1.6705 0.8306
40.3123 13.6433 1.5334 0.8434
40.2444 18.6546 1.5982 0.8373
40.1815 22.2579 1.6550 0.8321
40.7949 24.5516 1.7155 0.8265
40.2023 28.3124 1.7717 0.8213
40.1832 32.8537 1.8701 0.8124
9.2797 11.7131 0.5384 0.9419
7.9882 11.7219 0.5111 0.9448
6.8163 11.7308 0.4888 0.9471
6.2796 11.7596 0.4803 0.9480
5.2500 11.7985 0.4653 0.9496
4.7517 11.8019 0.4584 0.9504
4.2673 11.8052 0.4523 0.9510
1.5631 11.8236 0.4297 0.9534
0.2808 11.8324 0.4264 0.9537
-0.1442 11.8353 0.4265 0.9537
-0.5697 11.8382 0.4270 0.9537
-1.6676 13.8425 0.5024 0.9457
-2.1748 13.8459 0.5050 0.9454
-44.0162 77.8049 3.2208 0.6992
-43.7943 65.8852 2.8504 0.7286
-43.7563 60.9621 2.7037 0.7406
-44.7088 43.2426 2.2411 0.7796
-44.7482 37.4560 2.1026 0.7917
-45.5543 35.4293 2.0793 0.7937
-49.1281 35.4536 2.1829 0.7847
-53.0819 35.4806 2.3005 0.7745
-62.4556 35.5445 2.5892 0.7500
-68.0994 35.5830 2.7684 0.7353
-64.4049 30.7618 2.5716 0.7515
-64.5607 22.6838 2.4655 0.7604
-72.2014 19.6775 2.6963 0.7412
-79.7459 12.7354 2.9097 0.7238
-89.5558 -35.7900 3.4749 0.6798
-74.6236 -43.1052 3.1050 0.7083
-61.2380 -41.5025 2.6654 0.7437
-32.9516 -24.1025 1.4710 0.8492
-55.4669 -43.7121 2.5445 0.7538
-50.4199 -42.7561 2.3819 0.7675
-34.4390 -31.3977 1.6791 0.8298
-24.4557 -23.9590 1.2335 0.8719
-32.3604 -34.0642 1.6929 0.8286
-26.1246 -31.7861 1.4824 0.8482
-23.8606 -33.6970 1.4877 0.8477
-15.4445 -23.5614 1.0151 0.8934
-23.2761 -41.7663 1.7228 0.8258
-13.6567 -32.2371 1.2614 0.8692
-15.1458 -39.6585 1.5296 0.8437
-6.2580 -23.8023 0.8867 0.9062
-7.0812 -31.4898 1.1629 0.8788
-2.2981 -15.2690 0.5563 0.9401
-5.0605 -44.4016 1.6102 0.8362
-3.0820 -39.6475 0.8264 0.8529
-1.6619 -39.8528 0.8289 0.8525
-0.2517 -43.6124 0.9063 0.8399
2.6384 -39.8963 0.8309 0.8522
2.0529 -20.0683 0.4192 0.9225
5.5121 -39.7343 0.8336 0.8517
7.8087 -44.4894 0.9387 0.8347
10.0128 -39.9531 0.8559 0.8481
13.0763 -39.8101 0.8708 0.8457
14.7645 -40.0408 0.8868 0.8430
16.4112 -40.0190 0.8988 0.8411
19.9281 -40.1236 0.9310 0.8359
21.7288 -40.0708 0.9472 0.8333
24.8297 -42.1079 1.0158 0.8224
9.9460 -15.5618 0.3838 0.9288
12.1967 -16.3644 0.4241 0.9216
13.1594 -16.3933 0.4368 0.9193
59.7511 -59.9045 1.7582 0.7128
59.7792 -55.7770 1.6990 0.7210
59.3625 -51.5289 1.6335 0.7302
59.6061 -48.0996 1.5917 0.7361
59.9935 -44.9543 1.5579 0.7409
59.8749 -41.5953 1.5150 0.7470
59.8960 -38.4979 1.4796 0.7521
79.5810 -36.2706 1.8174 0.7048
87.5070 -36.1481 1.9675 0.6847
57.6684 -14.6099 1.2362 0.7882
54.1764 10.0110 1.1449 0.8022
45.2608 10.0561 0.9635 0.8307
40.1924 10.4571 0.8630 0.8469
40.0909 11.9827 0.8695 0.8459
40.1018 13.5721 0.8798 0.8442
40.7949 24.5516 0.9894 0.8266
40.2174 30.5402 1.0494 0.8171
40.1832 32.8537 1.0786 0.8125
9.3048 11.7449 0.3114 0.9418
8.6405 11.7494 0.3031 0.9433
8.0099 11.7537 0.2956 0.9447
6.8163 11.7308 0.2819 0.9472
6.2966 11.7914 0.2778 0.9479
5.7643 11.7950 0.2728 0.9488
4.7517 11.8019 0.2644 0.9504
4.2673 11.8052 0.2609 0.9510
3.7950 11.8084 0.2577 0.9516
2.8728 11.7828 0.2520 0.9526
1.1333 11.8266 0.2469 0.9536
0.7062 11.8295 0.2463 0.9537
-0.1442 11.8353 0.2460 0.9537
-0.5697 11.8382 0.2463 0.9537
-1.1678 13.8710 0.2893 0.9458
-2.1798 13.8779 0.2919 0.9453
-9.5499 18.3916 0.4307 0.9204
-44.0331 71.7006 1.7485 0.7142
-44.6381 53.6074 1.4496 0.7565
-44.7482 37.4561 1.2127 0.7918
-53.0819 35.4806 1.3268 0.7746
-57.4919 35.5107 1.4042 0.7631
-68.0994 35.5830 1.5967 0.7354
-22.0381 9.5703 0.4993 0.9083
-72.3131 28.3631 1.6142 0.7329
-80.2061 24.9846 1.7457 0.7146
-85.7896 -17.4509 1.8193 0.7045
-62.5651 -39.2005 1.5343 0.7442
-46.5962 -39.5136 1.2696 0.7832
-31.9963 -36.1989 1.0040 0.8242
-23.7404 -33.5272 0.8537 0.8484
-25.9480 -39.5848 0.9836 0.8275
-24.8007 -40.9705 0.9952 0.8256
-14.6707 -31.4381 0.7209 0.8704
-13.6567 -32.2371 0.7275 0.8693
-15.1458 -39.6585 0.8822 0.8438
-14.1166 -41.3609 0.9082 0.8396
-12.6222 -41.8389 0.9081 0.8396
-8.2771 -31.4816 0.6764 0.8779
-7.0812 -31.4898 0.6707 0.8789
-5.9040 -31.4978 0.6659 0.8797
-2.2979 -15.2679 0.3209 0.9401
-5.0605 -44.4016 0.9287 0.8363
2.0700 -20.2360 0.1127 0.9219
6.1597 -44.4024 0.2484 0.8358
7.8087 -44.4894 0.2503 0.8347
9.1841 -43.1626 0.2445 0.8382
10.5250 -41.9968 0.2399 0.8410
12.8735 -44.5240 0.2568 0.8308
15.4982 -42.0307 0.2482 0.8359
18.2738 -44.5608 0.2669 0.8248
19.2192 -42.4570 0.2582 0.8299
24.1929 -44.6147 0.2812 0.8163
12.1967 -16.3644 0.1131 0.9216
13.1594 -16.3933 0.1165 0.9194
59.7319 -69.1702 0.5064 0.6938
59.7209 -64.3363 0.4864 0.7039
59.7792 -55.7770 0.4530 0.7211
59.1649 -51.3574 0.4341 0.7310
59.6512 -48.1360 0.4247 0.7359
59.8960 -38.4979 0.3945 0.7522
61.0135 -36.1890 0.3930 0.7529
66.3160 -36.1812 0.4186 0.7392
26.1661 -10.8089 0.1569 0.8929
37.9981 0.1218 0.2105 0.8590
52.4383 9.6898 0.2954 0.8079
40.0909 11.9827 0.2318 0.8459
40.1018 13.5721 0.2346 0.8442
40.0981 20.3662 0.2492 0.8354
40.1815 22.2579 0.2545 0.8322
40.1878 26.1960 0.2658 0.8254
40.2023 28.3124 0.2724 0.8214
40.3005 38.0885 0.3072 0.8011
23.9586 26.1443 0.1965 0.8678
8.0099 11.7537 0.0788 0.9447
7.4090 11.7578 0.0770 0.9459
6.8163 11.7308 0.0752 0.9472
6.2966 11.7914 0.0741 0.9479
5.7643 11.7950 0.0727 0.9488
5.2500 11.7985 0.0716 0.9497
4.2673 11.8052 0.0696 0.9510
3.7950 11.8084 0.0687 0.9516
1.5631 11.8236 0.0661 0.9534
1.1333 11.8266 0.0658 0.9536
0.7062 11.8295 0.0657 0.9537
-44.7781 50.0099 0.3719 0.7645
-45.0987 40.5897 0.3362 0.7845
-71.8423 55.8743 0.5043 0.6949
-83.0297 36.0567 0.5016 0.6962
-72.3131 28.3630 0.4304 0.7329
-84.0705 16.5407 0.4747 0.7098
-84.8181 -17.2533 0.4796 0.7074
-90.6207 -36.2157 0.5407 0.6768
-73.9758 -39.2593 0.4640 0.7153
-68.0723 -39.3209 0.4356 0.7302
-62.5651 -39.2005 0.4091 0.7443
-42.6801 -31.2184 0.2930 0.8094
-50.0950 -39.4787 0.3534 0.7748
-46.5962 -39.5136 0.3385 0.7832
-34.1301 -31.1161 0.2559 0.8313
-31.7775 -31.1321 0.2465 0.8370
-29.5891 -31.1470 0.2380 0.8421
-27.5432 -31.1610 0.2304 0.8467
-23.8087 -31.1865 0.2174 0.8548
-17.4043 -31.2301 0.1981 0.8667
-15.9680 -31.2399 0.1944 0.8691
-13.2422 -31.2585 0.1881 0.8730
-11.9411 -31.2674 0.1854 0.8747
-9.4381 -31.2845 0.1811 0.8775
-6.3393 -24.1114 0.1381 0.9051
-5.9040 -31.4978 0.1776 0.8797
-2.2978 -15.2668 0.0855 0.9401
-5.0605 -44.4016 0.2476 0.8363
1.8345 -27.7398 -0.2696 0.8948
2.0611 -20.1481 -0.1964 0.9222
10.3806 -31.6032 -0.3225 0.8754
45.1668 -83.2930 -0.9188 0.6845
41.0877 -69.6793 -0.7844 0.7236
9.9460 -15.5619 -0.1791 0.9288
11.3176 -16.3808 -0.1931 0.9234
12.1967 -16.3644 -0.1979 0.9216
13.1594 -16.3933 -0.2038 0.9193
27.4845 -31.8274 -0.4078 0.8452
9.9209 -9.9464 -0.1362 0.9454
39.5882 -31.9460 -0.4933 0.8159
37.4292 -20.4209 -0.4134 0.8432
40.9171 -20.4534 -0.4436 0.8328
24.7616 -10.2287 -0.2598 0.8984
25.7661 -9.5761 -0.2665 0.8959
28.7807 -9.5354 -0.2940 0.8858
48.6876 -6.8815 -0.4768 0.8214
38.0021 0.1218 -0.3685 0.8590
52.4383 9.6898 -0.5171 0.8079
44.2325 9.8276 -0.4394 0.8342
40.1924 10.4571 -0.4027 0.8469
40.0909 11.9827 -0.4057 0.8459
40.2932 13.6369 -0.4125 0.8435
40.0742 16.8556 -0.4216 0.8404
40.1818 22.2581 -0.4454 0.8321
39.5419 23.7975 -0.4475 0.8314
38.7411 25.2530 -0.4484 0.8311
40.3942 28.4476 -0.4791 0.8207
26.4359 20.0748 -0.3219 0.8757
40.1833 32.8537 -0.5033 0.8125
40.2003 35.3497 -0.5191 0.8072
9.8880 11.6000 -0.1478 0.9408
9.3048 11.7449 -0.1453 0.9418
6.8163 11.7307 -0.1316 0.9472
5.7643 11.7950 -0.1273 0.9488
5.2500 11.7985 -0.1252 0.9497
4.2673 11.8052 -0.1217 0.9510
3.7950 11.8084 -0.1203 0.9516
1.9686 11.6539 -0.1146 0.9538
1.5631 11.8236 -0.1156 0.9534
1.1333 11.8266 -0.1152 0.9536
0.7062 11.8295 -0.1149 0.9537
0.2808 11.8324 -0.1148 0.9538
-0.1442 11.8353 -0.1148 0.9538
-0.5697 11.8382 -0.1149 0.9537
-2.1798 13.8779 -0.1362 0.9454
-18.5162 79.9426 -0.7957 0.7202
-25.2919 53.3040 -0.5721 0.7898
-9.5478 18.3875 -0.2008 0.9205
-44.0359 71.7053 -0.8159 0.7142
-43.8582 65.9813 -0.7682 0.7284
-25.5989 33.0895 -0.4057 0.8459
-29.5293 32.9795 -0.4292 0.8377
-46.4896 48.3134 -0.6501 0.7648
-46.5140 44.9886 -0.6275 0.7719
-45.1156 40.6049 -0.5886 0.7844
-60.1003 50.3064 -0.7600 0.7309
-53.6439 35.8562 -0.6257 0.7725
-62.7734 24.6213 -0.6538 0.7636
-62.7824 22.0590 -0.6453 0.7663
-66.0802 15.4841 -0.6581 0.7622
-94.4995 -12.2459 -0.9240 0.6831
-84.8138 -17.2524 -0.8396 0.7074
-62.2779 -19.8387 -0.6338 0.7699
-49.4312 -19.7546 -0.5162 0.8082
-44.7481 -19.7743 -0.4744 0.8223
-42.6411 -24.6309 -0.4775 0.8212
-42.6299 -26.7099 -0.4878 0.8177
-42.6267 -28.8892 -0.4993 0.8138
-32.7190 -23.9324 -0.3931 0.8503
-32.7317 -25.7950 -0.4041 0.8464
-25.6216 -31.1741 -0.3913 0.8509
-23.8087 -31.1865 -0.3805 0.8547
-22.0912 -31.1982 -0.3707 0.8582
-15.4007 -23.4945 -0.2724 0.8937
-14.5617 -26.1293 -0.2901 0.8872
-14.5780 -28.5205 -0.3106 0.8797
-13.2422 -31.2585 -0.3292 0.8730
-11.9411 -31.2674 -0.3245 0.8747
-7.1050 -23.5511 -0.2385 0.9063
-2.2976 -15.2657 -0.1497 0.9401
-3.0090 -72.1590 -1.8011 0.7490
2.1761 -72.1961 -1.8013 0.7490
1.6029 -24.2376 -0.6058 0.9074
2.7877 -20.0952 -0.5059 0.9220
3.5284 -20.1026 -0.5090 0.9216
4.2790 -20.1100 -0.5127 0.9210
5.8021 -20.0671 -0.5209 0.9198
8.2621 -20.1473 -0.5430 0.9166
9.1240 -20.1558 -0.5518 0.9153
10.9383 -20.1716 -0.5722 0.9123
11.3176 -16.3808 -0.4965 0.9234
13.1594 -16.3933 -0.5242 0.9193
9.4656 -10.9613 -0.3612 0.9437
32.0454 -20.5970 -0.9500 0.8586
34.5829 -20.5123 -1.0027 0.8514
23.9343 -9.8870 -0.6458 0.9016
28.8684 -9.5645 -0.7584 0.8854
63.4844 -18.5323 -1.6493 0.7675
46.7325 -10.0691 -1.1922 0.8259
47.4144 -6.7016 -1.1942 0.8256
72.0752 -4.9524 -1.8017 0.7490
38.9187 -1.2731 -0.9711 0.8557
38.0186 0.1218 -0.9481 0.8589
72.0420 5.4142 -1.8017 0.7490
47.5523 8.7870 -1.2060 0.8241
44.2325 9.8276 -1.1300 0.8342
40.1924 10.4571 -1.0357 0.8469
37.5636 11.2273 -0.9777 0.8548
40.2932 13.6369 -1.0608 0.8435
31.6137 13.2970 -0.8553 0.8718
31.5539 14.6263 -0.8673 0.8701
31.5720 19.0009 -0.9189 0.8629
25.9900 21.2494 -0.8372 0.8743
22.9060 23.2612 -0.8141 0.8775
22.2227 24.2500 -0.8203 0.8767
9.3048 11.7449 -0.3737 0.9418
7.4090 11.7578 -0.3466 0.9459
6.2966 11.7914 -0.3334 0.9479
5.7643 11.7950 -0.3274 0.9488
5.2500 11.7985 -0.3220 0.9496
