ply
format ascii 1.0
element vertex 1574
property float32 x
property float32 y
property float32 z
property float32 I
end_header
-31.3407 8.5415 -1.8017 0.8780
-32.0773 5.1228 -1.8017 0.8780
-32.2405 3.9680 -1.8017 0.8780
-32.4421 1.6446 -1.8017 0.8780
-32.4803 0.4790 -1.8017 0.8780
-32.4765 -0.6872 -1.8017 0.8780
-32.4309 -1.8525 -1.8017 0.8780
-32.3435 -3.0155 -1.8017 0.8780
-32.0438 -5.3282 -1.8017 0.8780
-29.7120 -13.1298 -1.8017 0.8780
-27.7170 -14.7095 -1.7404 0.8819
-25.1985 -15.7882 -1.6493 0.8877
-22.4235 -15.1970 -1.5024 0.8972
-24.0008 -17.5554 -1.6493 0.8877
-23.3552 -18.4056 -1.6493 0.8877
-18.3351 -24.0168 -1.6759 0.8860
-17.4683 -24.6696 -1.6766 0.8859
-15.4007 -23.4945 -1.5581 0.8936
-14.5617 -26.1293 -1.6591 0.8871
-7.1050 -23.5511 -1.3644 0.9062
-6.1936 -23.5573 -1.3510 0.9070
-5.9071 -26.2686 -1.4933 0.8977
-5.6006 -29.8793 -1.6861 0.8853
-3.4458 -30.2338 -1.6877 0.8852
-1.8492 -23.7881 -1.6884 0.9088
0.7197 -23.8765 -1.6903 0.9087
2.0492 -20.0321 -1.4249 0.9224
4.3856 -20.6109 -1.4911 0.9190
5.0767 -20.2570 -1.4778 0.9197
5.8021 -20.0671 -1.4782 0.9196
6.6510 -20.2487 -1.5082 0.9181
11.8387 -20.0769 -1.6493 0.9108
13.2486 -19.1757 -1.6493 0.9108
7.8705 -10.5599 -0.9320 0.9486
8.3038 -9.6159 -0.8990 0.9503
9.6125 -9.6372 -0.9632 0.9469
10.3446 -9.6520 -1.0012 0.9448
8.5052 -7.3829 -0.7970 0.9558
8.5252 -6.8794 -0.7752 0.9570
8.8017 -6.1145 -0.7584 0.9579
9.6447 -6.1991 -0.8113 0.9551
22.3510 -12.1944 -1.8017 0.9029
22.7743 -11.3842 -1.8017 0.9029
23.1682 -10.5594 -1.8017 0.9029
23.5324 -9.7209 -1.8017 0.9029
23.8661 -8.8700 -1.8017 0.9029
24.1691 -8.0076 -1.8017 0.9029
24.4410 -7.1348 -1.8017 0.9029
25.2105 -3.5633 -1.8017 0.9029
25.3222 -2.6560 -1.8017 0.9029
25.1872 3.7248 -1.8017 0.9029
25.0372 4.6265 -1.8017 0.9029
24.8550 5.5223 -1.8017 0.9029
24.3948 7.2913 -1.8017 0.9029
24.1173 8.1623 -1.8017 0.9029
23.8088 9.0227 -1.8017 0.9029
23.4696 9.8716 -1.8017 0.9029
23.1001 10.7077 -1.8017 0.9029
21.8151 13.1290 -1.8017 0.9029
21.3298 13.9036 -1.8017 0.9029
17.5029 15.3910 -1.6493 0.9108
16.9392 16.0094 -1.6493 0.9108
9.8880 11.6000 -1.0786 0.9407
9.3048 11.7449 -1.0603 0.9417
8.6405 11.7494 -1.0320 0.9432
8.0099 11.7537 -1.0065 0.9446
7.4090 11.7578 -0.9834 0.9458
6.7527 11.6213 -0.9511 0.9475
4.6846 11.6354 -0.8876 0.9509
4.2071 11.6387 -0.8757 0.9516
3.2863 11.6450 -0.8562 0.9526
1.9686 11.6539 -0.8363 0.9537
1.1173 11.6597 -0.8288 0.9541
0.2768 11.6655 -0.8257 0.9543
-0.5616 11.6712 -0.8268 0.9542
-1.1678 13.8710 -0.9850 0.9457
-1.6715 13.8744 -0.9889 0.9455
-5.2592 22.7063 -1.6493 0.9108
-9.2290 21.4023 -1.6493 0.9108
-10.9146 23.0030 -1.8017 0.9029
-13.3242 21.6964 -1.8017 0.9029
-14.8465 20.6845 -1.8017 0.9029
-18.9249 17.0328 -1.8017 0.9029
-19.5241 16.3425 -1.8017 0.9029
-20.3775 14.7056 -1.7782 0.9041
-20.4135 11.6177 -1.6620 0.9101
-21.1287 10.0918 -1.6569 0.9104
-21.4774 9.3268 -1.6569 0.9104
-24.5651 6.6949 -1.8017 0.9029
-24.9822 4.9152 -1.8017 0.9029
-25.4554 -0.5386 -1.8017 0.9029
-24.9501 -5.0752 -1.8017 0.9029
-24.7519 -5.9676 -1.8017 0.9029
-24.5217 -6.8522 -1.8017 0.9029
-23.6430 -9.4487 -1.8017 0.9029
-22.9041 -11.1206 -1.8017 0.9029
-21.5759 -13.5184 -1.8017 0.9029
-21.0707 -14.2802 -1.8012 0.9030
-20.1044 -14.7054 -1.7626 0.9049
-18.6787 -14.7202 -1.6829 0.9090
-16.6490 -16.3109 -1.6493 0.9108
-15.4359 -17.4633 -1.6493 0.9108
-14.7990 -18.0062 -1.6493 0.9108
-14.1432 -18.5258 -1.6493 0.9108
-13.4690 -19.0216 -1.6493 0.9108
-12.7776 -19.4928 -1.6493 0.9108
-12.0696 -19.9389 -1.6493 0.9108
-11.3461 -20.3593 -1.6493 0.9108
-10.6079 -20.7534 -1.6493 0.9108
-7.6474 -22.4134 -1.6758 0.9094
-6.8549 -22.7539 -1.6818 0.9091
-6.0555 -23.0318 -1.6852 0.9089
-1.4847 -19.0993 -1.6493 0.9260
-0.7981 -19.1403 -1.6493 0.9260
1.9495 -19.0575 -1.6493 0.9260
2.6323 -18.9752 -1.6493 0.9260
9.1319 -16.8403 -1.6493 0.9260
9.7305 -16.5017 -1.6493 0.9260
10.8894 -15.7610 -1.6493 0.9260
7.9114 -9.8556 -1.0881 0.9505
8.8644 -9.5495 -1.1218 0.9490
9.6066 -9.6313 -1.1711 0.9469
7.6849 -6.6708 -0.8761 0.9600
8.2906 -6.2123 -0.8919 0.9593
9.5186 -6.1180 -0.9742 0.9556
10.3205 -6.1214 -1.0331 0.9530
18.7187 -9.3570 -1.8017 0.9194
19.3418 -7.9899 -1.8017 0.9194
19.6162 -7.2904 -1.8017 0.9194
20.0887 -5.8643 -1.8017 0.9194
20.7212 -2.9287 -1.8017 0.9194
20.8130 -2.1830 -1.8017 0.9194
20.9159 -0.6842 -1.8017 0.9194
20.9270 0.0671 -1.8017 0.9194
20.9111 0.8182 -1.8017 0.9194
20.7020 3.0615 -1.8017 0.9194
20.4290 4.5389 -1.8017 0.9194
20.0507 5.9929 -1.8017 0.9194
19.8226 6.7088 -1.8017 0.9194
19.2902 8.1137 -1.8017 0.9194
17.0801 8.6751 -1.6493 0.9260
16.7577 9.2827 -1.6493 0.9260
16.0485 10.4611 -1.6493 0.9260
15.6627 11.0304 -1.6493 0.9260
15.2566 11.5855 -1.6493 0.9260
14.3861 12.6503 -1.6493 0.9260
13.4414 13.6498 -1.6493 0.9260
12.9428 14.1235 -1.6493 0.9260
9.8880 11.6000 -1.3123 0.9406
8.6405 11.7494 -1.2556 0.9431
7.4090 11.7578 -1.1965 0.9457
6.7527 11.6213 -1.1572 0.9475
3.7415 11.6419 -1.0528 0.9521
1.9686 11.6539 -1.0175 0.9537
1.5410 11.6568 -1.0123 0.9539
0.6962 11.6626 -1.0059 0.9542
-0.1421 11.6683 -1.0046 0.9542
-4.3227 18.6629 -1.6493 0.9260
-5.6505 18.3046 -1.6493 0.9260
-6.3039 18.0900 -1.6493 0.9260
-6.9492 17.8521 -1.6493 0.9260
-7.5856 17.5911 -1.6493 0.9260
-8.2121 17.3075 -1.6493 0.9260
-8.8281 17.0015 -1.6493 0.9260
-10.9515 17.8328 -1.8017 0.9194
-12.8051 16.5521 -1.8017 0.9194
-14.5103 15.0796 -1.8017 0.9194
-15.0423 14.5490 -1.8017 0.9194
-15.5549 13.9997 -1.8017 0.9194
-16.0474 13.4323 -1.8017 0.9194
-17.3984 11.6293 -1.8017 0.9194
-17.8046 10.9973 -1.8017 0.9194
-18.5478 9.6915 -1.8017 0.9194
-19.1953 8.3358 -1.8017 0.9194
-19.4821 7.6414 -1.8017 0.9194
-19.9802 6.2239 -1.8017 0.9194
-20.3752 4.7744 -1.8017 0.9194
-20.7704 2.5563 -1.8017 0.9194
-20.8488 1.8091 -1.8017 0.9194
-20.9003 1.0595 -1.8017 0.9194
-20.8930 -1.1935 -1.8017 0.9194
-20.7536 -2.6894 -1.8017 0.9194
-20.3442 -4.9049 -1.8017 0.9194
-20.1550 -5.6320 -1.8017 0.9194
-19.6990 -7.0635 -1.8017 0.9194
-19.4328 -7.7661 -1.8017 0.9194
-19.1414 -8.4587 -1.8017 0.9194
-18.4852 -9.8102 -1.8017 0.9194
-17.7337 -11.1111 -1.8017 0.9194
-17.3235 -11.7406 -1.8017 0.9194
-16.8909 -12.3549 -1.8017 0.9194
-16.4365 -12.9532 -1.8017 0.9194
-14.8999 -14.5973 -1.7958 0.9197
-13.0098 -14.7186 -1.6912 0.9242
-12.1637 -14.7997 -1.6493 0.9260
-11.6246 -15.2268 -1.6493 0.9260
-8.7189 -17.0578 -1.6493 0.9260
-8.1010 -17.3598 -1.6493 0.9260
-6.8346 -17.8963 -1.6493 0.9260
-5.5331 -18.3405 -1.6493 0.9260
-4.8711 -18.5273 -1.6493 0.9260
-4.2029 -18.6902 -1.6493 0.9260
-3.5293 -18.8290 -1.6493 0.9260
-2.2840 -15.1752 -1.3212 0.9402
-2.1693 -19.0337 -1.6493 0.9260
-0.6772 -16.2406 -1.6493 0.9367
1.6542 -16.1704 -1.6493 0.9367
2.8101 -16.0100 -1.6493 0.9367
5.0725 -15.4430 -1.6493 0.9367
5.6236 -15.2510 -1.6493 0.9367
6.1674 -15.0393 -1.6493 0.9367
7.9806 -14.7172 -1.6987 0.9349
8.6746 -14.7109 -1.7328 0.9336
8.8644 -9.5495 -1.3220 0.9490
7.1799 -7.1983 -1.0316 0.9599
15.5877 -8.5045 -1.8017 0.9311
15.8829 -7.9394 -1.8017 0.9311
16.4116 -6.7794 -1.8017 0.9311
16.6444 -6.1860 -1.8017 0.9311
17.0453 -4.9759 -1.8017 0.9311
17.3584 -3.7401 -1.8017 0.9311
17.5820 -2.4851 -1.8017 0.9311
17.7150 -1.2172 -1.8017 0.9311
17.7473 -0.5805 -1.8017 0.9311
17.7432 0.6943 -1.8017 0.9311
17.4612 3.2266 -1.8017 0.9311
17.3341 3.8513 -1.8017 0.9311
17.1847 4.4710 -1.8017 0.9311
17.0131 5.0850 -1.8017 0.9311
16.8196 5.6924 -1.8017 0.9311
16.6044 6.2925 -1.8017 0.9311
14.9833 6.3022 -1.6493 0.9367
14.4925 7.3609 -1.6493 0.9367
14.2190 7.8764 -1.6493 0.9367
13.9271 8.3817 -1.6493 0.9367
13.6172 8.8763 -1.6493 0.9367
13.2898 9.3593 -1.6493 0.9367
11.8135 11.1651 -1.6493 0.9367
10.6256 11.5949 -1.5958 0.9387
9.8880 11.6000 -1.5466 0.9406
9.2797 11.7131 -1.5162 0.9417
8.6171 11.7176 -1.4758 0.9432
6.2078 11.6250 -1.3372 0.9484
4.6846 11.6354 -1.2727 0.9508
4.2071 11.6387 -1.2557 0.9515
3.7415 11.6419 -1.2407 0.9520
3.2863 11.6450 -1.2277 0.9525
2.4012 11.6510 -1.2070 0.9533
1.9686 11.6539 -1.1992 0.9536
1.5410 11.6568 -1.1930 0.9538
0.6962 11.6626 -1.1854 0.9541
0.2768 11.6655 -1.1840 0.9542
-0.1421 11.6683 -1.1840 0.9542
-0.5616 11.6712 -1.1856 0.9541
-1.1678 13.8710 -1.4124 0.9456
-1.6715 13.8744 -1.4179 0.9454
-2.1798 13.8779 -1.4254 0.9451
-2.6942 13.8814 -1.4348 0.9447
-3.6678 15.8355 -1.6493 0.9367
-4.2339 15.6937 -1.6493 0.9367
-6.4364 14.9262 -1.6493 0.9367
-6.9680 14.6855 -1.6493 0.9367
-7.4907 14.4259 -1.6493 0.9367
-8.0037 14.1477 -1.6493 0.9367
-9.4783 13.2053 -1.6493 0.9367
-10.8652 14.0446 -1.8017 0.9311
-11.8449 13.2288 -1.8017 0.9311
-12.3121 12.7951 -1.8017 0.9311
-14.3989 10.3911 -1.8017 0.9311
-14.7626 9.8675 -1.8017 0.9311
-15.4325 8.7829 -1.8017 0.9311
-16.2873 7.0730 -1.8017 0.9311
-16.5307 6.4838 -1.8017 0.9311
-17.4227 3.4279 -1.8017 0.9311
-17.6238 2.1690 -1.8017 0.9311
-17.7528 -0.3756 -1.8017 0.9311
-17.7279 -1.0127 -1.8017 0.9311
-17.6801 -1.6484 -1.8017 0.9311
-17.6095 -2.2820 -1.8017 0.9311
-17.4004 -3.5395 -1.8017 0.9311
-17.1016 -4.7788 -1.8017 0.9311
-16.4888 -6.5896 -1.8017 0.9311
-16.2416 -7.1772 -1.8017 0.9311
-15.6848 -8.3240 -1.8017 0.9311
-15.0472 -9.4279 -1.8017 0.9311
-13.9464 -10.9908 -1.8017 0.9311
-12.6841 -12.4264 -1.8017 0.9311
-12.2298 -12.8738 -1.8017 0.9311
-11.2746 -13.7180 -1.8017 0.9311
-9.6369 -14.7015 -1.7836 0.9318
-6.8749 -14.7323 -1.6496 0.9367
-6.3406 -14.9671 -1.6493 0.9367
-4.6948 -15.5620 -1.6493 0.9367
-4.1332 -15.7205 -1.6493 0.9367
-3.5662 -15.8587 -1.6493 0.9367
-2.2825 -15.1652 -1.5561 0.9402
-1.8407 -16.1502 -1.6493 0.9367
-1.1437 -14.7124 -1.7248 0.9423
-0.6135 -14.7131 -1.7212 0.9424
2.0407 -14.7103 -1.7359 0.9419
2.5816 -14.7086 -1.7455 0.9416
3.6850 -14.7037 -1.7718 0.9408
4.2505 -14.7006 -1.7886 0.9402
4.7946 -14.5968 -1.7958 0.9400
5.3235 -14.4370 -1.7985 0.9399
6.3567 -14.0426 -1.8017 0.9398
7.3478 -13.5503 -1.8017 0.9398
7.8295 -13.2778 -1.8017 0.9398
8.3011 -12.9882 -1.8017 0.9398
8.3279 -11.1736 -1.6288 0.9454
8.8644 -9.5495 -1.5229 0.9489
7.1653 -6.6855 -1.1454 0.9613
7.6046 -6.1366 -1.1422 0.9614
10.2865 -6.1012 -1.3979 0.9530
13.5314 -7.3826 -1.8017 0.9398
13.7877 -6.8921 -1.8017 0.9398
14.0262 -6.3927 -1.8017 0.9398
14.2467 -5.8851 -1.8017 0.9398
14.4487 -5.3699 -1.8017 0.9398
14.6322 -4.8478 -1.8017 0.9398
15.2627 -2.1572 -1.8017 0.9398
15.4061 -0.5039 -1.8017 0.9398
15.4143 0.0494 -1.8017 0.9398
15.4026 0.6027 -1.8017 0.9398
15.3196 1.7062 -1.8017 0.9398
15.1577 2.8009 -1.8017 0.9398
15.0474 3.3432 -1.8017 0.9398
14.5907 4.9381 -1.8004 0.9399
13.1948 5.0004 -1.6493 0.9448
13.0068 5.4708 -1.6493 0.9448
12.3433 6.8374 -1.6493 0.9448
12.0899 7.2760 -1.6493 0.9448
11.8209 7.7053 -1.6493 0.9448
11.2376 8.5336 -1.6493 0.9448
10.5964 9.3178 -1.6493 0.9448
9.9006 10.0541 -1.6493 0.9448
8.7623 11.0601 -1.6493 0.9448
7.3206 11.6175 -1.6050 0.9462
6.7527 11.6213 -1.5710 0.9473
6.2078 11.6250 -1.5404 0.9483
3.2863 11.6450 -1.4143 0.9524
2.4012 11.6510 -1.3904 0.9532
1.9686 11.6539 -1.3814 0.9535
0.2768 11.6655 -1.3639 0.9541
-0.1421 11.6683 -1.3639 0.9541
-2.0747 13.2088 -1.5628 0.9476
-3.0170 13.0260 -1.5628 0.9476
-4.6433 13.3246 -1.6493 0.9448
-5.1186 13.1494 -1.6493 0.9448
-6.0488 12.7482 -1.6493 0.9448
-6.5025 12.5229 -1.6493 0.9448
-7.3843 12.0241 -1.6493 0.9448
-7.8111 11.7512 -1.6493 0.9448
-8.6341 11.1605 -1.6493 0.9448
-11.4573 10.3118 -1.8017 0.9398
-11.8200 9.8939 -1.8017 0.9398
-12.8152 8.5658 -1.8017 0.9398
-13.3967 7.6243 -1.8017 0.9398
-13.6618 7.1385 -1.8017 0.9398
-14.3500 5.6284 -1.8017 0.9398
-14.7168 4.5844 -1.8017 0.9398
-15.0078 3.5167 -1.8017 0.9398
-15.1244 2.9757 -1.8017 0.9398
-15.2215 2.4309 -1.8017 0.9398
-15.3892 -0.8791 -1.8017 0.9398
-15.3478 -1.4309 -1.8017 0.9398
-15.2056 -2.5284 -1.8017 0.9398
-15.1050 -3.0726 -1.8017 0.9398
-14.8456 -4.1484 -1.8017 0.9398
-14.6872 -4.6786 -1.8017 0.9398
-13.8663 -6.7325 -1.8017 0.9398
-13.3476 -7.7100 -1.8017 0.9398
-13.0622 -8.1842 -1.8017 0.9398
-12.4414 -9.1002 -1.8017 0.9398
-12.1067 -9.5410 -1.8017 0.9398
-11.7564 -9.9694 -1.8017 0.9398
-11.3909 -10.3850 -1.8017 0.9398
-10.6165 -11.1755 -1.8017 0.9398
-10.2085 -11.5494 -1.8017 0.9398
-8.9077 -12.5799 -1.8017 0.9398
-8.4504 -12.8915 -1.8017 0.9398
-7.5037 -13.4646 -1.8017 0.9398
-7.0156 -13.7253 -1.8017 0.9398
-6.5183 -13.9683 -1.8017 0.9398
-6.0128 -14.1933 -1.8017 0.9398
-4.9650 -14.5473 -1.7966 0.9400
-4.4334 -14.6955 -1.7941 0.9401
-3.3069 -14.7056 -1.7618 0.9411
-2.2139 -14.7098 -1.7387 0.9419
-1.6767 -14.7113 -1.7306 0.9421
-0.0785 -13.6120 -1.8017 0.9466
0.4101 -13.6061 -1.8017 0.9466
0.8983 -13.5826 -1.8017 0.9466
1.8704 -13.4831 -1.8017 0.9466
3.3091 -13.2039 -1.8017 0.9466
3.7809 -13.0766 -1.8017 0.9466
4.2479 -12.9325 -1.8017 0.9466
5.1648 -12.5944 -1.8017 0.9466
5.6136 -12.4008 -1.8017 0.9466
6.0551 -12.1914 -1.8017 0.9466
7.7376 -11.1992 -1.8017 0.9466
8.1346 -10.9143 -1.8017 0.9466
8.4001 -9.7274 -1.7011 0.9495
7.1190 -7.1373 -1.3343 0.9601
7.1490 -6.6704 -1.2941 0.9613
7.6027 -6.1351 -1.2930 0.9613
8.1544 -6.1102 -1.3487 0.9597
9.5190 -6.1183 -1.4977 0.9554
10.4251 -6.1835 -1.6043 0.9523
12.1758 -6.0863 -1.8017 0.9466
12.5811 -5.1971 -1.8017 0.9466
12.9215 -4.2811 -1.8017 0.9466
13.0669 -3.8145 -1.8017 0.9466
13.4012 -2.3876 -1.8017 0.9466
13.5802 -0.9331 -1.8017 0.9466
13.6050 -0.4450 -1.8017 0.9466
13.4658 1.9914 -1.8017 0.9466
13.3857 2.4735 -1.8017 0.9466
13.2882 2.9524 -1.8017 0.9466
13.1737 3.4275 -1.8017 0.9466
12.8655 4.3542 -1.7977 0.9467
11.4862 4.8312 -1.6493 0.9510
11.3053 5.2404 -1.6493 0.9510
10.6764 6.4254 -1.6493 0.9510
10.1879 7.1748 -1.6493 0.9510
9.9238 7.5359 -1.6493 0.9510
9.6469 7.8873 -1.6493 0.9510
9.3576 8.2285 -1.6493 0.9510
9.0562 8.5591 -1.6493 0.9510
8.7431 8.8786 -1.6493 0.9510
8.4187 9.1868 -1.6493 0.9510
8.0836 9.4831 -1.6493 0.9510
7.7379 9.7671 -1.6493 0.9510
7.3823 10.0386 -1.6493 0.9510
7.0172 10.2971 -1.6493 0.9510
6.6431 10.5424 -1.6493 0.9510
5.8696 10.9918 -1.6493 0.9510
5.4713 11.1954 -1.6493 0.9510
5.0658 11.3846 -1.6493 0.9510
4.2071 11.6387 -1.6380 0.9513
3.2863 11.6450 -1.6015 0.9524
2.4012 11.6510 -1.5745 0.9531
1.5410 11.6568 -1.5563 0.9537
1.1173 11.6597 -1.5503 0.9538
0.6962 11.6626 -1.5464 0.9540
0.2768 11.6655 -1.5444 0.9540
-2.2674 11.6828 -1.5752 0.9531
-2.7066 11.6858 -1.5876 0.9528
-3.2457 12.0307 -1.6493 0.9510
-3.6754 11.9064 -1.6493 0.9510
-4.1004 11.7668 -1.6493 0.9510
-4.9341 11.4423 -1.6493 0.9510
-5.3417 11.2578 -1.6493 0.9510
-5.7423 11.0588 -1.6493 0.9510
-6.8979 10.3774 -1.6493 0.9510
-7.2660 10.1231 -1.6493 0.9510
-7.9736 9.5757 -1.6493 0.9510
-8.3121 9.2833 -1.6493 0.9510
-10.4382 8.7372 -1.8017 0.9466
-11.0381 7.9658 -1.8017 0.9466
-11.3169 7.5644 -1.8017 0.9466
-11.5812 7.1533 -1.8017 0.9466
-12.0646 6.3039 -1.8017 0.9466
-12.6723 4.9704 -1.8017 0.9466
-12.8426 4.5123 -1.8017 0.9466
-12.9963 4.0484 -1.8017 0.9466
-13.1332 3.5793 -1.8017 0.9466
-13.3562 2.6278 -1.8017 0.9466
-13.4419 2.1467 -1.8017 0.9466
-13.5948 0.6892 -1.8017 0.9466
-13.5901 -0.7763 -1.8017 0.9466
-13.5535 -1.2636 -1.8017 0.9466
-13.4994 -1.7493 -1.8017 0.9466
-13.3391 -2.7133 -1.8017 0.9466
-13.2331 -3.1904 -1.8017 0.9466
-13.1100 -3.6634 -1.8017 0.9466
-12.9701 -4.1316 -1.8017 0.9466
-12.8134 -4.5945 -1.8017 0.9466
-12.2452 -5.9454 -1.8017 0.9466
-12.0239 -6.3811 -1.8017 0.9466
-11.7871 -6.8086 -1.8017 0.9466
-11.5351 -7.2273 -1.8017 0.9466
-11.2682 -7.6368 -1.8017 0.9466
-10.9868 -8.0363 -1.8017 0.9466
-10.6913 -8.4255 -1.8017 0.9466
-10.3819 -8.8039 -1.8017 0.9466
-9.7235 -9.5260 -1.8017 0.9466
-9.3753 -9.8690 -1.8017 0.9466
-9.0150 -10.1991 -1.8017 0.9466
-8.6431 -10.5162 -1.8017 0.9466
-8.2600 -10.8197 -1.8017 0.9466
-7.0490 -11.6450 -1.8017 0.9466
-6.6265 -11.8905 -1.8017 0.9466
-6.1954 -12.1207 -1.8017 0.9466
-5.3098 -12.5339 -1.8017 0.9466
-4.8565 -12.7165 -1.8017 0.9466
-4.3969 -12.8826 -1.8017 0.9466
-3.4612 -13.1648 -1.8017 0.9466
-2.0259 -13.4607 -1.8017 0.9466
-1.5414 -13.5247 -1.8017 0.9466
-0.9441 -12.1456 -1.8017 0.9519
-0.5075 -12.1717 -1.8017 0.9519
-0.0703 -12.1821 -1.8017 0.9519
1.2397 -12.1190 -1.8017 0.9519
1.6740 -12.0667 -1.8017 0.9519
2.1060 -11.9988 -1.8017 0.9519
2.5354 -11.9155 -1.8017 0.9519
3.3837 -11.7029 -1.8017 0.9519
5.4190 -10.9106 -1.8017 0.9519
5.8071 -10.7091 -1.8017 0.9519
6.5605 -10.2649 -1.8017 0.9519
7.2801 -9.7677 -1.8017 0.9519
7.9621 -9.2202 -1.8017 0.9519
7.1305 -7.1488 -1.4933 0.9600
7.1595 -6.6802 -1.4482 0.9612
7.2855 -6.3241 -1.4268 0.9617
7.5720 -6.1102 -1.4390 0.9614
8.1544 -6.1102 -1.5070 0.9596
10.2480 -6.5868 -1.8017 0.9519
10.4778 -6.2148 -1.8017 0.9519
10.6942 -5.8346 -1.8017 0.9519
11.2594 -4.6511 -1.8017 0.9519
11.5641 -3.8313 -1.8017 0.9519
11.6942 -3.4138 -1.8017 0.9519
11.8092 -2.9918 -1.8017 0.9519
12.1158 -1.2708 -1.8017 0.9519
12.1536 -0.8351 -1.8017 0.9519
12.1758 -0.3983 -1.8017 0.9519
12.1730 0.4763 -1.8017 0.9519
12.1074 1.3484 -1.8017 0.9519
12.0512 1.7822 -1.8017 0.9519
11.7898 3.0674 -1.8017 0.9519
11.5312 3.9026 -1.8004 0.9520
11.1807 4.2371 -1.7683 0.9528
10.2795 4.3237 -1.6493 0.9559
9.9428 5.0500 -1.6493 0.9559
9.5549 5.7504 -1.6493 0.9559
9.3423 6.0897 -1.6493 0.9559
8.8813 6.7443 -1.6493 0.9559
8.6335 7.0587 -1.6493 0.9559
8.3746 7.3641 -1.6493 0.9559
8.1048 7.6599 -1.6493 0.9559
7.8246 7.9459 -1.6493 0.9559
7.2344 8.4868 -1.6493 0.9559
6.6068 8.9840 -1.6493 0.9559
6.2801 9.2154 -1.6493 0.9559
5.6027 9.6422 -1.6493 0.9559
5.2530 9.8371 -1.6493 0.9559
4.8965 10.0193 -1.6493 0.9559
4.1650 10.3448 -1.6493 0.9559
3.4121 10.6170 -1.6493 0.9559
3.0288 10.7326 -1.6493 0.9559
2.6416 10.8344 -1.6493 0.9559
2.2510 10.9223 -1.6493 0.9559
1.8575 10.9960 -1.6493 0.9559
1.0638 11.1009 -1.6493 0.9559
0.6646 11.1320 -1.6493 0.9559
0.2647 11.1486 -1.6493 0.9559
-0.1358 11.1510 -1.6493 0.9559
-1.3338 11.0717 -1.6493 0.9559
-2.1247 10.9475 -1.6493 0.9559
-3.6697 10.5307 -1.6493 0.9559
-4.4158 10.2403 -1.6493 0.9559
-4.7805 10.0752 -1.6493 0.9559
-5.4911 9.7062 -1.6493 0.9559
-6.5027 9.0597 -1.6493 0.9559
-7.1359 8.5698 -1.6493 0.9559
-8.0158 7.7530 -1.6493 0.9559
-9.6163 7.4789 -1.8017 0.9519
-9.8785 7.1289 -1.8017 0.9519
-10.7972 5.6417 -1.8017 0.9519
-10.9927 5.2505 -1.8017 0.9519
-11.1741 4.8525 -1.8017 0.9519
-12.1809 0.1796 -1.8017 0.9519
-12.1795 -0.2577 -1.8017 0.9519
-12.1296 -1.1309 -1.8017 0.9519
-12.0812 -1.5656 -1.8017 0.9519
-12.0173 -1.9982 -1.8017 0.9519
-11.7328 -3.2786 -1.8017 0.9519
-11.6075 -3.6976 -1.8017 0.9519
-11.3123 -4.5209 -1.8017 0.9519
-11.1428 -4.9240 -1.8017 0.9519
-10.9588 -5.3208 -1.8017 0.9519
-10.7608 -5.7108 -1.8017 0.9519
-10.5488 -6.0934 -1.8017 0.9519
-9.8327 -7.1921 -1.8017 0.9519
-9.0025 -8.2075 -1.8017 0.9519
-8.3904 -8.8322 -1.8017 0.9519
-7.7351 -9.4114 -1.8017 0.9519
-7.3923 -9.6830 -1.8017 0.9519
-6.3085 -10.4216 -1.8017 0.9519
-5.9303 -10.6413 -1.8017 0.9519
-5.5445 -10.8474 -1.8017 0.9519
-5.1516 -11.0394 -1.8017 0.9519
-4.7520 -11.2172 -1.8017 0.9519
-2.6727 -11.8854 -1.8017 0.9519
-1.3795 -12.1039 -1.8017 0.9519
-0.8540 -10.9863 -1.8017 0.9563
-0.0636 -11.0192 -1.8017 0.9563
0.3320 -11.0144 -1.8017 0.9563
1.9050 -10.8535 -1.8017 0.9563
2.2934 -10.7781 -1.8017 0.9563
2.6788 -10.6889 -1.8017 0.9563
4.9017 -9.8692 -1.8017 0.9563
5.2528 -9.6869 -1.8017 0.9563
5.5972 -9.4921 -1.8017 0.9563
5.9343 -9.2850 -1.8017 0.9563
6.2638 -9.0660 -1.8017 0.9563
6.8981 -8.5933 -1.8017 0.9563
7.2021 -8.3401 -1.8017 0.9563
7.4968 -8.0762 -1.8017 0.9563
8.3216 -7.2235 -1.8017 0.9563
7.5870 -6.1224 -1.5940 0.9613
9.0499 -6.2870 -1.8017 0.9563
9.2698 -5.9581 -1.8017 0.9563
9.4777 -5.6215 -1.8017 0.9563
9.6734 -5.2777 -1.8017 0.9563
10.1847 -4.2072 -1.8017 0.9563
10.4603 -3.4656 -1.8017 0.9563
10.5779 -3.0879 -1.8017 0.9563
10.7722 -2.3210 -1.8017 0.9563
10.8486 -1.9328 -1.8017 0.9563
10.9935 -0.7554 -1.8017 0.9563
11.0136 -0.3603 -1.8017 0.9563
11.0110 0.4308 -1.8017 0.9563
10.9009 1.6121 -1.8017 0.9563
10.6644 2.7746 -1.8017 0.9563
10.5579 3.1556 -1.8017 0.9563
10.4379 3.5326 -1.8017 0.9563
10.2898 3.8995 -1.7991 0.9564
8.9937 4.5680 -1.6493 0.9599
8.6428 5.2015 -1.6493 0.9599
8.2474 5.8082 -1.6493 0.9599
8.0336 6.1005 -1.6493 0.9599
7.5752 6.6611 -1.6493 0.9599
7.3312 6.9288 -1.6493 0.9599
4.1027 4.4769 -0.9928 0.9757
5.9762 8.1265 -1.6493 0.9599
5.6806 8.3357 -1.6493 0.9599
5.0679 8.7218 -1.6493 0.9599
4.7516 8.8981 -1.6493 0.9599
4.4291 9.0630 -1.6493 0.9599
4.1009 9.2161 -1.6493 0.9599
3.7675 9.3574 -1.6493 0.9599
3.4291 9.4866 -1.6493 0.9599
3.0864 9.6036 -1.6493 0.9599
2.7397 9.7082 -1.6493 0.9599
2.3894 9.8002 -1.6493 0.9599
1.6801 9.9464 -1.6493 0.9599
0.9622 10.0413 -1.6493 0.9599
-0.1229 10.0866 -1.6493 0.9599
-0.8462 10.0517 -1.6493 0.9599
-1.2065 10.0149 -1.6493 0.9599
-1.5652 9.9651 -1.6493 0.9599
-2.6274 9.7391 -1.6493 0.9599
-3.6592 9.4002 -1.6493 0.9599
-4.3242 9.1135 -1.6493 0.9599
-4.9669 8.7797 -1.6493 0.9599
-6.4548 7.7518 -1.6493 0.9599
-7.2507 7.0129 -1.6493 0.9599
-7.4978 6.7481 -1.6493 0.9599
-9.1613 6.1236 -1.8017 0.9563
-9.5771 5.4505 -1.8017 0.9563
-9.9434 4.7493 -1.8017 0.9563
-10.1075 4.3893 -1.8017 0.9563
-10.2585 4.0237 -1.8017 0.9563
-10.3964 3.6528 -1.8017 0.9563
-10.7288 2.5140 -1.8017 0.9563
-10.8121 2.1273 -1.8017 0.9563
-11.0053 0.5579 -1.8017 0.9563
-11.0182 0.1625 -1.8017 0.9563
-10.9718 -1.0229 -1.8017 0.9563
-10.9280 -1.4161 -1.8017 0.9563
-10.7983 -2.1965 -1.8017 0.9563
-10.7125 -2.5827 -1.8017 0.9563
-10.6129 -2.9656 -1.8017 0.9563
-10.3727 -3.7194 -1.8017 0.9563
-10.2325 -4.0893 -1.8017 0.9563
-10.0792 -4.4540 -1.8017 0.9563
-9.9128 -4.8129 -1.8017 0.9563
-9.7336 -5.1657 -1.8017 0.9563
-8.8941 -6.5056 -1.8017 0.9563
-7.8714 -7.7116 -1.8017 0.9563
-7.5895 -7.9892 -1.8017 0.9563
-7.2979 -8.2564 -1.8017 0.9563
-6.9968 -8.5131 -1.8017 0.9563
-6.6867 -8.7588 -1.8017 0.9563
-6.3680 -8.9931 -1.8017 0.9563
-5.7063 -9.4268 -1.8017 0.9563
-5.0153 -9.8120 -1.8017 0.9563
-3.9314 -10.2942 -1.8017 0.9563
-3.5594 -10.4287 -1.8017 0.9563
-3.1827 -10.5498 -1.8017 0.9563
-1.6400 -10.8967 -1.8017 0.9563
-0.7793 -10.0246 -1.8017 0.9600
-0.0580 -10.0547 -1.8017 0.9600
0.3029 -10.0503 -1.8017 0.9600
1.3816 -9.9595 -1.8017 0.9600
2.7928 -9.6592 -1.8017 0.9600
3.4787 -9.4339 -1.8017 0.9600
3.8150 -9.3030 -1.8017 0.9600
4.1465 -9.1600 -1.8017 0.9600
5.1072 -8.6612 -1.8017 0.9600
5.4149 -8.4723 -1.8017 0.9600
5.7155 -8.2725 -1.8017 0.9600
6.2943 -7.8411 -1.8017 0.9600
6.8406 -7.3693 -1.8017 0.9600
7.5932 -6.5912 -1.8017 0.9600
8.2578 -5.7367 -1.8017 0.9600
8.6481 -5.1294 -1.8017 0.9600
8.8266 -4.8157 -1.8017 0.9600
9.5447 -3.1623 -1.8017 0.9600
9.6520 -2.8176 -1.8017 0.9600
9.7469 -2.4693 -1.8017 0.9600
9.9559 -1.4072 -1.8017 0.9600
10.0472 0.3931 -1.8017 0.9600
10.0266 0.7535 -1.8017 0.9600
9.8875 1.8271 -1.8017 0.9600
9.5242 3.2234 -1.8017 0.9600
7.5254 5.2998 -1.6493 0.9633
6.9121 6.0781 -1.6493 0.9633
6.6895 6.3223 -1.6493 0.9633
4.0990 4.4730 -1.0871 0.9756
3.9149 4.5927 -1.0813 0.9758
5.7157 7.2146 -1.6493 0.9633
5.4531 7.4151 -1.6493 0.9633
4.9070 7.7873 -1.6493 0.9633
4.3356 8.1192 -1.6493 0.9633
3.7419 8.4094 -1.6493 0.9633
2.8162 8.7629 -1.6493 0.9633
2.4999 8.8583 -1.6493 0.9633
2.1803 8.9424 -1.6493 0.9633
1.5331 9.0758 -1.6493 0.9633
1.2063 9.1250 -1.6493 0.9633
0.2183 9.2017 -1.6493 0.9633
-0.1121 9.2037 -1.6493 0.9633
-0.4424 9.1937 -1.6493 0.9633
-0.7721 9.1719 -1.6493 0.9633
-1.1009 9.1383 -1.6493 0.9633
-1.4282 9.0929 -1.6493 0.9633
-2.0769 8.9670 -1.6493 0.9633
-3.6446 8.4520 -1.6493 0.9633
-3.9457 8.3157 -1.6493 0.9633
-4.2416 8.1687 -1.6493 0.9633
-4.8168 7.8434 -1.6493 0.9633
-5.0952 7.6654 -1.6493 0.9633
-5.3671 7.4776 -1.6493 0.9633
-5.6321 7.2801 -1.6493 0.9633
-6.8415 6.1575 -1.6493 0.9633
-7.9370 6.1729 -1.8017 0.9600
-8.7387 4.9734 -1.8017 0.9600
-9.0730 4.3336 -1.8017 0.9600
-9.2228 4.0051 -1.8017 0.9600
-9.4863 3.3331 -1.8017 0.9600
-9.5999 2.9904 -1.8017 0.9600
-9.9290 1.5857 -1.8017 0.9600
-2.0428 0.2514 -0.3688 0.9917
-2.0422 0.1035 -0.3664 0.9917
-2.0396 -0.2643 -0.3685 0.9917
-9.9187 -1.6493 -1.8017 0.9600
-9.5805 -3.0519 -1.8017 0.9600
-9.4648 -3.3938 -1.8017 0.9600
-9.1969 -4.0641 -1.8017 0.9600
-9.0451 -4.3916 -1.8017 0.9600
-7.8972 -6.2236 -1.8017 0.9600
-7.1824 -7.0365 -1.8017 0.9600
-6.3843 -7.7679 -1.8017 0.9600
-6.1014 -7.9921 -1.8017 0.9600
-5.8106 -8.2059 -1.8017 0.9600
-5.5123 -8.4092 -1.8017 0.9600
-4.5763 -8.9531 -1.8017 0.9600
-4.2520 -9.1116 -1.8017 0.9600
-3.5873 -9.3932 -1.8017 0.9600
-2.9041 -9.6263 -1.8017 0.9600
-2.5567 -9.7244 -1.8017 0.9600
-1.1386 -9.9902 -1.8017 0.9600
-0.3850 -9.2335 -1.8017 0.9630
-0.0533 -9.2413 -1.8017 0.9630
0.2784 -9.2373 -1.8017 0.9630
0.9405 -9.1935 -1.8017 0.9630
1.2699 -9.1538 -1.8017 0.9630
1.5976 -9.1024 -1.8017 0.9630
3.5064 -8.5505 -1.8017 0.9630
3.8111 -8.4191 -1.8017 0.9630
4.4053 -8.1239 -1.8017 0.9630
4.9768 -7.7869 -1.8017 0.9630
5.5227 -7.4098 -1.8017 0.9630
6.2873 -6.7731 -1.8017 0.9630
6.5263 -6.5431 -1.8017 0.9630
6.9790 -6.0580 -1.8017 0.9630
7.5898 -5.2726 -1.8017 0.9630
7.7741 -4.9968 -1.8017 0.9630
7.9485 -4.7145 -1.8017 0.9630
8.1126 -4.4261 -1.8017 0.9630
8.4093 -3.8327 -1.8017 0.9630
8.5414 -3.5283 -1.8017 0.9630
8.8712 -2.5897 -1.8017 0.9630
8.9585 -2.2696 -1.8017 0.9630
9.0342 -1.9465 -1.8017 0.9630
9.1506 -1.2933 -1.8017 0.9630
9.1911 -0.9640 -1.8017 0.9630
9.2198 -0.6335 -1.8017 0.9630
9.2366 -0.3021 -1.8017 0.9630
9.2414 0.0296 -1.8017 0.9630
9.2344 0.3613 -1.8017 0.9630
9.2155 0.6926 -1.8017 0.9630
9.0876 1.6793 -1.8017 0.9630
9.0215 2.0044 -1.8017 0.9630
8.5186 3.5830 -1.8017 0.9630
8.3741 3.8817 -1.7994 0.9631
6.3530 5.5864 -1.6493 0.9661
6.1483 5.8108 -1.6493 0.9661
4.0954 4.4690 -1.1817 0.9756
3.9109 4.5879 -1.1753 0.9757
5.2534 6.6310 -1.6493 0.9661
5.0120 6.8153 -1.6493 0.9661
4.7641 6.9908 -1.6493 0.9661
4.2502 7.3146 -1.6493 0.9661
3.9850 7.4625 -1.6493 0.9661
3.7145 7.6007 -1.6493 0.9661
3.4393 7.7291 -1.6493 0.9661
3.1596 7.8476 -1.6493 0.9661
1.4091 8.3416 -1.6493 0.9661
0.5041 8.4447 -1.6493 0.9661
-0.1030 8.4592 -1.6493 0.9661
-1.3127 8.3573 -1.6493 0.9661
-1.6118 8.3048 -1.6493 0.9661
-1.9089 8.2416 -1.6493 0.9661
-2.2035 8.1678 -1.6493 0.9661
-2.4953 8.0834 -1.6493 0.9661
-2.7838 7.9886 -1.6493 0.9661
-3.0688 7.8835 -1.6493 0.9661
-3.6265 7.6431 -1.6493 0.9661
-4.1655 7.3632 -1.6493 0.9661
-4.4271 7.2089 -1.6493 0.9661
-5.1765 6.6912 -1.6493 0.9661
-6.2891 5.6603 -1.6496 0.9661
-7.4939 5.4080 -1.8017 0.9630
-7.8626 4.8564 -1.8017 0.9630
-8.0318 4.5711 -1.8017 0.9630
-8.4767 3.6811 -1.8017 0.9630
-1.7560 0.4786 -0.3548 0.9926
-1.7138 0.3372 -0.3405 0.9929
-1.7072 0.0252 -0.3329 0.9931
-1.7076 -0.0361 -0.3330 0.9931
-1.7030 -0.2207 -0.3348 0.9930
-1.7595 -0.4917 -0.3562 0.9926
-8.6991 -3.1193 -1.8017 0.9630
-8.4529 -3.7354 -1.8017 0.9630
-8.1631 -4.3322 -1.8017 0.9630
-7.4591 -5.4559 -1.8017 0.9630
-7.0484 -5.9771 -1.8017 0.9630
-6.8293 -6.2262 -1.8017 0.9630
-6.6014 -6.4673 -1.8017 0.9630
-6.3650 -6.7001 -1.8017 0.9630
-5.8679 -7.1395 -1.8017 0.9630
-5.3405 -7.5421 -1.8017 0.9630
-5.0663 -7.7290 -1.8017 0.9630
-4.7857 -7.9059 -1.8017 0.9630
-3.9080 -8.3745 -1.8017 0.9630
-3.2971 -8.6333 -1.8017 0.9630
-2.6692 -8.8476 -1.8017 0.9630
-2.3499 -8.9377 -1.8017 0.9630
-1.7026 -9.0833 -1.8017 0.9630
-1.3754 -9.1386 -1.8017 0.9630
-1.0465 -9.1820 -1.8017 0.9630
-0.0493 -8.5459 -1.8017 0.9657
0.2575 -8.5422 -1.8017 0.9657
1.1743 -8.4650 -1.8017 0.9657
1.4774 -8.4174 -1.8017 0.9657
2.0775 -8.2897 -1.8017 0.9657
2.3737 -8.2098 -1.8017 0.9657
2.9567 -8.0183 -1.8017 0.9657
3.2426 -7.9070 -1.8017 0.9657
3.8015 -7.6540 -1.8017 0.9657
4.3409 -7.3615 -1.8017 0.9657
4.8578 -7.0311 -1.8017 0.9657
5.3498 -6.6645 -1.8017 0.9657
6.2485 -5.8302 -1.8017 0.9657
6.4538 -5.6021 -1.8017 0.9657
6.8391 -5.1247 -1.8017 0.9657
7.0186 -4.8759 -1.8017 0.9657
7.1891 -4.6208 -1.8017 0.9657
7.3504 -4.3597 -1.8017 0.9657
7.6442 -3.8211 -1.8017 0.9657
7.7765 -3.5443 -1.8017 0.9657
8.0107 -2.9772 -1.8017 0.9657
8.1124 -2.6877 -1.8017 0.9657
8.2843 -2.0988 -1.8017 0.9657
8.4620 -1.1960 -1.8017 0.9657
8.5260 -0.5858 -1.8017 0.9657
8.5415 -0.2794 -1.8017 0.9657
8.5460 0.0274 -1.8017 0.9657
8.5396 0.3342 -1.8017 0.9657
8.4038 1.5529 -1.8017 0.9657
7.7536 3.5941 -1.8017 0.9657
7.6113 3.8658 -1.7997 0.9657
7.4493 4.1264 -1.7953 0.9658
7.0001 4.2128 -1.7224 0.9672
6.3962 4.5045 -1.6493 0.9685
6.2304 4.7312 -1.6493 0.9685
5.8749 5.1660 -1.6493 0.9685
5.4891 5.5742 -1.6493 0.9685
4.0917 4.4650 -1.2768 0.9755
3.9068 4.5832 -1.2696 0.9757
4.6348 6.3024 -1.6493 0.9685
4.4056 6.4648 -1.6493 0.9685
4.1707 6.6187 -1.6493 0.9685
3.9304 6.7642 -1.6493 0.9685
3.4350 7.0287 -1.6493 0.9685
2.6594 7.3573 -1.6493 0.9685
1.8531 7.6005 -1.6493 0.9685
1.5791 7.6621 -1.6493 0.9685
1.3030 7.7139 -1.6493 0.9685
1.0253 7.7557 -1.6493 0.9685
0.1856 7.8210 -1.6493 0.9685
-0.0953 7.8226 -1.6493 0.9685
-0.3760 7.8141 -1.6493 0.9685
-1.2139 7.7284 -1.6493 0.9685
-1.7652 7.6214 -1.6493 0.9685
-2.3075 7.4751 -1.6493 0.9685
-2.8379 7.2903 -1.6493 0.9685
-3.0977 7.1837 -1.6493 0.9685
-3.3536 7.0679 -1.6493 0.9685
-3.8521 6.8091 -1.6493 0.9685
-4.3307 6.5152 -1.6493 0.9685
-4.5617 6.3555 -1.6493 0.9685
-4.7869 6.1877 -1.6493 0.9685
-5.0060 6.0118 -1.6493 0.9685
-5.2185 5.8283 -1.6493 0.9685
-5.4244 5.6372 -1.6493 0.9685
-6.1471 5.5326 -1.7435 0.9668
-6.5419 5.4759 -1.7986 0.9657
-6.7460 5.2466 -1.8017 0.9657
-6.9300 5.0011 -1.8017 0.9657
-7.4274 4.2271 -1.8017 0.9657
-7.5744 3.9577 -1.8017 0.9657
-7.8388 3.4041 -1.8017 0.9657
-1.6254 0.5711 -0.3632 0.9930
-1.6130 0.5025 -0.3562 0.9931
-1.5992 0.4358 -0.3494 0.9932
-1.5836 0.3711 -0.3429 0.9934
-1.5727 0.1365 -0.3328 0.9936
-1.5740 0.0798 -0.3323 0.9936
-1.5731 0.0232 -0.3317 0.9936
-1.5734 -0.0333 -0.3318 0.9936
-1.5688 -0.2033 -0.3335 0.9936
-1.5695 -0.3193 -0.3377 0.9935
-1.5865 -0.3825 -0.3441 0.9934
-7.9358 -3.1715 -1.8017 0.9657
-7.8168 -3.4543 -1.8017 0.9657
-7.5489 -4.0062 -1.8017 0.9657
-7.2420 -4.5375 -1.8017 0.9657
-7.0744 -4.7945 -1.8017 0.9657
-6.8978 -5.0454 -1.8017 0.9657
-6.7122 -5.2897 -1.8017 0.9657
-6.5180 -5.5273 -1.8017 0.9657
-6.3154 -5.7577 -1.8017 0.9657
-5.8860 -6.1959 -1.8017 0.9657
-5.1858 -6.7928 -1.8017 0.9657
-4.9387 -6.9746 -1.8017 0.9657
-4.6851 -7.1474 -1.8017 0.9657
-4.4255 -7.3109 -1.8017 0.9657
-4.1602 -7.4651 -1.8017 0.9657
-2.1730 -8.2652 -1.8017 0.9657
-1.5745 -8.3998 -1.8017 0.9657
-1.2719 -8.4509 -1.8017 0.9657
-0.0458 -7.9442 -1.8017 0.9679
0.2394 -7.9408 -1.8017 0.9679
1.3734 -7.8248 -1.8017 0.9679
1.6534 -7.7704 -1.8017 0.9679
3.0143 -7.3503 -1.8017 0.9679
3.2762 -7.2374 -1.8017 0.9679
4.0353 -6.8432 -1.8017 0.9679
4.2783 -6.6940 -1.8017 0.9679
4.7475 -6.3698 -1.8017 0.9679
5.1923 -6.0127 -1.8017 0.9679
5.6103 -5.6247 -1.8017 0.9679
5.9994 -5.2077 -1.8017 0.9679
6.1825 -4.9890 -1.8017 0.9679
6.6830 -4.2954 -1.8017 0.9679
6.9740 -3.8049 -1.8017 0.9679
7.1060 -3.5521 -1.8017 0.9679
7.2290 -3.2947 -1.8017 0.9679
7.5413 -2.4985 -1.8017 0.9679
7.6261 -2.2262 -1.8017 0.9679
7.7662 -1.6733 -1.8017 0.9679
7.8212 -1.3935 -1.8017 0.9679
7.8662 -1.1118 -1.8017 0.9679
7.9010 -0.8287 -1.8017 0.9679
7.9257 -0.5446 -1.8017 0.9679
7.9401 -0.2597 -1.8017 0.9679
7.9443 0.0255 -1.8017 0.9679
7.9383 0.3106 -1.8017 0.9679
7.8589 1.1622 -1.8017 0.9679
7.8121 1.4436 -1.8017 0.9679
7.6117 2.2750 -1.8017 0.9679
7.2077 3.3410 -1.8017 0.9679
6.9431 3.8461 -1.8001 0.9680
6.7854 4.0836 -1.7960 0.9680
6.4558 4.2082 -1.7477 0.9689
5.9975 4.2237 -1.6636 0.9704
4.0880 4.4609 -1.3722 0.9755
4.3085 5.8587 -1.6493 0.9706
3.4256 6.4150 -1.6493 0.9706
2.7161 6.7461 -1.6493 0.9706
2.4722 6.8393 -1.6493 0.9706
2.2251 6.9236 -1.6493 0.9706
1.9752 6.9990 -1.6493 0.9706
1.7226 7.0654 -1.6493 0.9706
0.4334 7.2595 -1.6493 0.9706
-0.0886 7.2718 -1.6493 0.9706
-1.1284 7.1843 -1.6493 0.9706
-1.8942 7.0214 -1.6493 0.9706
-2.1450 6.9488 -1.6493 0.9706
-2.8796 6.6780 -1.6493 0.9706
-3.3513 6.4542 -1.6493 0.9706
-3.8058 6.1971 -1.6493 0.9706
-4.2406 5.9081 -1.6493 0.9706
-4.6535 5.5886 -1.6493 0.9706
-5.8833 5.2951 -1.7951 0.9681
-6.2710 4.8772 -1.8017 0.9679
-6.6048 4.4147 -1.8017 0.9679
-6.9045 3.9295 -1.8017 0.9679
-7.2869 3.1644 -1.8017 0.9679
-1.4872 0.5225 -0.3575 0.9936
-1.4674 0.3999 -0.3449 0.9938
-1.4552 0.3410 -0.3390 0.9939
-1.4573 0.1265 -0.3317 0.9940
-1.4578 0.0215 -0.3307 0.9940
-1.4581 -0.0309 -0.3308 0.9940
-1.4584 -0.0833 -0.3313 0.9940
-1.4479 -0.2408 -0.3329 0.9940
-1.4575 -0.3514 -0.3400 0.9939
-1.4800 -0.4715 -0.3523 0.9936
-1.4952 -0.5975 -0.3652 0.9934
-6.8792 -3.9737 -1.8017 0.9679
-6.7321 -4.2180 -1.8017 0.9679
-6.4121 -4.6902 -1.8017 0.9679
-5.8708 -5.3523 -1.8017 0.9679
-5.0443 -6.1375 -1.8017 0.9679
-4.5909 -6.4835 -1.8017 0.9679
-4.3553 -6.6442 -1.8017 0.9679
-3.3595 -7.1991 -1.8017 0.9679
-1.1824 -7.8559 -1.8017 0.9679
-0.5749 -7.3961 -1.8017 0.9699
0.2235 -7.4151 -1.8017 0.9699
0.4895 -7.4023 -1.8017 0.9699
0.7549 -7.3799 -1.8017 0.9699
1.0194 -7.3481 -1.8017 0.9699
2.0606 -7.1266 -1.8017 0.9699
2.5665 -6.9604 -1.8017 0.9699
3.0593 -6.7583 -1.8017 0.9699
3.5363 -6.5214 -1.8017 0.9699
3.7681 -6.3902 -1.8017 0.9699
3.9951 -6.2508 -1.8017 0.9699
4.2169 -6.1034 -1.8017 0.9699
4.4332 -5.9481 -1.8017 0.9699
4.8486 -5.6147 -1.8017 0.9699
5.0470 -5.4370 -1.8017 0.9699
5.4241 -5.0609 -1.8017 0.9699
5.7732 -4.6587 -1.8017 0.9699
6.0926 -4.2325 -1.8017 0.9699
6.3805 -3.7845 -1.8017 0.9699
6.6356 -3.3170 -1.8017 0.9699
6.7504 -3.0766 -1.8017 0.9699
6.8565 -2.8323 -1.8017 0.9699
6.9538 -2.5844 -1.8017 0.9699
7.2521 -1.5625 -1.8017 0.9699
7.3035 -1.3012 -1.8017 0.9699
7.3780 -0.7739 -1.8017 0.9699
7.4010 -0.5085 -1.8017 0.9699
7.4145 -0.2425 -1.8017 0.9699
7.4184 0.0238 -1.8017 0.9699
7.4128 0.2901 -1.8017 0.9699
7.3976 0.5560 -1.8017 0.9699
7.3729 0.8211 -1.8017 0.9699
7.2419 1.6090 -1.8017 0.9699
7.1795 1.8679 -1.8017 0.9699
7.0269 2.3782 -1.8017 0.9699
6.9371 2.6289 -1.8017 0.9699
6.7306 3.1198 -1.8017 0.9699
6.6142 3.3594 -1.8017 0.9699
6.4894 3.5947 -1.8017 0.9699
6.3518 3.8227 -1.8004 0.9699
6.1978 4.0400 -1.7968 0.9700
5.9688 4.2035 -1.7730 0.9704
5.5547 4.2181 -1.6939 0.9717
5.2574 4.2984 -1.6493 0.9724
5.0997 4.4844 -1.6493 0.9724
4.7649 4.8387 -1.6493 0.9724
4.0843 4.4569 -1.4682 0.9754
3.8987 4.5736 -1.4596 0.9756
4.2171 5.3229 -1.6493 0.9724
4.0233 5.4709 -1.6493 0.9724
3.8243 5.6118 -1.6493 0.9724
2.9818 6.1013 -1.6493 0.9724
2.7608 6.2044 -1.6493 0.9724
2.3086 6.3865 -1.6493 0.9724
2.0778 6.4653 -1.6493 0.9724
1.8444 6.5357 -1.6493 0.9724
0.8900 6.7324 -1.6493 0.9724
-0.3264 6.7831 -1.6493 0.9724
-0.5697 6.7670 -1.6493 0.9724
-0.8122 6.7422 -1.6493 0.9724
-1.2939 6.6666 -1.6493 0.9724
-1.5323 6.6158 -1.6493 0.9724
-2.2347 6.4128 -1.6493 0.9724
-2.4634 6.3284 -1.6493 0.9724
-2.6890 6.2359 -1.6493 0.9724
-2.9111 6.1353 -1.6493 0.9724
-3.1295 6.0269 -1.6493 0.9724
-3.3438 5.9106 -1.6493 0.9724
-3.5538 5.7868 -1.6493 0.9724
-3.7593 5.6555 -1.6493 0.9724
-3.9598 5.5169 -1.6493 0.9724
-4.1553 5.3712 -1.6493 0.9724
-4.7087 4.8934 -1.6493 0.9724
-5.1475 4.9787 -1.7392 0.9710
-5.4997 4.9498 -1.7970 0.9700
-5.6873 4.7605 -1.8013 0.9699
-5.8559 4.5543 -1.8017 0.9699
-6.1676 4.1225 -1.8017 0.9699
-6.3116 3.8984 -1.8017 0.9699
-6.5750 3.4356 -1.8017 0.9699
-1.3767 0.5979 -0.3645 0.9938
-1.3743 0.5391 -0.3585 0.9939
-1.3699 0.4813 -0.3526 0.9940
-1.3423 0.2641 -0.3323 0.9944
-1.3491 0.2154 -0.3318 0.9944
-1.3540 0.1667 -0.3313 0.9944
-1.3583 0.0689 -0.3303 0.9944
-1.3579 -0.0287 -0.3299 0.9944
-1.3582 -0.0776 -0.3304 0.9944
-1.3532 -0.1754 -0.3314 0.9944
-1.3480 -0.2241 -0.3319 0.9944
-1.3409 -0.2728 -0.3323 0.9944
-1.3475 -0.3249 -0.3366 0.9943
-1.3570 -0.3792 -0.3422 0.9942
-1.3709 -0.4916 -0.3537 0.9940
-1.3749 -0.5495 -0.3596 0.9939
-1.3769 -0.6084 -0.3656 0.9938
-6.1410 -4.1619 -1.8017 0.9699
-5.6580 -4.7980 -1.8017 0.9699
-5.4821 -4.9980 -1.8017 0.9699
-5.2992 -5.1916 -1.8017 0.9699
-5.1094 -5.3784 -1.8017 0.9699
-4.7104 -5.7312 -1.8017 0.9699
-4.2870 -6.0543 -1.8017 0.9699
-4.0669 -6.2043 -1.8017 0.9699
-3.8416 -6.3463 -1.8017 0.9699
-3.6113 -6.4801 -1.8017 0.9699
-3.1371 -6.7225 -1.8017 0.9699
-2.3962 -7.0208 -1.8017 0.9699
-1.3667 -7.2915 -1.8017 0.9699
-0.8400 -7.3707 -1.8017 0.9699
0.9556 -6.8887 -1.8017 0.9717
1.2023 -6.8499 -1.8017 0.9717
1.6907 -6.7460 -1.8017 0.9717
1.9317 -6.6810 -1.8017 0.9717
2.1703 -6.6073 -1.8017 0.9717
2.6387 -6.4346 -1.8017 0.9717
2.8680 -6.3357 -1.8017 0.9717
3.0936 -6.2287 -1.8017 0.9717
3.5325 -5.9907 -1.8017 0.9717
4.1561 -5.5762 -1.8017 0.9717
4.5454 -5.2637 -1.8017 0.9717
4.7315 -5.0971 -1.8017 0.9717
4.9114 -4.9240 -1.8017 0.9717
5.0850 -4.7445 -1.8017 0.9717
5.2520 -4.5589 -1.8017 0.9717
5.5655 -4.1704 -1.8017 0.9717
5.7117 -3.9679 -1.8017 0.9717
5.8504 -3.7603 -1.8017 0.9717
6.3284 -2.8843 -1.8017 0.9717
6.4278 -2.6553 -1.8017 0.9717
6.6018 -2.1872 -1.8017 0.9717
6.6760 -1.9488 -1.8017 0.9717
6.7417 -1.7080 -1.8017 0.9717
6.7986 -1.4649 -1.8017 0.9717
6.8862 -0.9733 -1.8017 0.9717
6.9383 -0.4767 -1.8017 0.9717
6.9509 -0.2274 -1.8017 0.9717
6.8798 1.0174 -1.8017 0.9717
6.8389 1.2637 -1.8017 0.9717
6.7891 1.5084 -1.8017 0.9717
6.7306 1.7511 -1.8017 0.9717
6.6634 1.9916 -1.8017 0.9717
6.5876 2.2295 -1.8017 0.9717
6.2007 3.1494 -1.8017 0.9717
5.9588 3.5862 -1.8017 0.9717
5.8237 3.7961 -1.8009 0.9717
5.5159 4.1886 -1.7942 0.9718
5.1524 4.2125 -1.7241 0.9729
4.8046 4.2249 -1.6575 0.9739
3.8946 4.5689 -1.5553 0.9755
3.9534 4.9901 -1.6493 0.9740
3.7717 5.1288 -1.6493 0.9740
3.5852 5.2609 -1.6493 0.9740
2.7953 5.7199 -1.6493 0.9740
2.5882 5.8165 -1.6493 0.9740
2.1642 5.9872 -1.6493 0.9740
1.9479 6.0611 -1.6493 0.9740
1.7291 6.1271 -1.6493 0.9740
1.5080 6.1852 -1.6493 0.9740
1.2850 6.2353 -1.6493 0.9740
1.0604 6.2775 -1.6493 0.9740
-0.3060 6.3590 -1.6493 0.9740
-0.5341 6.3440 -1.6493 0.9740
-1.2130 6.2497 -1.6493 0.9740
-1.4365 6.2022 -1.6493 0.9740
-1.6582 6.1466 -1.6493 0.9740
-1.8778 6.0831 -1.6493 0.9740
-2.3094 5.9327 -1.6493 0.9740
-2.7291 5.7518 -1.6493 0.9740
-3.1347 5.5411 -1.6493 0.9740
-3.3316 5.4250 -1.6493 0.9740
-3.5242 5.3019 -1.6493 0.9740
-3.7123 5.1720 -1.6493 0.9740
-3.8955 5.0354 -1.6493 0.9740
-4.0738 4.8923 -1.6493 0.9740
-4.2468 4.7430 -1.6493 0.9740
-4.5604 4.7393 -1.7039 0.9732
-5.1620 4.6459 -1.7991 0.9717
-5.3330 4.4639 -1.8017 0.9717
-5.4898 4.2696 -1.8017 0.9717
-5.7820 3.8647 -1.8017 0.9717
-6.0443 3.4399 -1.8017 0.9717
-6.1639 3.2208 -1.8017 0.9717
-1.2882 0.6153 -0.3698 0.9941
-1.2890 0.5056 -0.3587 0.9943
-1.2874 0.4524 -0.3535 0.9944
-1.2765 0.2991 -0.3397 0.9946
-1.2844 0.2051 -0.3370 0.9946
-1.2910 0.0655 -0.3349 0.9947
-1.2910 -0.0273 -0.3345 0.9947
-1.2872 -0.1668 -0.3363 0.9947
-1.2837 -0.2134 -0.3371 0.9946
-1.2790 -0.2602 -0.3381 0.9946
-1.2771 -0.3079 -0.3403 0.9946
-1.2813 -0.3580 -0.3446 0.9945
-1.2852 -0.4094 -0.3494 0.9944
-1.2878 -0.4618 -0.3544 0.9944
-1.2892 -0.5697 -0.3651 0.9942
-6.1431 -3.2602 -1.8017 0.9717
-5.8934 -3.6925 -1.8017 0.9717
-5.7571 -3.9017 -1.8017 0.9717
-5.4623 -4.3047 -1.8017 0.9717
-5.3042 -4.4980 -1.8017 0.9717
-5.1394 -4.6855 -1.8017 0.9717
-4.9679 -4.8670 -1.8017 0.9717
-4.4159 -5.3728 -1.8017 0.9717
-3.3855 -6.0750 -1.8017 0.9717
-3.1653 -6.1926 -1.8017 0.9717
-2.2464 -6.5819 -1.8017 0.9717
-1.5258 -6.7852 -1.8017 0.9717
-0.7875 -6.9099 -1.8017 0.9717
-0.2726 -6.5367 -1.8017 0.9732
-0.0378 -6.5423 -1.8017 0.9732
0.1971 -6.5394 -1.8017 0.9732
0.4317 -6.5281 -1.8017 0.9732
1.1310 -6.4439 -1.8017 0.9732
1.3616 -6.3991 -1.8017 0.9732
1.5904 -6.3461 -1.8017 0.9732
1.8172 -6.2849 -1.8017 0.9732
2.0416 -6.2156 -1.8017 0.9732
2.4823 -6.0531 -1.8017 0.9732
2.6980 -5.9601 -1.8017 0.9732
2.9102 -5.8595 -1.8017 0.9732
3.1187 -5.7512 -1.8017 0.9732
3.3231 -5.6356 -1.8017 0.9732
4.0955 -5.1019 -1.8017 0.9732
4.2760 -4.9516 -1.8017 0.9732
4.6202 -4.6321 -1.8017 0.9732
5.0914 -4.1085 -1.8017 0.9732
5.3731 -3.7327 -1.8017 0.9732
5.7432 -3.1334 -1.8017 0.9732
5.8520 -2.9252 -1.8017 0.9732
6.0468 -2.4979 -1.8017 0.9732
6.2104 -2.0576 -1.8017 0.9732
6.2802 -1.8333 -1.8017 0.9732
6.5270 -0.4485 -1.8017 0.9732
6.5374 0.2558 -1.8017 0.9732
6.4720 0.9571 -1.8017 0.9732
6.3316 1.6473 -1.8017 0.9732
6.0306 2.5366 -1.8017 0.9732
5.9357 2.7514 -1.8017 0.9732
5.7230 3.1702 -1.8017 0.9732
5.3482 3.7665 -1.8014 0.9732
5.2006 3.9492 -1.7983 0.9733
5.0470 4.1264 -1.7953 0.9733
4.7842 4.2069 -1.7544 0.9739
4.4636 4.2186 -1.6913 0.9748
4.2021 4.2673 -1.6493 0.9755
3.5481 4.8248 -1.6493 0.9755
3.1928 5.0669 -1.6493 0.9755
2.8211 5.2829 -1.6493 0.9755
2.2368 5.5556 -1.6493 0.9755
2.0359 5.6323 -1.6493 0.9755
1.4186 5.8185 -1.6493 0.9755
0.7849 5.9373 -1.6493 0.9755
0.5713 5.9617 -1.6493 0.9755
-0.2879 5.9821 -1.6493 0.9755
-0.5024 5.9679 -1.6493 0.9755
-0.7163 5.9460 -1.6493 0.9755
-1.3514 5.8345 -1.6493 0.9755
-1.5599 5.7823 -1.6493 0.9755
-1.7665 5.7225 -1.6493 0.9755
-1.9708 5.6554 -1.6493 0.9755
-2.1725 5.5810 -1.6493 0.9755
-2.3714 5.4995 -1.6493 0.9755
-2.7599 5.3151 -1.6493 0.9755
-2.9489 5.2126 -1.6493 0.9755
-3.4922 4.8654 -1.6493 0.9755
-3.6646 4.7369 -1.6493 0.9755
-3.8323 4.6023 -1.6493 0.9755
-4.8620 4.3759 -1.8014 0.9732
-5.1643 4.0165 -1.8017 0.9732
-5.3052 3.8285 -1.8017 0.9732
-5.6860 3.2360 -1.8017 0.9732
-1.2200 0.6375 -0.3791 0.9943
-1.2235 0.5844 -0.3734 0.9944
-1.2255 0.5322 -0.3679 0.9945
-1.2261 0.4809 -0.3627 0.9946
-1.2254 0.4306 -0.3577 0.9946
-1.2235 0.3811 -0.3529 0.9947
-1.2212 0.2862 -0.3454 0.9948
-1.2345 0.1519 -0.3425 0.9949
-1.2367 0.1073 -0.3419 0.9949
-1.2376 0.0183 -0.3409 0.9949
-1.2377 -0.0707 -0.3414 0.9949
-1.2340 -0.1599 -0.3427 0.9949
-1.2305 -0.2046 -0.3435 0.9948
-1.2223 -0.3416 -0.3495 0.9947
-1.2239 -0.3899 -0.3538 0.9947
-1.2252 -0.5414 -0.3689 0.9945
-1.2193 -0.6471 -0.3801 0.9943
-4.9898 -4.2314 -1.8017 0.9732
-4.1541 -5.0543 -1.8017 0.9732
-2.9776 -5.8255 -1.8017 0.9732
-2.3341 -6.1118 -1.8017 0.9732
-1.6636 -6.3273 -1.8017 0.9732
-1.4354 -6.3830 -1.8017 0.9732
-1.2053 -6.4304 -1.8017 0.9732
-0.9737 -6.4695 -1.8017 0.9732
-0.7408 -6.5003 -1.8017 0.9732
-0.4784 -6.1548 -1.8017 0.9746
-0.0356 -6.1732 -1.8017 0.9746
0.6282 -6.1413 -1.8017 0.9746
1.0672 -6.0804 -1.8017 0.9746
1.2848 -6.0381 -1.8017 0.9746
1.5007 -5.9881 -1.8017 0.9746
1.7147 -5.9304 -1.8017 0.9746
1.9265 -5.8650 -1.8017 0.9746
2.3423 -5.7117 -1.8017 0.9746
2.5458 -5.6239 -1.8017 0.9746
2.7461 -5.5289 -1.8017 0.9746
3.1357 -5.3177 -1.8017 0.9746
3.6892 -4.9498 -1.8017 0.9746
3.8645 -4.8141 -1.8017 0.9746
4.0348 -4.6723 -1.8017 0.9746
4.1999 -4.5245 -1.8017 0.9746
4.3596 -4.3708 -1.8017 0.9746
4.6620 -4.0467 -1.8017 0.9746
5.0700 -3.5221 -1.8017 0.9746
5.4192 -2.9567 -1.8017 0.9746
5.7866 -2.1506 -1.8017 0.9746
5.8601 -1.9415 -1.8017 0.9746
5.9260 -1.7299 -1.8017 0.9746
5.9843 -1.5161 -1.8017 0.9746
6.0348 -1.3003 -1.8017 0.9746
6.0776 -1.0828 -1.8017 0.9746
6.1700 -0.2018 -1.8017 0.9746
6.1733 0.0198 -1.8017 0.9746
6.1686 0.2414 -1.8017 0.9746
6.1560 0.4626 -1.8017 0.9746
6.0706 1.1218 -1.8017 0.9746
6.0264 1.3389 -1.8017 0.9746
5.9744 1.5544 -1.8017 0.9746
5.8475 1.9790 -1.8017 0.9746
5.6905 2.3935 -1.8017 0.9746
5.6009 2.5962 -1.8017 0.9746
5.5041 2.7956 -1.8017 0.9746
5.4002 2.9913 -1.8017 0.9746
5.2893 3.1833 -1.8017 0.9746
5.0473 3.5546 -1.8017 0.9746
4.9165 3.7334 -1.8017 0.9746
4.7724 3.9019 -1.7991 0.9746
4.1480 4.2123 -1.7254 0.9757
3.8693 4.2223 -1.6714 0.9764
3.3480 4.5526 -1.6493 0.9767
3.1824 4.6699 -1.6493 0.9767
3.0127 4.7811 -1.6493 0.9767
2.6619 4.9849 -1.6493 0.9767
2.2974 5.1631 -1.6493 0.9767
1.7291 5.3801 -1.6493 0.9767
1.5348 5.4387 -1.6493 0.9767
0.9413 5.5722 -1.6493 0.9767
0.1341 5.6496 -1.6493 0.9767
-0.0688 5.6507 -1.6493 0.9767
-0.2716 5.6446 -1.6493 0.9767
-0.4741 5.6312 -1.6493 0.9767
-1.0767 5.5476 -1.6493 0.9767
-2.0500 5.2662 -1.6493 0.9767
-2.2377 5.1892 -1.6493 0.9767
-2.6042 5.0153 -1.6493 0.9767
-2.7826 4.9186 -1.6493 0.9767
-3.1283 4.7063 -1.6493 0.9767
-3.2952 4.5910 -1.6493 0.9767
-3.4579 4.4697 -1.6493 0.9767
-3.7277 4.4767 -1.7002 0.9760
-4.2693 4.4368 -1.7970 0.9747
-4.4339 4.2885 -1.8003 0.9746
-4.7338 3.9624 -1.8017 0.9746
-5.0059 3.6126 -1.8017 0.9746
-5.1324 3.4305 -1.8017 0.9746
-5.2522 3.2441 -1.8017 0.9746
-1.1548 0.6572 -0.3878 0.9945
-1.1603 0.6063 -0.3821 0.9946
-1.1644 0.5562 -0.3766 0.9946
-1.1672 0.5069 -0.3714 0.9947
-1.1686 0.4583 -0.3663 0.9948
-1.1687 0.4106 -0.3615 0.9949
-1.1697 0.3644 -0.3576 0.9949
-1.1695 0.3187 -0.3538 0.9950
-1.1720 0.2746 -0.3513 0.9950
-1.1819 0.1888 -0.3493 0.9950
-1.1874 0.1030 -0.3478 0.9950
-1.1882 0.0175 -0.3468 0.9951
-1.1871 -0.1107 -0.3480 0.9950
-1.1812 -0.1964 -0.3495 0.9950
-1.1709 -0.2823 -0.3515 0.9950
-1.1668 -0.5156 -0.3723 0.9947
-1.1595 -0.6153 -0.3831 0.9945
-5.2313 -3.2777 -1.8017 0.9746
-4.7083 -3.9927 -1.8017 0.9746
-3.7460 -4.9068 -1.8017 0.9746
-3.5675 -5.0382 -1.8017 0.9746
-3.3843 -5.1630 -1.8017 0.9746
-3.0052 -5.3925 -1.8017 0.9746
-2.4081 -5.6843 -1.8017 0.9746
-1.7830 -5.9102 -1.8017 0.9746
-1.3544 -6.0229 -1.8017 0.9746
-0.6990 -6.1336 -1.8017 0.9746
-0.4527 -5.8233 -1.8017 0.9758
0.3854 -5.8282 -1.8017 0.9758
1.2156 -5.7130 -1.8017 0.9758
1.4199 -5.6657 -1.8017 0.9758
1.6224 -5.6111 -1.8017 0.9758
2.2162 -5.4041 -1.8017 0.9758
2.4087 -5.3211 -1.8017 0.9758
2.5987 -5.2312 -1.8017 0.9758
2.9668 -5.0313 -1.8017 0.9758
3.1455 -4.9216 -1.8017 0.9758
3.8175 -4.4207 -1.8017 0.9758
3.9737 -4.2808 -1.8017 0.9758
4.1249 -4.1354 -1.8017 0.9758
4.7970 -3.3325 -1.8017 0.9758
4.9135 -3.1581 -1.8017 0.9758
5.3984 -2.2300 -1.8017 0.9758
5.6620 -1.4344 -1.8017 0.9758
5.7099 -1.2303 -1.8017 0.9758
5.8272 -0.4004 -1.8017 0.9758
5.8364 0.2284 -1.8017 0.9758
5.8050 0.6465 -1.8017 0.9758
5.7019 1.2668 -1.8017 0.9758
5.6527 1.4707 -1.8017 0.9758
4.6517 3.5324 -1.8017 0.9758
4.3820 3.8533 -1.7999 0.9759
4.0830 4.1463 -1.7950 0.9759
3.8543 4.2059 -1.7597 0.9764
3.5933 4.2154 -1.7086 0.9771
3.3464 4.2240 -1.6623 0.9777
3.1677 4.3075 -1.6493 0.9779
2.6863 4.6231 -1.6493 0.9779
2.1737 4.8850 -1.6493 0.9779
1.8176 5.0284 -1.6493 0.9779
0.8906 5.2721 -1.6493 0.9779
0.7008 5.3007 -1.6493 0.9779
0.3186 5.3373 -1.6493 0.9779
0.1268 5.3453 -1.6493 0.9779
-0.0651 5.3464 -1.6493 0.9779
-0.4485 5.3280 -1.6493 0.9779
-0.6395 5.3085 -1.6493 0.9779
-0.8296 5.2821 -1.6493 0.9779
-1.0187 5.2489 -1.6493 0.9779
-1.5771 5.1090 -1.6493 0.9779
-1.7595 5.0490 -1.6493 0.9779
-1.9396 4.9826 -1.6493 0.9779
-2.1172 4.9098 -1.6493 0.9779
-2.7981 4.5562 -1.6493 0.9779
-2.9598 4.4529 -1.6493 0.9779
-3.1271 4.3568 -1.6542 0.9778
-3.8855 4.3395 -1.7967 0.9759
-4.3415 3.9074 -1.8017 0.9758
-4.4789 3.7491 -1.8017 0.9758
-4.6106 3.5858 -1.8017 0.9758
-4.7363 3.4180 -1.8017 0.9758
-4.8560 3.2458 -1.8017 0.9758
-1.0997 0.6259 -0.3903 0.9947
-1.1057 0.5778 -0.3848 0.9948
-1.1164 0.4379 -0.3699 0.9950
-1.1191 0.3932 -0.3659 0.9950
-1.1205 0.3491 -0.3620 0.9951
-1.1209 0.3055 -0.3584 0.9951
-1.1316 0.2226 -0.3557 0.9952
-1.1360 0.1814 -0.3548 0.9952
-1.1392 0.1402 -0.3541 0.9952
-1.1424 0.0579 -0.3528 0.9952
-1.1422 0.0168 -0.3524 0.9952
-1.1424 -0.0242 -0.3524 0.9952
-1.1423 -0.0652 -0.3529 0.9952
-1.1251 -0.2713 -0.3570 0.9952
-1.1204 -0.3569 -0.3627 0.9951
-1.1187 -0.4011 -0.3666 0.9950
-4.9496 -3.1012 -1.8017 0.9758
-4.7144 -3.4483 -1.8017 0.9758
-4.4548 -3.7777 -1.8017 0.9758
-4.3163 -3.9351 -1.8017 0.9758
-4.1723 -4.0875 -1.8017 0.9758
-4.0229 -4.2347 -1.8017 0.9758
-3.7087 -4.5124 -1.8017 0.9758
-3.5443 -4.6426 -1.8017 0.9758
-3.3754 -4.7669 -1.8017 0.9758
-3.2021 -4.8849 -1.8017 0.9758
-2.6584 -5.2009 -1.8017 0.9758
-2.4700 -5.2929 -1.8017 0.9758
-2.2784 -5.3782 -1.8017 0.9758
-1.0761 -5.7409 -1.8017 0.9758
-0.4293 -5.5231 -1.8017 0.9770
-0.2308 -5.5350 -1.8017 0.9770
0.1669 -5.5373 -1.8017 0.9770
0.9577 -5.4564 -1.8017 0.9770
1.1529 -5.4185 -1.8017 0.9770
1.5387 -5.3218 -1.8017 0.9770
1.7288 -5.2631 -1.8017 0.9770
1.9166 -5.1977 -1.8017 0.9770
2.4642 -4.9615 -1.8017 0.9770
3.4679 -4.3201 -1.8017 0.9770
3.6207 -4.1928 -1.8017 0.9770
3.7689 -4.0601 -1.8017 0.9770
4.0505 -3.7793 -1.8017 0.9770
4.1835 -3.6314 -1.8017 0.9770
4.4333 -3.3219 -1.8017 0.9770
4.8631 -2.6532 -1.8017 0.9770
4.9552 -2.4769 -1.8017 0.9770
5.3178 -1.5524 -1.8017 0.9770
5.3701 -1.3605 -1.8017 0.9770
5.4155 -1.1668 -1.8017 0.9770
5.4853 -0.7753 -1.8017 0.9770
5.5095 -0.5779 -1.8017 0.9770
5.5368 -0.1811 -1.8017 0.9770
5.5398 0.0178 -1.8017 0.9770
5.5242 0.4152 -1.8017 0.9770
5.4802 0.8105 -1.8017 0.9770
5.4079 1.2015 -1.8017 0.9770
5.1803 1.9631 -1.8017 0.9770
5.1065 2.1478 -1.8017 0.9770
5.0261 2.3298 -1.8017 0.9770
4.9392 2.5087 -1.8017 0.9770
4.7465 2.8566 -1.8017 0.9770
4.6409 3.0251 -1.8017 0.9770
4.5293 3.1898 -1.8017 0.9770
4.4119 3.3503 -1.8017 0.9770
4.2888 3.5065 -1.8017 0.9770
4.0241 3.8032 -1.8008 0.9770
3.8800 3.9402 -1.7985 0.9770
3.7314 4.0718 -1.7962 0.9770
3.5786 4.1982 -1.7941 0.9771
3.3341 4.2084 -1.7462 0.9777
2.8785 4.2240 -1.6624 0.9787
2.5478 4.3847 -1.6493 0.9789
2.3887 4.4733 -1.6493 0.9789
2.2266 4.5562 -1.6493 0.9789
