ply
format ascii 1.0
element vertex 1546
property float32 x
property float32 y
property float32 z
property float32 I
end_header
-71.7986 -41.4734 13.2033 0.7147
-22.0032 -14.9121 4.2326 0.8979
-57.2173 -41.8517 11.2882 0.7504
-34.6312 -29.3673 7.2304 0.8320
-34.4591 -31.4160 7.4253 0.8279
-32.6425 -31.9795 7.2765 0.8310
-32.2883 -33.9883 7.4650 0.8271
-23.9002 -33.7529 6.5857 0.8458
-24.8158 -37.8577 7.2080 0.8325
-24.8354 -41.0278 7.6368 0.8234
-15.2969 -32.7799 5.7601 0.8637
-14.5069 -37.9858 6.4748 0.8482
-5.9221 -31.5947 5.1187 0.8779
-3.3886 -43.5923 6.2809 0.8380
-0.2517 -43.6119 6.2650 0.8384
1.3025 -43.2128 6.2103 0.8397
2.7763 -41.9808 6.0437 0.8437
7.6634 -43.6616 6.3679 0.8360
8.8781 -41.7243 6.1279 0.8417
17.6891 -43.1351 6.6971 0.8283
19.4521 -42.9716 6.7759 0.8265
23.3589 -43.0766 7.0392 0.8204
25.0864 -42.5433 7.0947 0.8191
33.6847 -41.9628 7.7298 0.8046
61.8196 -71.5878 13.5872 0.6823
61.8502 -66.6302 13.0595 0.6925
61.8864 -57.7431 12.1587 0.7103
59.7801 -51.8914 11.3714 0.7262
61.9345 -49.9785 11.4323 0.7250
61.9565 -46.4252 11.1214 0.7314
59.7910 -41.5370 10.4581 0.7451
79.4021 -36.1891 12.5349 0.7028
46.7562 10.3883 6.8803 0.8240
39.9748 11.9480 5.9934 0.8448
40.0460 15.1761 6.1518 0.8411
40.0024 16.8255 6.2339 0.8391
40.0172 18.5493 6.3360 0.8367
38.8076 21.4969 6.3729 0.8359
40.0751 26.1225 6.8718 0.8242
40.1284 28.2603 7.0504 0.8201
40.1072 32.7915 7.4419 0.8111
40.1230 35.2818 7.6751 0.8058
40.3760 38.1598 7.9805 0.7989
10.4492 11.4025 2.2217 0.9394
9.0786 11.4593 2.1001 0.9426
8.5053 11.5655 2.0623 0.9436
7.9177 11.6184 2.0197 0.9448
6.7552 11.6257 1.9315 0.9471
5.6848 11.6324 1.8599 0.9490
5.1775 11.6355 1.8294 0.9498
4.6859 11.6386 1.8023 0.9506
1.9689 11.6556 1.6980 0.9534
1.1174 11.6610 1.6828 0.9538
0.2768 11.6662 1.6763 0.9539
-0.1421 11.6689 1.6764 0.9539
-0.5616 11.6715 1.6785 0.9539
-1.4067 11.6768 1.6895 0.9536
-2.7064 11.6849 1.7230 0.9527
-49.5163 74.4935 12.8493 0.6967
-49.5825 64.0910 11.6401 0.7208
-45.0909 54.1512 10.1225 0.7522
-44.8069 40.3270 8.6595 0.7838
-44.8247 37.5200 8.3971 0.7896
-49.0906 35.4266 8.6964 0.7830
-64.5406 30.8267 10.2745 0.7490
-62.5958 24.5517 9.6588 0.7621
-62.7677 22.0538 9.5569 0.7643
-64.1329 19.9777 9.6493 0.7623
-21.9987 -8.7915 3.4031 0.9087
-71.4628 -41.2794 11.8552 0.7164
-66.7710 -41.8357 11.3188 0.7273
-22.0035 -14.9124 3.8183 0.8982
-34.6969 -29.4230 6.5350 0.8321
-34.4590 -31.4159 6.6984 0.8283
-32.6389 -31.9760 6.5637 0.8314
-32.9853 -37.3178 7.1546 0.8177
-26.2971 -31.9960 5.9494 0.8459
-24.8164 -37.8586 6.5026 0.8328
-24.8360 -41.0288 6.8895 0.8238
-15.2974 -32.7809 5.1965 0.8640
-14.9964 -39.2674 6.0381 0.8438
-14.1661 -41.5061 6.3000 0.8376
-7.1031 -31.5873 4.6508 0.8774
-5.9221 -31.5947 4.6176 0.8782
-4.9672 -43.5824 6.3011 0.8376
-3.4525 -44.4139 5.7080 0.8356
1.3072 -43.3687 5.5594 0.8395
2.7756 -41.9698 5.3894 0.8440
7.7642 -44.2355 5.7546 0.8343
8.8794 -41.7305 5.4667 0.8419
12.8713 -44.5162 5.9375 0.8295
13.7120 -41.7456 5.6301 0.8376
15.4073 -41.7842 5.7062 0.8356
18.1942 -44.3665 6.1442 0.8242
20.8752 -42.0304 6.0131 0.8276
25.0817 -42.5353 6.3271 0.8194
26.7768 -41.8960 6.3709 0.8183
30.0341 -43.4707 6.7701 0.8081
33.6741 -41.9496 6.8926 0.8050
61.8434 -71.6155 12.1241 0.6828
61.9335 -49.9777 10.1971 0.7255
59.8433 -41.5733 9.3365 0.7454
59.8625 -38.4763 9.1180 0.7505
46.5579 1.8217 5.9701 0.8287
40.2187 12.0209 5.3785 0.8443
40.0455 15.1759 5.4872 0.8414
40.0166 18.5491 5.6514 0.8371
40.0280 20.3306 5.7525 0.8344
38.8056 21.4958 5.6841 0.8362
11.3419 11.5177 2.0712 0.9369
10.6315 11.6014 2.0163 0.9385
9.1983 11.6104 1.8979 0.9420
8.5413 11.6145 1.8473 0.9435
6.2099 11.6291 1.6892 0.9482
5.6848 11.6324 1.6589 0.9491
5.1775 11.6355 1.6318 0.9499
4.6859 11.6386 1.6076 0.9507
4.2081 11.6416 1.5861 0.9513
3.2870 11.6474 1.5507 0.9524
1.9689 11.6557 1.5146 0.9534
-0.1421 11.6689 1.4953 0.9540
-0.5617 11.6715 1.4972 0.9540
-2.2673 11.6822 1.5248 0.9531
-2.7064 11.6849 1.5368 0.9528
-22.5970 39.9433 5.8802 0.8310
-49.5175 74.4952 11.4615 0.6972
-44.7464 49.9745 8.5950 0.7630
-44.7683 46.5246 8.2729 0.7708
-45.1953 37.8302 7.5518 0.7885
-53.0382 35.4514 8.1742 0.7732
-65.5263 28.4556 9.1535 0.7497
-67.2024 26.3585 9.2494 0.7474
-85.9734 26.7811 11.5380 0.6955
-69.7773 11.1434 9.0539 0.7520
-80.8709 9.9532 10.4403 0.7199
-21.9992 -8.7918 3.0355 0.9089
-66.9516 -41.9488 10.1233 0.7272
-61.3216 -41.5592 9.4917 0.7418
-56.9235 -41.6367 9.0366 0.7525
-54.9089 -43.2723 8.9577 0.7543
-50.4518 -42.7831 8.4758 0.7659
-34.4590 -31.4159 5.9748 0.8286
-32.6353 -31.9724 5.8538 0.8317
-33.0883 -37.4344 6.4016 0.8175
-24.3255 -31.8634 5.1365 0.8507
-25.7191 -39.2357 6.0111 0.8276
-16.3124 -31.9136 4.5923 0.8654
-15.2978 -32.7819 4.6352 0.8643
-14.1179 -33.3256 4.6374 0.8642
-15.1314 -39.6210 5.4343 0.8428
-14.1661 -41.5060 5.6194 0.8379
-7.1031 -31.5873 4.1484 0.8776
-5.9781 -39.7194 5.1466 0.8505
-3.4525 -44.4138 5.0193 0.8358
2.7743 -41.9503 4.7370 0.8443
4.3022 -42.0566 4.7634 0.8435
6.1697 -44.4742 5.0590 0.8347
10.4597 -41.7364 4.8480 0.8410
12.8713 -44.5162 5.2212 0.8298
13.7040 -41.7210 4.9479 0.8380
18.2694 -44.5500 5.4253 0.8238
25.0770 -42.5273 5.5627 0.8198
30.8437 -44.6424 6.1138 0.8038
32.6687 -43.8319 6.1595 0.8025
59.7286 -59.8820 9.5296 0.7114
61.9325 -49.9769 8.9668 0.7259
61.9546 -46.4238 8.7229 0.7323
59.8424 -41.5727 8.2100 0.7458
59.8617 -38.4758 8.0178 0.7509
75.2346 -37.6077 9.4770 0.7128
79.4851 -36.2269 9.8421 0.7035
46.9752 10.4370 5.4219 0.8239
40.2764 10.4789 4.6891 0.8458
40.0166 13.5432 4.7600 0.8436
40.0449 15.1757 4.8251 0.8417
40.2291 16.9208 4.9174 0.8389
40.0161 18.5488 4.9696 0.8373
40.0833 24.1233 5.2711 0.8284
40.1272 28.2595 5.5299 0.8207
40.1412 30.4823 5.6791 0.8164
40.1059 32.7905 5.8370 0.8118
40.1217 35.2806 6.0198 0.8065
11.4194 11.5964 1.8338 0.9366
10.6315 11.6014 1.7730 0.9386
9.1983 11.6104 1.6690 0.9421
8.5413 11.6145 1.6244 0.9436
7.3235 11.6221 1.5478 0.9462
6.7552 11.6257 1.5150 0.9473
6.2099 11.6291 1.4854 0.9483
4.2081 11.6416 1.3948 0.9514
3.2870 11.6474 1.3636 0.9525
2.8405 11.6502 1.3511 0.9529
1.9689 11.6557 1.3319 0.9535
1.5412 11.6583 1.3250 0.9538
0.6963 11.6636 1.3165 0.9541
0.2768 11.6663 1.3148 0.9541
-0.1421 11.6689 1.3149 0.9541
-0.5616 11.6715 1.3166 0.9541
-0.9828 11.6742 1.3200 0.9539
-9.5523 18.3962 2.3355 0.9199
-51.8842 84.4849 11.1709 0.6709
-44.7236 53.7101 7.8750 0.7548
-45.1165 50.3878 7.6206 0.7617
-45.3932 47.1739 7.3763 0.7683
-57.4532 51.7089 8.7092 0.7326
-45.1960 37.8308 6.6409 0.7888
-45.6720 35.5207 6.5191 0.7922
-62.3950 35.5100 8.0890 0.7490
-70.1457 33.5038 8.7588 0.7313
-72.3528 28.3786 8.7569 0.7314
-78.9503 27.7397 9.4287 0.7140
-63.3963 19.7483 7.4816 0.7655
-66.1040 15.4897 7.6499 0.7609
-68.6114 13.4992 7.8788 0.7547
-66.9419 -41.9428 8.9007 0.7276
-56.9062 -41.6241 7.9439 0.7529
-53.9901 -42.5483 7.7452 0.7583
-50.4517 -42.7831 7.4533 0.7662
-34.4590 -31.4159 5.2540 0.8289
-32.6317 -31.9689 5.1471 0.8320
-34.7184 -39.2786 5.9067 0.8098
-24.3254 -31.8634 4.5168 0.8510
-23.9017 -33.7551 4.6602 0.8466
-25.9410 -39.5742 5.3315 0.8266
-24.8372 -41.0308 5.4041 0.8244
-15.2983 -32.7828 4.0761 0.8645
-14.1179 -33.3256 4.0779 0.8644
-8.4091 -31.9838 3.7262 0.8754
-7.1031 -31.5873 3.6479 0.8778
-5.9787 -39.7236 4.5262 0.8507
-1.7726 -42.5090 4.1383 0.8428
-0.2517 -43.6119 4.2421 0.8392
1.3102 -43.4683 4.2300 0.8396
2.7740 -41.9463 4.0889 0.8446
4.3022 -42.0565 4.1121 0.8437
6.0548 -43.6463 4.2860 0.8377
7.6407 -43.5321 4.2990 0.8373
8.8674 -41.6743 4.1443 0.8426
18.2694 -44.5500 4.6835 0.8241
19.4171 -42.8941 4.5795 0.8276
20.8753 -42.0305 4.5647 0.8281
24.1853 -44.6007 4.9350 0.8155
25.0723 -42.5193 4.8012 0.8201
26.7544 -41.8611 4.8323 0.8190
32.6687 -43.8318 5.3173 0.8028
61.9678 -66.7568 8.8596 0.6935
61.8833 -57.7402 8.2325 0.7117
61.9315 -49.9761 7.7407 0.7263
61.9536 -46.4231 7.5302 0.7326
59.8608 -38.4752 6.9215 0.7513
61.1199 -36.2521 6.9121 0.7516
66.2473 -36.1438 7.3404 0.7384
75.2335 -37.6072 8.1811 0.7132
46.9757 10.4371 4.6806 0.8242
40.2765 10.4790 4.0480 0.8460
40.2177 12.0206 4.0829 0.8448
40.2285 16.9206 4.2450 0.8391
38.8049 21.4954 4.3148 0.8367
40.0827 24.1230 4.5504 0.8286
40.1135 26.1476 4.6575 0.8249
11.4194 11.5965 1.5830 0.9367
10.6315 11.6014 1.5306 0.9387
3.9235 4.6028 0.5883 0.9760
7.9177 11.6184 1.3676 0.9451
7.3235 11.6221 1.3362 0.9463
6.7553 11.6257 1.3078 0.9474
6.2818 11.7636 1.2971 0.9478
5.2374 11.7702 1.2531 0.9495
4.7402 11.7733 1.2345 0.9503
1.9689 11.6557 1.1498 0.9536
1.5633 11.8251 1.1602 0.9532
0.7063 11.8305 1.1528 0.9535
-0.1442 11.8358 1.1513 0.9535
-0.5697 11.8385 1.1528 0.9535
-1.6129 13.3882 1.3117 0.9472
-2.0930 13.3256 1.3120 0.9472
-43.8200 77.4580 8.6562 0.6993
-51.9767 84.6356 9.6608 0.6709
-49.5197 74.4986 8.7011 0.6980
-43.4773 56.1993 6.9112 0.7516
-44.7699 46.5262 6.2804 0.7714
-44.8091 40.3291 5.8638 0.7848
-45.5224 35.4044 5.6094 0.7931
-49.0908 35.4267 5.8885 0.7840
-53.0384 35.4515 6.2053 0.7738
-64.5443 30.8284 6.9574 0.7502
-62.5984 24.5527 6.5404 0.7632
-62.7701 22.0547 6.4714 0.7654
-68.6121 13.4993 6.8017 0.7550
-69.7965 11.1465 6.8750 0.7527
-89.6434 -35.8251 9.3899 0.6784
-74.6932 -43.1454 8.3902 0.7070
-61.3353 -41.5685 7.2070 0.7425
-56.8438 -41.5785 6.8503 0.7535
-54.1808 -42.6986 6.7099 0.7579
-50.4517 -42.7830 6.4342 0.7666
-34.4589 -31.4158 4.5356 0.8291
-32.6281 -31.9654 4.4428 0.8323
-32.4013 -34.1073 4.5759 0.8277
-24.8378 -41.0318 4.6653 0.8247
-16.3123 -31.9135 3.4862 0.8659
-14.1178 -33.3256 3.5204 0.8646
-15.1487 -39.6661 4.1300 0.8431
-8.4076 -31.9781 3.2162 0.8756
-7.1031 -31.5872 3.1491 0.8780
-5.9787 -39.7236 3.9073 0.8509
-5.0608 -44.4037 4.3470 0.8356
-1.7713 -42.4775 3.4823 0.8431
-0.2517 -43.6118 3.5722 0.8394
1.3096 -43.4471 3.5603 0.8399
4.2899 -41.9366 3.4529 0.8444
7.8078 -44.4844 3.6993 0.8342
8.8719 -41.6953 3.4916 0.8427
12.8712 -44.5161 3.7956 0.8303
18.2694 -44.5500 3.9439 0.8243
24.1853 -44.6006 4.1557 0.8158
25.0676 -42.5114 4.0423 0.8203
26.7476 -41.8504 4.0682 0.8193
30.8436 -44.6424 4.4444 0.8043
33.6418 -41.9093 4.4019 0.8060
61.8400 -71.6114 7.7499 0.6840
61.9667 -66.7557 7.4605 0.6938
61.9305 -49.9753 6.5182 0.7266
59.7242 -44.7525 6.1129 0.7412
59.8156 -41.5541 5.9656 0.7465
46.9762 10.4372 3.9416 0.8244
39.9374 10.3907 3.3801 0.8474
40.0334 13.5489 3.4618 0.8440
40.0438 15.1753 3.5075 0.8421
38.8054 21.4957 3.6336 0.8369
40.1211 24.1461 3.8355 0.8287
40.1204 35.2795 4.3760 0.8070
38.8947 36.7598 4.3835 0.8067
11.4194 11.5965 1.3331 0.9368
10.7366 11.7161 1.3016 0.9382
9.2842 11.7189 1.2246 0.9418
8.6445 11.7548 1.1951 0.9431
8.0133 11.7588 1.1655 0.9445
6.2987 11.7955 1.0953 0.9477
5.2516 11.8021 1.0581 0.9495
3.7959 11.8112 1.0162 0.9514
3.3340 11.8141 1.0055 0.9519
2.8811 11.8169 0.9963 0.9524
2.4359 11.8197 0.9885 0.9527
1.9689 11.6557 0.9682 0.9537
1.5633 11.8251 0.9770 0.9533
1.1334 11.8278 0.9732 0.9534
0.7063 11.8305 0.9707 0.9535
0.2808 11.8332 0.9695 0.9536
-0.5697 11.8385 0.9708 0.9535
-1.6765 13.9166 1.1481 0.9453
-2.7022 13.9231 1.1617 0.9447
-9.5516 18.3948 1.6977 0.9202
-43.8593 71.4176 6.8647 0.7144
-43.6747 60.8485 6.1349 0.7404
-43.6305 56.3973 5.8404 0.7511
-44.7253 53.7122 5.7250 0.7554
-44.7489 49.9773 5.4947 0.7640
-44.7910 43.3221 5.1040 0.7787
-45.5223 35.4044 4.7236 0.7934
-49.0908 35.4267 4.9586 0.7843
-57.4409 35.4791 5.5300 0.7626
-64.1275 27.8482 5.7265 0.7553
-66.0670 25.9132 5.8128 0.7522
-72.3093 19.7069 6.1388 0.7402
-72.2010 -12.0056 5.9950 0.7455
-74.6931 -43.1453 7.0653 0.7074
-66.9227 -41.9307 6.4686 0.7284
-61.3159 -41.5554 6.0670 0.7428
-55.2128 -43.5118 5.7579 0.7542
-50.4516 -42.7830 5.4182 0.7668
-34.4589 -31.4158 3.8194 0.8293
-32.6245 -31.9619 3.7409 0.8325
-32.4018 -34.1079 3.8534 0.8279
-34.9512 -39.5420 4.3227 0.8091
-26.2851 -31.9815 3.3906 0.8469
-24.8384 -41.0328 3.9287 0.8249
-23.2828 -41.7783 3.9175 0.8253
-15.2992 -32.7848 2.9633 0.8648
-14.1179 -33.3256 2.9645 0.8648
-14.1661 -41.5059 3.5922 0.8386
-7.1031 -31.5872 2.6519 0.8782
-5.9787 -39.7236 3.2903 0.8511
-5.0608 -44.4037 3.6606 0.8358
-1.7705 -42.4585 2.8296 0.8434
1.3396 -44.4438 2.9607 0.8367
2.7763 -41.9810 2.8015 0.8448
4.2922 -41.9585 2.8085 0.8444
7.8078 -44.4844 3.0074 0.8344
10.4550 -41.7173 2.8637 0.8416
13.7133 -41.7495 2.9261 0.8385
15.3796 -41.7090 2.9601 0.8368
18.2694 -44.5499 3.2062 0.8245
19.3939 -42.8428 3.1317 0.8282
20.9308 -42.1423 3.1332 0.8281
24.1853 -44.6006 3.3784 0.8160
25.0629 -42.5034 3.2856 0.8205
26.8296 -41.9787 3.3174 0.8190
32.6687 -43.8317 3.6401 0.8032
33.6566 -41.9277 3.5801 0.8061
61.7240 -66.4942 6.0412 0.6951
59.7005 -59.8539 5.6291 0.7126
59.7978 -48.2543 5.1165 0.7349
59.8386 -41.5700 4.8516 0.7467
66.2470 -36.1436 5.0250 0.7389
75.2064 -37.5936 5.5986 0.7139
79.4848 -36.2267 5.8164 0.7046
87.3865 -36.0983 6.2957 0.6845
40.0232 11.9625 2.7815 0.8458
40.0331 13.5488 2.8142 0.8441
40.0038 16.8260 2.8898 0.8403
40.0146 18.5481 2.9368 0.8379
40.1083 22.2174 3.0531 0.8321
40.1207 24.1458 3.1180 0.8288
40.1124 26.1469 3.1883 0.8253
3.9228 4.6019 0.4026 0.9761
8.0133 11.7588 0.9475 0.9446
7.4120 11.7626 0.9258 0.9458
6.2988 11.7955 0.8904 0.9478
4.7530 11.8052 0.8474 0.9503
4.2684 11.8082 0.8361 0.9509
3.7959 11.8112 0.8261 0.9515
3.3340 11.8141 0.8174 0.9520
2.8811 11.8169 0.8099 0.9524
1.9689 11.6557 0.7871 0.9537
-1.1651 13.8391 0.9248 0.9458
-2.7022 13.9231 0.9444 0.9447
-9.5509 18.3936 1.3800 0.9203
-43.9220 77.6383 5.9396 0.6994
-43.9602 71.5820 5.5935 0.7141
-43.7115 56.5021 4.7567 0.7510
-44.7262 53.7132 4.6542 0.7556
-44.7497 49.9782 4.4670 0.7642
-45.0173 46.7833 4.3231 0.7708
-56.2145 54.3710 5.2075 0.7309
-57.4409 35.4791 4.4956 0.7629
-62.3953 35.5102 4.7804 0.7499
-68.0275 35.5455 5.1108 0.7351
-71.8759 31.2130 5.2178 0.7304
-72.3552 28.3795 5.1753 0.7323
-78.9528 27.7405 5.5723 0.7150
-90.6572 -5.1786 6.0464 0.6949
-74.6930 -43.1452 5.7437 0.7077
-61.3330 -41.5670 4.9335 0.7430
-55.5021 -43.7399 4.7054 0.7533
-34.4589 -31.4158 3.1049 0.8295
-32.6209 -31.9584 3.0408 0.8327
-23.9033 -33.7573 2.7543 0.8472
-25.9568 -39.5983 3.1527 0.8271
-24.8390 -41.0338 3.1939 0.8251
-14.1661 -41.5059 2.9203 0.8388
-7.1661 -23.7534 1.6521 0.9053
-6.2482 -23.7647 1.6362 0.9062
-7.1031 -31.5872 2.1558 0.8783
-5.9787 -39.7235 2.6749 0.8513
-5.0608 -44.4037 2.9758 0.8360
-3.4525 -44.4137 2.2851 0.8366
1.3396 -44.4438 2.2808 0.8369
4.4117 -43.1268 2.2238 0.8406
7.8078 -44.4843 2.3168 0.8345
9.1829 -43.1567 2.2634 0.8380
10.6040 -42.3121 2.2376 0.8397
19.3823 -42.8173 2.4109 0.8284
24.1852 -44.6006 2.6026 0.8161
10.3774 -15.0200 0.9365 0.9295
12.0712 -16.1960 1.0362 0.9223
12.6395 -15.7456 1.0357 0.9223
13.1912 -15.2756 1.0353 0.9223
59.7501 -55.7499 4.1920 0.7209
17.5790 -15.2592 1.1941 0.9110
59.7969 -48.2536 3.9415 0.7351
59.9582 -44.9278 3.8433 0.7408
60.9550 -36.1544 3.6354 0.7529
66.2469 -36.1435 3.8711 0.7391
57.6014 -14.5929 3.0481 0.7882
73.5072 13.5831 3.8345 0.7413
46.9767 10.4373 2.4685 0.8247
40.2778 10.4793 2.1349 0.8465
40.1284 16.8785 2.2331 0.8400
40.0252 20.3292 2.3028 0.8354
40.1301 22.2295 2.3533 0.8321
40.1391 30.4807 2.5854 0.8172
11.5777 11.7572 0.8464 0.9360
8.6445 11.7548 0.7485 0.9432
8.0133 11.7588 0.7299 0.9446
6.7553 11.6257 0.6897 0.9476
6.2988 11.7955 0.6859 0.9479
5.7662 11.7988 0.6737 0.9488
4.7402 11.7733 0.6510 0.9504
3.3250 11.7822 0.6280 0.9521
2.8733 11.7850 0.6222 0.9526
1.9689 11.6557 0.6064 0.9538
1.5591 11.7933 0.6102 0.9535
1.1303 11.7959 0.6079 0.9536
0.2800 11.8013 0.6055 0.9538
-0.1438 11.8039 0.6055 0.9538
-2.1864 13.9199 0.7228 0.9451
-2.7022 13.9231 0.7275 0.9448
-9.5503 18.3924 1.0631 0.9203
-44.0949 66.3373 4.0861 0.7268
-43.7392 60.9382 3.8478 0.7405
-43.7124 56.5033 3.6645 0.7512
-45.1198 50.3915 3.4697 0.7627
-65.1437 54.5278 4.3578 0.7116
-45.6721 35.5208 2.9680 0.7932
-49.6107 35.8019 3.1383 0.7827
-58.0491 35.8548 3.4999 0.7609
-62.6009 24.5537 3.4494 0.7639
-63.3993 19.7492 3.4063 0.7665
-64.4747 17.5717 3.4280 0.7652
-68.6142 13.4997 3.5871 0.7557
-73.7579 11.7792 3.8315 0.7414
-66.9036 -41.9188 4.0499 0.7289
-61.3660 -41.5893 3.8027 0.7431
-56.9306 -41.6420 3.6182 0.7539
-55.5030 -43.7405 3.6250 0.7535
-50.4515 -42.7829 3.3932 0.7672
-34.4589 -31.4158 2.3920 0.8296
-24.3894 -23.8940 1.7514 0.8722
-32.4030 -34.1091 2.4133 0.8283
-34.9512 -39.5419 2.7072 0.8095
-26.2117 -31.8921 2.1176 0.8476
-15.4378 -23.5511 1.4445 0.8933
-24.8396 -41.0348 2.4606 0.8252
-16.3123 -31.9135 1.8385 0.8663
-14.8161 -31.7495 1.7973 0.8691
-14.1661 -41.5059 2.2497 0.8389
-12.8244 -42.5092 2.2778 0.8371
-6.2645 -23.8269 1.2638 0.9060
-5.9787 -39.7235 2.0606 0.8514
1.1963 -39.6894 1.4307 0.8531
8.4721 -39.8165 1.4667 0.8496
11.5206 -39.8449 1.4944 0.8470
13.0737 -39.8022 1.5095 0.8456
19.2444 -42.5127 1.6814 0.8296
20.9748 -42.2309 1.6989 0.8280
24.9533 -42.3176 1.7701 0.8215
32.1253 -43.1027 1.9369 0.8064
13.1497 -16.3812 0.7569 0.9194
13.1840 -15.2672 0.7268 0.9224
59.7491 -55.7490 2.9443 0.7210
59.6091 -48.1021 2.7598 0.7360
59.8368 -41.5688 2.6251 0.7470
59.8561 -38.4722 2.5637 0.7522
54.5752 -32.3703 2.2862 0.7757
66.2468 -36.1435 2.7190 0.7393
71.4139 -35.6978 2.8766 0.7265
40.2325 12.0250 1.5129 0.8453
40.1904 13.6021 1.5288 0.8438
40.0423 15.1747 1.5429 0.8425
40.1610 16.8922 1.5698 0.8400
40.2241 18.6452 1.5974 0.8374
40.7192 24.5060 1.7123 0.8268
40.1112 26.1461 1.7251 0.8256
40.1245 28.2576 1.7682 0.8217
40.1030 32.7881 1.8664 0.8127
40.1187 35.2780 1.9249 0.8075
40.2175 38.0100 1.9938 0.8013
11.5774 11.7570 0.5945 0.9361
3.9220 4.6011 0.2178 0.9761
9.2842 11.7189 0.5387 0.9419
7.9917 11.7270 0.5113 0.9448
6.7553 11.6257 0.4845 0.9476
6.2818 11.7637 0.4805 0.9480
5.7506 11.7670 0.4719 0.9489
5.2516 11.8021 0.4654 0.9496
4.7530 11.8052 0.4585 0.9503
4.2684 11.8082 0.4524 0.9510
2.8811 11.8169 0.4382 0.9525
2.4359 11.8197 0.4348 0.9528
1.9689 11.6557 0.4259 0.9538
1.1334 11.8279 0.4281 0.9536
-1.1651 13.8391 0.5004 0.9459
-1.6676 13.8422 0.5023 0.9457
-2.1747 13.8454 0.5050 0.9454
-2.6878 13.8486 0.5083 0.9451
-44.0617 77.8853 3.2242 0.6990
-43.7392 60.9383 2.7026 0.7406
-44.7279 53.7153 2.5185 0.7560
-44.7933 43.3243 2.2453 0.7792
-44.8121 40.3317 2.1722 0.7856
-44.8297 37.5242 2.1064 0.7914
-49.0910 35.4268 2.1812 0.7848
-64.5491 30.8307 2.5774 0.7510
-62.6017 24.5540 2.4229 0.7640
-65.5829 23.0429 2.5046 0.7571
-66.8941 -41.9128 2.8442 0.7291
-61.2346 -41.5003 2.6653 0.7437
-33.0196 -24.1522 1.4740 0.8490
-55.5039 -43.7412 2.5462 0.7536
-34.4588 -31.4157 1.6801 0.8297
-26.1550 -31.8231 1.4842 0.8480
-23.2827 -41.7782 1.7233 0.8258
-16.0685 -31.4366 1.2721 0.8682
-13.7017 -32.3433 1.2656 0.8688
-14.1661 -41.5058 1.5802 0.8390
-7.0819 -31.4929 1.1630 0.8788
-5.9787 -39.7235 1.4474 0.8515
-5.0608 -44.4036 1.6102 0.8362
-3.0821 -39.6485 0.8264 0.8529
-1.6618 -39.8531 0.8289 0.8525
-0.2517 -43.6117 0.9063 0.8399
1.1963 -39.6893 0.8251 0.8531
2.6383 -39.8944 0.8308 0.8522
5.5356 -39.9040 0.8372 0.8511
10.0112 -39.9469 0.8558 0.8481
11.5648 -39.9978 0.8652 0.8466
15.4948 -42.0213 0.9307 0.8359
18.1696 -40.1386 0.9156 0.8384
19.9207 -40.1087 0.9306 0.8360
21.7220 -40.0580 0.9469 0.8333
24.8211 -42.0933 1.0155 0.8224
9.8922 -15.4777 0.3817 0.9291
11.3127 -16.3737 0.4136 0.9235
59.6947 -64.3080 1.8234 0.7039
59.7481 -55.7480 1.6981 0.7211
17.5726 -15.2537 0.4836 0.9111
59.5640 -48.0657 1.5905 0.7362
59.8553 -38.4717 1.4786 0.7523
61.1193 -36.2518 1.4767 0.7525
79.4817 -36.2254 1.8151 0.7051
87.3860 -36.0981 1.9648 0.6850
54.3292 10.0393 1.1481 0.8017
40.0418 15.1745 0.8898 0.8426
40.0021 16.8254 0.9018 0.8406
40.0130 18.5474 0.9165 0.8382
40.0241 20.3287 0.9329 0.8356
40.1239 28.2571 1.0198 0.8217
40.1023 32.7875 1.0764 0.8128
40.2167 38.0093 1.1499 0.8014
11.5772 11.7567 0.3429 0.9361
3.9217 4.6006 0.1256 0.9761
9.3094 11.7507 0.3115 0.9418
8.6445 11.7549 0.3032 0.9433
7.4120 11.7626 0.2889 0.9459
6.7553 11.6257 0.2794 0.9476
6.2988 11.7955 0.2779 0.9479
3.7959 11.8112 0.2578 0.9516
3.3340 11.8141 0.2551 0.9521
2.8811 11.8169 0.2528 0.9525
1.1334 11.8279 0.2469 0.9536
0.7063 11.8306 0.2463 0.9537
0.2808 11.8332 0.2460 0.9537
-0.1442 11.8359 0.2460 0.9537
-0.5697 11.8386 0.2463 0.9537
-1.6714 13.8742 0.2904 0.9456
-2.1797 13.8774 0.2919 0.9453
-43.9237 66.0798 1.6489 0.7280
-43.7392 60.9383 1.5588 0.7407
-43.7141 56.5055 1.4846 0.7514
-44.7287 53.7163 1.4526 0.7560
-44.7522 49.9810 1.3941 0.7646
-44.7739 46.5303 1.3419 0.7723
-44.7940 43.3250 1.2950 0.7793
-44.8128 40.3324 1.2529 0.7857
-44.8304 37.5248 1.2149 0.7914
-45.5225 35.4045 1.1984 0.7940
-62.3954 35.5103 1.4919 0.7503
-72.1077 34.4409 1.6606 0.7264
-85.8704 -17.4673 1.8210 0.7043
-89.6667 -35.8343 2.0066 0.6795
-62.6053 -39.2256 1.5352 0.7441
-33.1385 -24.2392 0.8532 0.8485
-50.1288 -39.5053 1.3263 0.7746
-46.6253 -39.5383 1.2704 0.7830
-34.3558 -31.3219 0.9662 0.8303
-24.7553 -24.2525 0.7202 0.8705
-25.7872 -31.3756 0.8440 0.8500
-23.9618 -31.3871 0.8206 0.8539
-25.9567 -39.5982 0.9839 0.8274
-24.8408 -41.0367 0.9968 0.8254
-14.9883 -26.8949 0.6398 0.8841
-16.0685 -31.4366 0.7337 0.8683
-13.7021 -32.3443 0.7300 0.8689
-15.1486 -39.6660 0.8824 0.8438
-14.1190 -41.3678 0.9083 0.8396
-5.9044 -31.5003 0.6660 0.8797
-5.9787 -39.7235 0.8348 0.8515
-5.0608 -44.4036 0.9287 0.8363
-3.4525 -44.4136 0.2468 0.8368
-1.7477 -41.9132 0.2324 0.8455
6.1229 -44.1370 0.2469 0.8367
9.1828 -43.1566 0.2445 0.8382
10.5233 -41.9901 0.2399 0.8410
12.8712 -44.5160 0.2568 0.8308
13.7991 -42.0106 0.2450 0.8379
19.1802 -42.3708 0.2577 0.8302
9.8920 -15.4774 0.1018 0.9292
12.2079 -16.3793 0.1132 0.9215
13.1492 -16.3806 0.1164 0.9194
59.7073 -69.1417 0.5062 0.6939
59.6936 -64.3069 0.4861 0.7040
59.7213 -59.8747 0.4686 0.7130
59.7471 -55.7471 0.4528 0.7212
59.8593 -44.8538 0.4144 0.7414
59.8544 -38.4711 0.3942 0.7523
66.2467 -36.1434 0.4181 0.7394
25.5853 -10.5690 0.1534 0.8952
26.1812 -9.7303 0.1548 0.8943
57.5867 -14.5892 0.3291 0.7885
38.3497 0.1229 0.2125 0.8578
52.5931 9.7184 0.2963 0.8074
40.0016 16.8251 0.2404 0.8406
40.0124 18.5471 0.2444 0.8383
39.5788 23.8197 0.2559 0.8313
40.1100 26.1453 0.2653 0.8257
40.1233 28.2567 0.2719 0.8218
40.1372 30.4792 0.2792 0.8174
40.2288 43.8988 0.3299 0.7881
3.9213 4.6002 0.0335 0.9761
7.4120 11.7626 0.0770 0.9459
6.7553 11.6257 0.0745 0.9476
5.7662 11.7989 0.0728 0.9488
5.2516 11.8021 0.0716 0.9496
3.3340 11.8141 0.0680 0.9521
1.9689 11.6557 0.0655 0.9538
1.5633 11.8252 0.0661 0.9534
0.7063 11.8306 0.0657 0.9537
-2.1797 13.8774 0.0778 0.9454
-2.6940 13.8806 0.0783 0.9450
-9.5484 18.3887 0.1148 0.9205
-45.3906 54.5112 0.3930 0.7530
-57.6265 55.7367 0.4442 0.7256
-45.0884 40.5804 0.3361 0.7845
-68.7482 35.9220 0.4298 0.7332
-80.2721 25.0051 0.4659 0.7144
-82.3891 19.3057 0.4689 0.7128
-73.7599 11.7795 0.4139 0.7417
-74.0167 -39.2810 0.4643 0.7152
-42.7255 -31.2516 0.2933 0.8092
-50.1287 -39.5052 0.3536 0.7747
-34.1497 -31.1339 0.2560 0.8312
-31.7944 -31.1487 0.2466 0.8369
-29.6037 -31.1624 0.2382 0.8420
-23.8180 -31.1987 0.2175 0.8547
-22.0992 -31.2094 0.2119 0.8582
-17.4092 -31.2388 0.1981 0.8667
-14.5860 -31.2565 0.1911 0.8711
-11.9433 -31.2731 0.1855 0.8747
-10.6763 -31.2810 0.1831 0.8762
-9.4394 -31.2888 0.1811 0.8775
-8.2284 -31.2964 0.1793 0.8786
-7.0394 -31.3038 0.1778 0.8796
-5.9044 -31.5002 0.1776 0.8797
-5.5845 -37.1045 0.2079 0.8606
-5.0608 -44.4036 0.2476 0.8363
14.3196 -31.6332 -0.3367 0.8703
11.3127 -16.3737 -0.1930 0.9235
41.1446 -47.6460 -0.6104 0.7774
9.6009 -10.3429 -0.1368 0.9451
39.5600 -31.9232 -0.4929 0.8160
27.0257 -20.2509 -0.3275 0.8736
46.8233 -32.5282 -0.5528 0.7961
34.6137 -20.5305 -0.3902 0.8513
46.8836 -25.5791 -0.5179 0.8076
40.8698 -20.4297 -0.4430 0.8330
24.2026 -9.9978 -0.2539 0.9005
25.6797 -9.5440 -0.2656 0.8962
28.7106 -9.5122 -0.2933 0.8860
47.6290 -10.2623 -0.4724 0.8229
48.2083 -6.8138 -0.4721 0.8230
73.9702 -7.7587 -0.7212 0.7427
38.3516 0.1229 -0.3719 0.8578
52.5933 9.7185 -0.5186 0.8074
40.2782 10.4794 -0.4036 0.8466
40.0230 20.3281 -0.4353 0.8356
39.5788 23.8197 -0.4479 0.8313
38.7745 25.2748 -0.4488 0.8310
40.1227 28.2563 -0.4758 0.8218
40.1167 35.2762 -0.5180 0.8076
40.2153 38.0080 -0.5365 0.8014
11.5767 11.7562 -0.1600 0.9361
7.4120 11.7626 -0.1348 0.9459
4.7530 11.8052 -0.1234 0.9504
3.7959 11.8112 -0.1203 0.9516
3.3340 11.8141 -0.1190 0.9521
2.8811 11.8169 -0.1179 0.9525
2.4359 11.8197 -0.1170 0.9529
0.7063 11.8306 -0.1149 0.9537
0.2808 11.8332 -0.1148 0.9538
-0.1442 11.8359 -0.1148 0.9538
-1.1651 13.8391 -0.1347 0.9460
-1.6714 13.8742 -0.1355 0.9456
-2.1797 13.8774 -0.1362 0.9454
-2.6940 13.8806 -0.1371 0.9450
-20.7782 77.0184 -0.7735 0.7268
-23.3201 75.5447 -0.7666 0.7289
-9.5478 18.3875 -0.2009 0.9205
-43.9182 66.0715 -0.7693 0.7281
-25.8922 33.4687 -0.4103 0.8443
-28.8832 34.6869 -0.4377 0.8348
-29.9217 33.4177 -0.4349 0.8357
-48.1993 50.0901 -0.6741 0.7572
-45.0885 40.5805 -0.5882 0.7845
-59.6305 49.9130 -0.7540 0.7327
-53.0387 35.4517 -0.6186 0.7748
-57.4412 35.4793 -0.6547 0.7633
-80.2427 34.8464 -0.8483 0.7047
-69.1792 24.3065 -0.7110 0.7458
-63.4023 19.7501 -0.6439 0.7667
-66.1097 15.4910 -0.6584 0.7621
-73.7605 11.7796 -0.7243 0.7417
-94.7168 -12.2741 -0.9261 0.6825
-84.9114 -17.2722 -0.8402 0.7071
-83.1487 -20.0468 -0.8294 0.7102
-70.9339 -19.8214 -0.7142 0.7448
-42.7057 -20.7348 -0.4603 0.8270
-42.6909 -24.6597 -0.4781 0.8210
-42.6786 -26.7404 -0.4884 0.8175
-32.7694 -23.9692 -0.3937 0.8501
-32.7935 -27.8089 -0.4169 0.8420
-24.2965 -27.4878 -0.3557 0.8635
-22.0992 -31.2094 -0.3708 0.8582
-14.6262 -28.6148 -0.3116 0.8794
-14.5860 -31.2565 -0.3345 0.8711
-13.2449 -31.2649 -0.3292 0.8730
-10.6763 -31.2810 -0.3205 0.8762
-7.1059 -23.5541 -0.2386 0.9063
-5.9574 -26.4920 -0.2633 0.8971
-5.5942 -71.9646 -1.8001 0.7491
-0.4178 -72.3958 -1.8055 0.7485
2.0490 -20.0303 -0.5021 0.9226
2.7874 -20.0930 -0.5059 0.9220
3.5279 -20.1000 -0.5089 0.9216
6.6109 -20.1266 -0.5283 0.9187
9.1214 -20.1501 -0.5516 0.9153
9.9831 -20.1002 -0.5597 0.9141
9.8916 -15.4767 -0.4581 0.9291
11.3127 -16.3737 -0.4963 0.9235
13.1487 -16.3800 -0.5238 0.9194
11.3467 -9.8493 -0.3747 0.9417
25.6863 -20.7277 -0.8231 0.8763
29.7868 -20.6930 -0.9045 0.8649
23.2894 -9.6206 -0.6284 0.9041
28.7535 -9.5264 -0.7554 0.8859
65.7000 -19.1791 -1.7068 0.7604
46.1464 -9.9429 -1.1772 0.8279
46.8885 -6.6273 -1.1809 0.8274
38.3673 0.1230 -0.9568 0.8577
74.6072 2.9193 -1.8620 0.7417
74.1821 8.2619 -1.8614 0.7418
40.2783 10.4794 -1.0379 0.8466
40.0201 11.9615 -1.0417 0.8461
40.2214 13.6125 -1.0589 0.8437
31.4770 13.2396 -0.8516 0.8723
31.4446 15.9710 -0.8795 0.8684
31.5138 18.9659 -0.9173 0.8631
31.6067 20.6025 -0.9409 0.8599
26.2424 18.4811 -0.8004 0.8795
25.8851 19.6565 -0.8106 0.8781
25.9259 21.1969 -0.8351 0.8746
31.6471 27.8285 -1.0510 0.8448
11.5765 11.7560 -0.4115 0.9361
3.9206 4.5993 -0.1507 0.9761
9.3094 11.7507 -0.3739 0.9418
8.6445 11.7549 -0.3639 0.9433
8.0134 11.7588 -0.3549 0.9447
4.7530 11.8052 -0.3174 0.9504
4.2684 11.8083 -0.3131 0.9510
3.7959 11.8112 -0.3094 0.9516
2.4359 11.8197 -0.3010 0.9529
1.9689 11.6557 -0.2948 0.9538
1.1334 11.8279 -0.2963 0.9536
0.2808 11.8333 -0.2952 0.9537
-0.1442 11.8359 -0.2952 0.9537
-1.1651 13.8391 -0.3463 0.9459
-1.6714 13.8742 -0.3485 0.9456
-16.1578 69.7606 -1.7858 0.7509
-18.6311 69.0597 -1.7838 0.7511
-20.2803 65.6975 -1.7147 0.7595
-21.4630 49.7734 -1.3518 0.8050
-26.7291 56.3328 -1.5550 0.7792
-9.5471 18.3863 -0.5167 0.9204
-13.9581 22.7284 -0.6652 0.8988
-20.9405 29.1747 -0.8956 0.8662
-28.6144 34.3641 -1.1152 0.8362
-21.0314 23.4887 -0.7863 0.8815
-44.7762 46.5328 -1.6105 0.7723
-44.8150 40.3344 -1.5036 0.7856
-49.0912 35.4270 -1.5098 0.7849
-55.8763 31.8001 -1.6033 0.7732
-58.8937 25.5753 -1.6012 0.7734
-61.8717 16.8623 -1.5993 0.7737
-62.4241 14.6274 -1.5989 0.7737
-63.8472 5.5401 -1.5982 0.7738
-69.9170 3.5444 -1.7459 0.7557
-48.9059 0.7213 -1.2198 0.8223
-69.9982 -1.4812 -1.7460 0.7557
-57.6467 -9.5855 -1.4573 0.7915
-62.3874 -15.0414 -1.6004 0.7735
-61.8291 -17.2772 -1.6010 0.7735
-54.9932 -19.7191 -1.4569 0.7916
-45.1029 -19.9311 -1.2297 0.8209
-42.9566 -20.8566 -1.1909 0.8261
-42.8288 -22.7294 -1.2092 0.8237
-42.8254 -24.7374 -1.2334 0.8205
-42.7961 -26.8141 -1.2594 0.8170
-42.8898 -29.0675 -1.2921 0.8128
-32.7940 -27.8093 -1.0723 0.8419
-25.7078 -23.4375 -0.8676 0.8701
-24.2970 -27.4883 -0.9149 0.8635
-41.8301 -54.7924 -1.7191 0.7589
-39.9877 -56.4724 -1.7256 0.7582
-14.6115 -26.2187 -0.7485 0.8868
-29.7750 -63.8052 -1.7559 0.7545
-27.5514 -65.0359 -1.7614 0.7538
-6.1943 -23.5598 -0.6075 0.9071
-5.9577 -26.4935 -0.6772 0.8970
-13.2204 -70.5310 -1.7896 0.7504
-10.7027 -71.1105 -1.7934 0.7500
4.3910 -20.6364 -0.8480 0.9190
5.1235 -20.4439 -0.8471 0.9191
5.8010 -20.0632 -0.8394 0.9198
6.6496 -20.2443 -0.8564 0.9182
7.6567 -20.7646 -0.8895 0.9152
9.2537 -20.4423 -0.9019 0.9141
10.9986 -20.2828 -0.9273 0.9118
12.2097 -20.7060 -0.9661 0.9083
9.8913 -15.4764 -0.7382 0.9291
11.3127 -16.3737 -0.7999 0.9234
12.2078 -16.3793 -0.8210 0.9215
13.1484 -16.3796 -0.8442 0.9194
8.8870 -10.2913 -0.5465 0.9470
9.2436 -9.9580 -0.5461 0.9471
9.7090 -9.7339 -0.5526 0.9464
10.4279 -9.7297 -0.5732 0.9445
8.7999 -7.1012 -0.4545 0.9557
9.3076 -6.4660 -0.4555 0.9556
34.5491 -20.4922 -1.6145 0.8515
23.2855 -10.6128 -1.0285 0.9026
23.2883 -9.6201 -1.0127 0.9041
28.5241 -9.4504 -1.2077 0.8867
25.5820 -7.4679 -1.0711 0.8988
45.0415 -8.0248 -1.8388 0.8326
45.3036 -6.4033 -1.8389 0.8326
45.7320 -1.4959 -1.8390 0.8326
45.7548 0.1466 -1.8390 0.8326
45.7173 1.7889 -1.8389 0.8326
41.4185 6.1252 -1.6828 0.8457
41.1652 7.6067 -1.6825 0.8457
37.4899 11.2053 -1.5727 0.8550
32.2277 10.9072 -1.3675 0.8727
31.6306 13.3041 -1.3792 0.8716
31.4708 18.9400 -1.4763 0.8633
26.5460 17.3037 -1.2736 0.8809
25.8052 18.1732 -1.2685 0.8813
25.8040 21.0973 -1.3396 0.8751
31.5316 27.7270 -1.6876 0.8453
11.5762 11.7557 -0.6631 0.9361
22.3448 24.3833 -1.3293 0.8760
9.3095 11.7507 -0.6025 0.9418
8.6445 11.7549 -0.5865 0.9433
7.4120 11.7626 -0.5588 0.9459
4.7530 11.8052 -0.5115 0.9503
4.2684 11.8083 -0.5047 0.9510
3.3340 11.8141 -0.4934 0.9520
1.1334 11.8279 -0.4776 0.9535
0.7063 11.8306 -0.4763 0.9537
0.2808 11.8333 -0.4757 0.9537
-2.1797 13.8774 -0.5646 0.9453
-2.6940 13.8806 -0.5683 0.9450
-9.2097 39.7625 -1.6404 0.8493
-11.6053 43.0173 -1.7908 0.8366
-13.1331 42.5444 -1.7895 0.8367
-9.2010 26.4038 -1.1238 0.8941
-19.0376 40.1226 -1.7849 0.8371
-9.5465 18.3850 -0.8326 0.9204
-13.7938 24.3824 -1.1259 0.8939
-21.0315 23.4888 -1.2672 0.8814
-30.6391 31.8411 -1.7760 0.8379
-31.7474 30.7063 -1.7752 0.8379
-32.8143 29.5335 -1.7744 0.8380
-33.5228 28.0598 -1.7570 0.8395
-21.1587 16.4559 -1.0773 0.8983
-20.9888 15.1467 -1.0403 0.9016
-35.7277 18.6683 -1.6202 0.8510
-36.9556 16.0484 -1.6193 0.8510
-37.9953 13.3499 -1.6186 0.8511
-39.0525 6.2367 -1.5895 0.8536
-40.0744 4.9321 -1.6228 0.8507
-43.9526 -0.9300 -1.7669 0.8386
-43.6106 -5.6514 -1.7674 0.8386
-42.7724 -10.3123 -1.7684 0.8385
-41.9416 -13.3605 -1.7692 0.8384
-41.0590 -14.7227 -1.7531 0.8398
-32.2397 -15.6533 -1.4404 0.8663
-34.9609 -20.1946 -1.6227 0.8508
-33.7521 -22.8747 -1.6388 0.8494
-32.7704 -23.9699 -1.6318 0.8500
-31.1848 -26.4447 -1.6434 0.8490
-25.7078 -23.4375 -1.3982 0.8700
-24.2741 -23.7811 -1.3658 0.8728
-24.2853 -25.5640 -1.4172 0.8684
-15.4057 -23.5021 -1.1294 0.8936
-14.5987 -24.1169 -1.1331 0.8933
-14.6119 -26.2194 -1.2064 0.8868
-15.0438 -39.3917 -1.6948 0.8447
-13.6436 -39.9746 -1.6977 0.8444
-7.1059 -23.5541 -0.9888 0.9062
-7.8281 -41.7633 -1.7078 0.8436
-6.3320 -42.0702 -1.7099 0.8434
-4.8232 -42.3194 -1.7119 0.8432
-0.1761 -30.5087 -1.6922 0.8849
0.9201 -30.5260 -1.6939 0.8848
1.5667 -23.6905 -1.3168 0.9093
2.0490 -20.0303 -1.1168 0.9225
5.1233 -20.4429 -1.1689 0.9190
5.8010 -20.0632 -1.1584 0.9197
6.6496 -20.2443 -1.1818 0.9182
9.9831 -20.1001 -1.2448 0.9140
10.9986 -20.2828 -1.2797 0.9117
9.8911 -15.4760 -1.0187 0.9291
11.3126 -16.3737 -1.1038 0.9234
7.8815 -10.5746 -0.7315 0.9485
7.9244 -9.8718 -0.7021 0.9506
8.3731 -9.6962 -0.7106 0.9500
9.6494 -9.6741 -0.7578 0.9467
10.3769 -9.6822 -0.7872 0.9447
8.5253 -6.8796 -0.6076 0.9571
8.6193 -6.4586 -0.5974 0.9578
26.9518 -14.7046 -1.7029 0.8843
29.3381 -14.6653 -1.8192 0.8769
30.8870 -11.4793 -1.8276 0.8763
28.5017 -9.4430 -1.6653 0.8867
25.5421 -6.4709 -1.4614 0.8998
32.4578 -5.7828 -1.8286 0.8763
32.6461 -4.6142 -1.8287 0.8763
32.9444 1.2891 -1.8286 0.8763
32.4090 5.9887 -1.8280 0.8763
31.5538 9.4311 -1.8266 0.8764
31.1948 10.5576 -1.8266 0.8764
30.3465 12.7641 -1.8260 0.8764
29.3379 14.9010 -1.8250 0.8765
28.7761 15.9401 -1.8245 0.8765
28.1771 16.9578 -1.8240 0.8766
27.5418 17.9528 -1.8235 0.8766
25.8045 18.1728 -1.7505 0.8812
24.6549 21.6800 -1.8209 0.8768
17.0893 16.1513 -1.3042 0.9101
22.1553 24.1765 -1.8188 0.8769
3.9198 4.5985 -0.3351 0.9761
9.3095 11.7508 -0.8315 0.9417
8.6445 11.7549 -0.8093 0.9432
8.0134 11.7589 -0.7892 0.9446
7.4120 11.7626 -0.7711 0.9458
6.2818 11.7637 -0.7397 0.9480
5.7506 11.7671 -0.7264 0.9489
5.2375 11.7703 -0.7145 0.9497
4.2569 11.7764 -0.6945 0.9511
3.7857 11.7794 -0.6862 0.9516
3.3250 11.7823 -0.6790 0.9521
2.8734 11.7851 -0.6728 0.9526
2.4294 11.7879 -0.6675 0.9529
1.5633 11.8252 -0.6616 0.9533
0.7063 11.8306 -0.6573 0.9536
0.2808 11.8333 -0.6565 0.9537
-1.1651 13.8391 -0.7703 0.9459
-1.6714 13.8742 -0.7751 0.9456
-2.6940 13.8807 -0.7842 0.9449
-6.6843 28.8590 -1.6430 0.8881
-7.7121 28.5864 -1.6422 0.8881
-8.7289 28.2772 -1.6414 0.8882
-9.1912 26.3754 -1.5492 0.8941
-13.8321 29.1518 -1.7897 0.8787
-13.8016 24.3963 -1.5546 0.8938
-13.9793 21.0307 -1.4006 0.9038
-21.2453 20.5486 -1.6393 0.8883
-21.1584 16.4556 -1.4867 0.8982
-20.9892 15.1470 -1.4356 0.9015
-21.7870 14.5627 -1.4535 0.9003
-28.4222 14.8511 -1.7786 0.8794
-28.9312 13.8184 -1.7783 0.8795
-29.8375 11.7031 -1.7777 0.8795
-30.2339 10.6229 -1.7774 0.8795
-30.5917 9.5295 -1.7772 0.8795
-31.9875 1.6216 -1.7764 0.8796
-32.0255 0.4723 -1.7765 0.8796
-32.0229 -0.6776 -1.7765 0.8796
-31.8956 -2.9737 -1.7767 0.8796
-31.6062 -5.2555 -1.7771 0.8795
-31.4011 -6.3875 -1.7773 0.8795
-31.1560 -7.5116 -1.7775 0.8795
-29.7823 -11.9022 -1.7789 0.8794
-25.5194 -14.7409 -1.6346 0.8886
-24.3437 -16.4984 -1.6311 0.8889
-22.4517 -19.0390 -1.6327 0.8888
-20.4278 -21.5034 -1.6450 0.8880
-19.8270 -22.4313 -1.6605 0.8870
-17.3425 -24.4918 -1.6645 0.8867
-14.5990 -24.1175 -1.5636 0.8932
-13.7082 -26.8188 -1.6705 0.8863
-12.7487 -27.3193 -1.6721 0.8862
-11.7711 -27.7859 -1.6737 0.8861
-10.7765 -28.2178 -1.6753 0.8860
-9.7662 -28.6143 -1.6770 0.8859
-7.1059 -23.5541 -1.3646 0.9061
-6.1943 -23.5598 -1.3511 0.9070
-5.5925 -29.8359 -1.6836 0.8855
-4.5224 -30.0477 -1.6853 0.8854
-0.9950 -23.8618 -1.6900 0.9087
-0.1379 -23.9011 -1.6913 0.9086
1.5797 -23.8872 -1.6940 0.9085
2.0490 -20.0303 -1.4248 0.9224
2.8037 -20.2105 -1.4438 0.9214
3.5538 -20.2472 -1.4546 0.9209
4.3403 -20.3982 -1.4757 0.9198
5.1230 -20.4419 -1.4913 0.9190
5.8010 -20.0632 -1.4779 0.9197
8.4792 -20.6765 -1.5814 0.9143
9.2532 -20.4411 -1.5877 0.9140
9.9831 -20.1001 -1.5881 0.9139
10.9986 -20.2828 -1.6327 0.9116
7.8851 -9.8229 -0.8913 0.9507
8.2934 -9.6038 -0.8979 0.9504
9.6065 -9.6311 -0.9626 0.9469
8.2198 -7.6695 -0.7955 0.9559
8.2342 -7.1476 -0.7716 0.9572
8.2893 -6.6891 -0.7537 0.9582
9.6676 -6.2138 -0.8132 0.9550
22.5903 -12.3250 -1.8210 0.9020
23.7955 -9.8296 -1.8218 0.9019
24.4452 -8.0990 -1.8223 0.9019
25.1806 -5.4255 -1.8227 0.9019
25.3605 -4.5183 -1.8228 0.9019
25.5073 -3.6052 -1.8229 0.9019
25.7610 0.0826 -1.8229 0.9019
25.7405 1.0072 -1.8228 0.9019
25.6866 1.9304 -1.8228 0.9019
25.5991 2.8511 -1.8226 0.9019
25.4783 3.7679 -1.8225 0.9019
25.1372 5.5850 -1.8221 0.9019
24.0654 9.1200 -1.8211 0.9019
23.3405 10.8191 -1.8204 0.9020
21.5326 14.0358 -1.8188 0.9021
17.0773 16.1400 -1.6627 0.9101
3.9195 4.5980 -0.4275 0.9761
8.0134 11.7589 -1.0069 0.9445
7.4120 11.7626 -0.9838 0.9458
6.7553 11.6258 -0.9515 0.9475
4.2082 11.6417 -0.8760 0.9516
3.7424 11.6446 -0.8655 0.9521
3.2870 11.6475 -0.8564 0.9526
2.8405 11.6503 -0.8485 0.9531
2.4016 11.6530 -0.8419 0.9534
1.9689 11.6558 -0.8365 0.9537
1.5412 11.6584 -0.8322 0.9539
1.1174 11.6611 -0.8289 0.9541
0.6963 11.6637 -0.8268 0.9542
0.2768 11.6664 -0.8258 0.9543
-0.5617 11.6716 -0.8269 0.9542
-2.1797 13.8774 -0.9940 0.9452
-2.6940 13.8807 -1.0006 0.9449
-6.0508 22.4287 -1.6438 0.9111
-7.6386 21.9200 -1.6426 0.9111
-8.4174 21.6237 -1.6420 0.9111
-9.9399 20.9488 -1.6408 0.9112
-9.4950 18.2860 -1.4580 0.9207
-12.4633 22.0306 -1.7911 0.9035
-14.7449 20.5429 -1.7893 0.9036
-16.1709 19.4202 -1.7883 0.9036
-18.1497 17.5545 -1.7868 0.9037
-19.3527 16.1990 -1.7859 0.9038
-20.4574 13.6740 -1.7412 0.9060
-20.5461 10.7356 -1.6404 0.9112
-20.9149 9.9896 -1.6401 0.9112
-21.2569 9.2311 -1.6399 0.9113
-23.7684 8.3512 -1.7827 0.9039
-24.0504 7.4918 -1.7825 0.9039
-24.3017 6.6231 -1.7824 0.9039
-24.7109 4.8618 -1.7821 0.9039
-24.8683 3.9715 -1.7820 0.9039
-24.9941 3.0761 -1.7820 0.9039
-25.1797 0.3713 -1.7820 0.9039
-25.1774 -0.5328 -1.7820 0.9039
-25.1431 -1.4363 -1.7821 0.9039
-24.9784 -3.2369 -1.7823 0.9039
-24.8481 -4.1318 -1.7824 0.9039
-24.6862 -5.0216 -1.7826 0.9039
-24.0124 -7.6492 -1.7833 0.9039
-23.7260 -8.5075 -1.7836 0.9039
-23.4092 -9.3552 -1.7839 0.9039
-22.6861 -11.0147 -1.7845 0.9038
-21.3844 -13.3985 -1.7857 0.9038
-20.1139 -14.7123 -1.7634 0.9049
-17.0940 -15.5844 -1.6368 0.9114
-16.5284 -16.1927 -1.6373 0.9114
-14.7058 -17.8927 -1.6389 0.9113
-14.0587 -18.4152 -1.6394 0.9113
-13.3932 -18.9144 -1.6400 0.9113
-12.7100 -19.3897 -1.6406 0.9112
-10.5634 -20.6663 -1.6423 0.9111
-9.8385 -21.0830 -1.6463 0.9109
-9.1214 -21.5320 -1.6547 0.9105
-7.6234 -22.3343 -1.6699 0.9097
-2.2855 -15.1856 -1.0867 0.9403
-1.4850 -19.1027 -1.6496 0.9260
-0.7985 -19.1500 -1.6501 0.9259
-0.1106 -19.1729 -1.6507 0.9259
1.2661 -19.1442 -1.6518 0.9259
1.9531 -19.0927 -1.6523 0.9258
4.6717 -18.6410 -1.6545 0.9257
6.6549 -18.0478 -1.6561 0.9257
7.3007 -17.8027 -1.6566 0.9257
7.9374 -17.5345 -1.6571 0.9256
9.7849 -16.5939 -1.6585 0.9256
10.3771 -16.2365 -1.6590 0.9256
7.8206 -10.4930 -1.1267 0.9488
7.8619 -9.7939 -1.0812 0.9508
8.3537 -9.6736 -1.1004 0.9500
9.0029 -9.6987 -1.1393 0.9483
7.3203 -7.3391 -0.8924 0.9592
9.5182 -6.1178 -0.9741 0.9556
10.3047 -6.1120 -1.0315 0.9530
18.5332 -10.1115 -1.8176 0.9187
19.2160 -8.7581 -1.8181 0.9187
19.7992 -7.3584 -1.8185 0.9187
20.0524 -6.6436 -1.8187 0.9187
20.4804 -5.1886 -1.8189 0.9187
20.6547 -4.4503 -1.8190 0.9187
20.8020 -3.7062 -1.8191 0.9187
20.9224 -2.9572 -1.8192 0.9187
21.1195 -0.6908 -1.8192 0.9187
20.9981 2.3386 -1.8190 0.9187
20.8993 3.0907 -1.8189 0.9187
20.4406 5.3181 -1.8184 0.9187
20.2342 6.0478 -1.8182 0.9187
19.7431 7.4820 -1.8177 0.9187
19.1497 8.8765 -1.8172 0.9188
17.2245 8.7485 -1.6632 0.9254
16.5464 9.9581 -1.6626 0.9254
15.7829 11.1151 -1.6619 0.9254
14.4868 12.7388 -1.6608 0.9255
14.0167 13.2474 -1.6604 0.9255
13.0235 14.2116 -1.6596 0.9255
3.9191 4.5976 -0.5201 0.9760
8.0134 11.7589 -1.2251 0.9445
7.4120 11.7626 -1.1970 0.9457
6.2100 11.6292 -1.1350 0.9484
5.1776 11.6357 -1.0964 0.9502
4.2082 11.6417 -1.0657 0.9515
2.4016 11.6531 -1.0243 0.9534
1.9689 11.6558 -1.0177 0.9537
1.1174 11.6611 -1.0085 0.9541
0.6963 11.6637 -1.0060 0.9542
0.2768 11.6664 -1.0047 0.9542
-0.1421 11.6690 -1.0047 0.9542
-0.5616 11.6716 -1.0060 0.9542
-1.1651 13.8392 -1.1957 0.9458
-4.9765 18.4466 -1.6449 0.9262
-5.6337 18.2503 -1.6444 0.9262
-6.2832 18.0307 -1.6439 0.9262
-7.5561 17.5228 -1.6429 0.9262
-8.1778 17.2351 -1.6424 0.9263
-8.7887 16.9256 -1.6419 0.9263
-10.8962 17.7427 -1.7926 0.9198
-11.5230 17.3354 -1.7921 0.9198
-12.1346 16.9062 -1.7916 0.9198
-12.7304 16.4555 -1.7912 0.9199
-14.4154 14.9809 -1.7899 0.9199
-14.9405 14.4506 -1.7895 0.9199
-16.3975 12.7529 -1.7884 0.9200
-16.8416 12.1539 -1.7881 0.9200
-17.2641 11.5395 -1.7878 0.9200
-17.6643 10.9106 -1.7875 0.9200
-18.0418 10.2679 -1.7872 0.9200
-18.3961 9.6123 -1.7870 0.9200
-18.7269 8.9446 -1.7867 0.9201
-19.3160 7.5762 -1.7863 0.9201
-19.5736 6.8773 -1.7861 0.9201
-20.3509 4.0040 -1.7857 0.9201
-20.4807 3.2708 -1.7856 0.9201
-20.5844 2.5334 -1.7855 0.9201
-20.7069 -1.1828 -1.7856 0.9201
-20.6520 -1.9255 -1.7857 0.9201
-20.5708 -2.6657 -1.7858 0.9201
-20.4633 -3.4026 -1.7859 0.9201
-20.1699 -4.8629 -1.7862 0.9201
-19.7733 -6.2988 -1.7866 0.9201
-18.3444 -9.7354 -1.7880 0.9200
-17.9863 -10.3895 -1.7883 0.9200
-17.6051 -11.0306 -1.7886 0.9200
-16.7752 -12.2702 -1.7893 0.9199
-16.3275 -12.8673 -1.7897 0.9199
-15.8587 -13.4482 -1.7901 0.9199
-15.3693 -14.0121 -1.7906 0.9199
-13.0134 -14.7227 -1.6917 0.9241
-12.1118 -14.7366 -1.6422 0.9263
-11.0199 -15.5627 -1.6417 0.9263
-8.0760 -17.3061 -1.6442 0.9262
-7.4519 -17.5904 -1.6447 0.9262
-6.8178 -17.8522 -1.6452 0.9261
-5.5230 -18.3072 -1.6463 0.9261
-0.0939 -16.2670 -1.6505 0.9367
1.0741 -16.2410 -1.6515 0.9367
5.0891 -15.4935 -1.6547 0.9365
5.6435 -15.3049 -1.6551 0.9365
6.7353 -14.8788 -1.6571 0.9364
7.3105 -14.7190 -1.6675 0.9361
8.6720 -14.7065 -1.7323 0.9337
9.3946 -14.6992 -1.7700 0.9323
8.1077 -10.1002 -1.3141 0.9493
7.0177 -7.5600 -1.0466 0.9594
6.9454 -6.9633 -0.9979 0.9612
7.6145 -6.1446 -0.9928 0.9614
9.4787 -6.0924 -1.1433 0.9557
15.7052 -8.5686 -1.8153 0.9306
16.0045 -8.0002 -1.8155 0.9306
16.2831 -7.4214 -1.8157 0.9306
16.9911 -5.6294 -1.8161 0.9306
17.1834 -5.0162 -1.8163 0.9306
17.3534 -4.3964 -1.8164 0.9306
17.6256 -3.1403 -1.8165 0.9305
17.9037 0.0574 -1.8166 0.9305
17.8897 0.7000 -1.8166 0.9305
17.8524 1.3417 -1.8165 0.9306
17.7920 1.9816 -1.8164 0.9306
17.1459 5.1247 -1.8157 0.9306
16.7304 6.3402 -1.8153 0.9306
15.0955 6.3493 -1.6616 0.9363
14.0232 8.4396 -1.6607 0.9363
13.7090 8.9360 -1.6604 0.9363
13.3770 9.4207 -1.6601 0.9363
13.0278 9.8930 -1.6598 0.9363
12.2797 10.7980 -1.6591 0.9364
11.8817 11.2296 -1.6588 0.9364
3.9187 4.5972 -0.6129 0.9760
9.2843 11.7190 -1.5170 0.9417
6.7553 11.6258 -1.3643 0.9474
5.6849 11.6325 -1.3137 0.9493
5.1776 11.6357 -1.2922 0.9501
4.6860 11.6387 -1.2730 0.9508
3.7424 11.6447 -1.2410 0.9520
3.2870 11.6475 -1.2280 0.9525
2.8405 11.6503 -1.2167 0.9529
1.5412 11.6584 -1.1932 0.9538
1.1174 11.6611 -1.1886 0.9540
0.2768 11.6664 -1.1841 0.9542
-0.1421 11.6690 -1.1841 0.9542
-0.5617 11.6716 -1.1856 0.9541
-2.1797 13.8775 -1.4253 0.9451
-4.7826 15.4932 -1.6452 0.9369
-5.3343 15.3075 -1.6448 0.9369
-8.4705 13.7929 -1.6423 0.9370
-8.9581 13.4768 -1.6419 0.9370
-11.3042 13.5756 -1.7925 0.9314
-11.7818 13.1584 -1.7921 0.9315
-12.6907 12.2745 -1.7914 0.9315
-13.1208 11.8089 -1.7911 0.9315
-13.5339 11.3284 -1.7908 0.9315
-14.3072 10.3249 -1.7902 0.9315
-14.6664 9.8032 -1.7899 0.9315
-15.0068 9.2692 -1.7897 0.9315
-15.9106 7.5994 -1.7890 0.9316
-16.1715 7.0227 -1.7889 0.9316
-16.6308 5.8433 -1.7886 0.9316
-17.0049 4.6345 -1.7883 0.9316
-17.4023 2.7792 -1.7881 0.9316
-17.5562 1.5234 -1.7880 0.9316
-17.6204 0.2599 -1.7880 0.9316
-17.5945 -1.0050 -1.7881 0.9316
-17.5477 -1.6360 -1.7882 0.9316
-17.1373 -4.1317 -1.7886 0.9316
-16.3762 -6.5446 -1.7894 0.9316
-16.1327 -7.1291 -1.7896 0.9315
-15.8686 -7.7046 -1.7898 0.9315
-15.5840 -8.2705 -1.7901 0.9315
-15.2794 -8.8259 -1.7904 0.9315
-14.9551 -9.3702 -1.7907 0.9315
-14.6116 -9.9027 -1.7910 0.9315
-11.7062 -13.2438 -1.7935 0.9314
-10.7308 -14.0560 -1.7943 0.9314
-9.6387 -14.7043 -1.7839 0.9318
-8.2020 -14.7175 -1.7095 0.9345
-6.8742 -14.7308 -1.6494 0.9367
-5.7874 -15.1541 -1.6459 0.9369
-3.5629 -15.8439 -1.6477 0.9368
-2.9927 -15.9661 -1.6482 0.9368
-2.2825 -15.1656 -1.5561 0.9402
-1.8405 -16.1488 -1.6491 0.9367
-1.1436 -14.7118 -1.7248 0.9423
-0.0849 -14.7124 -1.7197 0.9425
0.4435 -14.7120 -1.7204 0.9424
1.5048 -14.7101 -1.7283 0.9422
2.5813 -14.7065 -1.7452 0.9416
3.1287 -14.7041 -1.7571 0.9413
3.6843 -14.7012 -1.7715 0.9408
4.8064 -14.6329 -1.8002 0.9399
5.3377 -14.4757 -1.8033 0.9398
5.8648 -14.3014 -1.8067 0.9396
6.3792 -14.0922 -1.8080 0.9396
6.8824 -13.8571 -1.8084 0.9396
8.3374 -13.0450 -1.8096 0.9396
8.8021 -12.7399 -1.8099 0.9395
8.3140 -11.1550 -1.6261 0.9455
8.2414 -9.5437 -1.4739 0.9505
6.8660 -7.3966 -1.1796 0.9602
7.5653 -6.1049 -1.1363 0.9616
8.7823 -6.1011 -1.2499 0.9578
9.4857 -6.0969 -1.3180 0.9556
14.3444 -5.9255 -1.8140 0.9394
14.7347 -4.8818 -1.8143 0.9394
14.9013 -4.3500 -1.8144 0.9394
15.5134 0.6070 -1.8146 0.9394
15.2642 2.8206 -1.8143 0.9394
15.1522 3.3665 -1.8142 0.9394
14.6971 4.9741 -1.8136 0.9394
13.2824 5.0336 -1.6602 0.9444
12.8842 5.9723 -1.6599 0.9444
12.1627 7.3199 -1.6592 0.9444
11.8904 7.7507 -1.6590 0.9444
11.3002 8.5811 -1.6585 0.9445
10.9831 8.9797 -1.6582 0.9445
9.9488 10.1030 -1.6573 0.9445
3.9184 4.5968 -0.7060 0.9760
7.3236 11.6222 -1.6056 0.9462
6.7553 11.6258 -1.5716 0.9473
5.6849 11.6325 -1.5133 0.9492
5.1776 11.6357 -1.4886 0.9500
4.6860 11.6388 -1.4665 0.9507
4.2082 11.6417 -1.4469 0.9514
3.2870 11.6475 -1.4146 0.9524
2.4016 11.6531 -1.3907 0.9532
1.5412 11.6585 -1.3745 0.9537
-0.1421 11.6690 -1.3640 0.9541
-0.5617 11.6716 -1.3658 0.9540
-0.9828 11.6743 -1.3694 0.9539
-1.5978 13.2629 -1.5614 0.9476
-2.5440 13.1077 -1.5607 0.9476
-3.0122 13.0049 -1.5603 0.9477
-3.6685 13.5979 -1.6462 0.9449
-4.1533 13.4543 -1.6458 0.9449
-4.6325 13.2935 -1.6454 0.9449
-7.7813 11.7064 -1.6430 0.9450
-8.1949 11.4173 -1.6427 0.9450
-8.5978 11.1137 -1.6424 0.9450
-9.3697 10.4644 -1.6418 0.9450
-10.6371 11.0544 -1.7931 0.9401
-11.0253 10.6637 -1.7928 0.9401
-11.7584 9.8422 -1.7923 0.9401
-13.8250 6.6033 -1.7908 0.9402
-14.6234 4.5553 -1.7902 0.9402
-15.2561 1.3238 -1.7899 0.9402
-15.2485 -1.4217 -1.7900 0.9402
-15.1883 -1.9682 -1.7901 0.9402
-15.1086 -2.5123 -1.7902 0.9402
-15.0096 -3.0532 -1.7903 0.9402
-14.4228 -5.1716 -1.7909 0.9402
-13.7877 -6.6943 -1.7915 0.9401
-13.5402 -7.1858 -1.7917 0.9401
-12.0484 -9.4950 -1.7930 0.9401
-11.7017 -9.9231 -1.7933 0.9401
-10.9635 -10.7408 -1.7939 0.9401
-9.3206 -12.2089 -1.7953 0.9400
-8.8782 -12.5381 -1.7957 0.9400
-8.4242 -12.8515 -1.7961 0.9400
-6.5039 -13.9373 -1.7977 0.9399
-5.4841 -14.3600 -1.7967 0.9400
-3.8657 -14.7033 -1.7770 0.9406
-2.7569 -14.7080 -1.7491 0.9415
-1.6766 -14.7110 -1.7306 0.9421
0.4105 -13.6177 -1.8032 0.9465
1.3870 -13.5590 -1.8040 0.9465
1.8733 -13.5034 -1.8044 0.9465
2.3573 -13.4303 -1.8048 0.9465
2.8385 -13.3399 -1.8052 0.9465
4.2587 -12.9655 -1.8063 0.9464
4.7224 -12.8068 -1.8066 0.9464
5.1801 -12.6316 -1.8070 0.9464
6.0753 -12.2321 -1.8077 0.9464
7.3592 -11.5144 -1.8087 0.9464
7.7691 -11.2448 -1.8090 0.9463
8.1691 -10.9606 -1.8093 0.9463
8.3162 -9.6302 -1.6841 0.9500
6.8432 -7.3720 -1.3313 0.9602
6.9061 -6.4438 -1.2502 0.9626
7.1135 -6.1747 -1.2468 0.9627
8.1497 -6.1068 -1.3479 0.9597
8.7971 -6.1114 -1.4178 0.9577
12.0192 -6.5575 -1.8122 0.9463
12.4609 -5.6793 -1.8125 0.9462
12.6577 -5.2287 -1.8126 0.9462
12.8380 -4.7713 -1.8128 0.9462
13.0018 -4.3077 -1.8129 0.9462
13.2787 -3.3641 -1.8130 0.9462
13.3914 -2.8853 -1.8131 0.9462
13.4867 -2.4028 -1.8132 0.9462
13.5645 -1.9172 -1.8132 0.9462
13.6674 -0.9391 -1.8132 0.9462
13.6923 -0.4479 -1.8132 0.9462
13.6887 0.5356 -1.8132 0.9462
13.3703 2.9706 -1.8128 0.9462
13.2542 3.4484 -1.8127 0.9462
11.3698 5.2703 -1.6587 0.9507
11.1721 5.6744 -1.6585 0.9507
9.9730 7.5733 -1.6575 0.9507
9.6933 7.9252 -1.6572 0.9507
9.0969 8.5976 -1.6567 0.9508
8.4538 9.2250 -1.6561 0.9508
3.9180 4.5963 -0.7994 0.9759
7.7675 9.8043 -1.6556 0.9508
7.0414 10.3325 -1.6550 0.9508
6.6647 10.5767 -1.6546 0.9508
5.8864 11.0233 -1.6540 0.9508
5.4858 11.2252 -1.6537 0.9508
5.0783 11.4125 -1.6533 0.9508
4.2082 11.6417 -1.6384 0.9513
3.7424 11.6447 -1.6189 0.9518
3.2870 11.6475 -1.6018 0.9523
2.8405 11.6503 -1.5872 0.9528
2.4016 11.6531 -1.5748 0.9531
0.2768 11.6664 -1.5446 0.9540
-0.1421 11.6690 -1.5446 0.9540
-0.5617 11.6716 -1.5466 0.9539
-1.4112 11.7140 -1.5616 0.9535
-3.2404 12.0112 -1.6466 0.9510
-4.0921 11.7430 -1.6459 0.9511
-4.5101 11.5862 -1.6456 0.9511
-4.9222 11.4146 -1.6453 0.9511
-5.7263 11.0279 -1.6447 0.9511
-6.5003 10.5848 -1.6441 0.9511
-7.9430 9.5390 -1.6430 0.9511
-8.2790 9.2463 -1.6427 0.9512
-8.6043 8.9418 -1.6425 0.9512
-8.9184 8.6260 -1.6422 0.9512
-10.0728 9.0657 -1.7937 0.9468
-10.3904 8.6972 -1.7934 0.9468
-10.6945 8.3175 -1.7932 0.9468
-10.9849 7.9273 -1.7930 0.9468
-11.5228 7.1172 -1.7926 0.9468
-11.7697 6.6984 -1.7924 0.9468
-12.0015 6.2710 -1.7923 0.9468
-12.4184 5.3929 -1.7920 0.9468
-12.7717 4.4874 -1.7917 0.9468
-12.9238 4.0258 -1.7916 0.9468
-13.4833 1.1700 -1.7913 0.9469
-13.5166 0.6852 -1.7913 0.9469
-13.5325 0.1996 -1.7913 0.9469
-13.5312 -0.2863 -1.7914 0.9469
-13.5125 -0.7719 -1.7914 0.9469
-13.4765 -1.2565 -1.7914 0.9469
-13.4232 -1.7395 -1.7915 0.9469
-13.1605 -3.1729 -1.7918 0.9468
-13.0390 -3.6436 -1.7919 0.9468
-12.9008 -4.1096 -1.7920 0.9468
-12.7460 -4.5704 -1.7922 0.9468
-12.5748 -5.0254 -1.7924 0.9468
