ply
format ascii 1.0
element vertex 1585
property float32 x
property float32 y
property float32 z
property float32 I
end_header
-11.6521 -13.1825 -1.7852 0.9317
-11.1752 -13.5970 -1.7858 0.9317
-10.6837 -13.9943 -1.7864 0.9317
-10.1672 -14.3586 -1.7851 0.9317
-9.6201 -14.6759 -1.7805 0.9319
-8.8991 -14.7012 -1.7436 0.9332
-5.7689 -15.1056 -1.6407 0.9371
-4.6745 -15.4944 -1.6421 0.9370
-3.5540 -15.8044 -1.6436 0.9369
-2.9858 -15.9292 -1.6444 0.9369
-1.1437 -14.7128 -1.7249 0.9423
-0.0849 -14.7148 -1.7199 0.9425
0.9731 -14.7152 -1.7237 0.9423
1.5052 -14.7148 -1.7289 0.9422
3.1302 -14.7112 -1.7580 0.9412
3.6863 -14.7090 -1.7724 0.9408
5.3412 -14.4852 -1.8045 0.9397
6.3856 -14.1065 -1.8099 0.9395
7.8744 -13.3539 -1.8120 0.9395
8.3518 -13.0676 -1.8127 0.9395
8.3246 -11.1691 -1.6282 0.9454
7.9646 -9.9219 -1.4871 0.9501
6.4131 -7.4265 -1.1469 0.9613
7.6083 -6.1396 -1.1427 0.9614
8.1602 -6.1146 -1.1919 0.9598
8.7923 -6.1080 -1.2513 0.9578
9.5116 -6.1135 -1.3216 0.9555
13.9357 -6.9661 -1.8210 0.9392
14.4055 -5.9508 -1.8218 0.9392
14.9695 -4.3699 -1.8227 0.9391
15.1189 -3.8303 -1.8230 0.9391
15.4484 -2.1835 -1.8236 0.9391
15.5676 -1.0697 -1.8239 0.9391
15.5968 -0.5102 -1.8240 0.9391
15.5942 0.6102 -1.8241 0.9391
15.5103 1.7274 -1.8241 0.9391
15.2330 3.3845 -1.8239 0.9391
14.9487 4.4680 -1.8236 0.9391
14.7772 5.0012 -1.8234 0.9391
12.4841 6.9154 -1.6681 0.9441
12.2255 7.3577 -1.6678 0.9442
11.6613 8.2125 -1.6671 0.9442
11.3565 8.6238 -1.6667 0.9442
11.0370 9.0238 -1.6663 0.9442
10.3558 9.7874 -1.6655 0.9442
9.9950 10.1500 -1.6650 0.9442
9.6215 10.4993 -1.6645 0.9443
8.8381 11.1557 -1.6635 0.9443
7.3149 11.6084 -1.6037 0.9462
6.7477 11.6128 -1.5698 0.9473
6.2034 11.6169 -1.5393 0.9483
5.6792 11.6209 -1.5118 0.9492
4.6818 11.6285 -1.4652 0.9508
4.2047 11.6321 -1.4457 0.9514
3.7395 11.6357 -1.4285 0.9520
3.2846 11.6391 -1.4136 0.9525
2.8386 11.6425 -1.4007 0.9529
1.9678 11.6491 -1.3809 0.9535
1.5404 11.6524 -1.3738 0.9538
-2.0740 13.2044 -1.5623 0.9476
-2.5456 13.1159 -1.5616 0.9476
-3.0135 13.0106 -1.5610 0.9476
-3.1533 11.6882 -1.4150 0.9524
-4.6319 13.2920 -1.6452 0.9449
-5.1040 13.1118 -1.6446 0.9449
-5.5691 12.9150 -1.6439 0.9449
-6.0268 12.7017 -1.6433 0.9450
-6.4763 12.4723 -1.6426 0.9450
-7.3488 11.9663 -1.6414 0.9450
-8.1824 11.3999 -1.6402 0.9451
-9.3508 10.4433 -1.6384 0.9451
-10.9993 10.6386 -1.7886 0.9402
-11.7271 9.8161 -1.7875 0.9403
-12.0684 9.3861 -1.7870 0.9403
-12.3941 8.9443 -1.7865 0.9403
-12.7039 8.4914 -1.7860 0.9403
-13.5333 7.0714 -1.7847 0.9404
-14.2064 5.5721 -1.7837 0.9404
-14.3948 5.0577 -1.7833 0.9404
-14.7160 4.0106 -1.7828 0.9404
-15.1876 1.3179 -1.7818 0.9405
-15.2414 0.2248 -1.7817 0.9405
-15.2392 -0.3225 -1.7816 0.9405
-15.2175 -0.8693 -1.7816 0.9405
-15.1765 -1.4150 -1.7816 0.9405
-15.1162 -1.9588 -1.7816 0.9405
-15.0365 -2.5003 -1.7816 0.9405
-14.9378 -3.0386 -1.7817 0.9405
-14.6832 -4.1030 -1.7820 0.9404
-14.3537 -5.1469 -1.7823 0.9404
-14.1614 -5.6595 -1.7825 0.9404
-13.7227 -6.6628 -1.7830 0.9404
-13.4768 -7.1522 -1.7833 0.9404
-13.2137 -7.6327 -1.7836 0.9404
-12.9336 -8.1036 -1.7839 0.9404
-11.6509 -9.8800 -1.7855 0.9403
-11.2916 -10.2945 -1.7860 0.9403
-10.5296 -11.0840 -1.7869 0.9403
-9.7129 -11.8179 -1.7880 0.9403
-7.9318 -13.1032 -1.7903 0.9402
-5.9833 -14.1238 -1.7929 0.9401
-5.4706 -14.3245 -1.7922 0.9401
-4.4188 -14.6470 -1.7882 0.9402
-3.8650 -14.7004 -1.7766 0.9406
-3.3065 -14.7038 -1.7615 0.9411
-2.7566 -14.7067 -1.7489 0.9415
-2.2139 -14.7092 -1.7386 0.9419
-0.5667 -13.5905 -1.8004 0.9466
-0.0785 -13.6072 -1.8010 0.9466
0.4101 -13.6063 -1.8017 0.9466
0.8986 -13.5879 -1.8024 0.9465
1.8726 -13.4985 -1.8037 0.9465
2.8383 -13.3393 -1.8051 0.9465
3.7908 -13.1110 -1.8064 0.9464
4.7252 -12.8145 -1.8077 0.9464
5.6364 -12.4514 -1.8090 0.9463
6.5198 -12.0233 -1.8103 0.9463
6.9495 -11.7855 -1.8109 0.9463
8.5759 -10.6834 -1.8132 0.9462
6.3838 -7.3925 -1.2928 0.9614
6.3516 -6.8424 -1.2357 0.9630
6.4480 -6.4646 -1.2085 0.9638
8.8069 -6.1182 -1.4193 0.9577
9.5060 -6.1100 -1.4957 0.9554
12.0609 -6.5803 -1.8185 0.9461
12.2917 -6.1443 -1.8188 0.9461
12.5068 -5.7002 -1.8192 0.9461
13.4479 -2.8975 -1.8208 0.9460
13.7286 -0.9433 -1.8214 0.9460
13.7543 -0.4499 -1.8215 0.9460
13.7238 1.0314 -1.8216 0.9460
13.6779 1.5234 -1.8216 0.9460
13.6141 2.0133 -1.8215 0.9460
13.3169 3.4647 -1.8213 0.9460
13.1830 3.9403 -1.8211 0.9460
11.7764 4.4628 -1.6669 0.9505
10.2857 7.2437 -1.6651 0.9505
9.7355 7.9597 -1.6644 0.9505
9.1352 8.6338 -1.6637 0.9505
8.8172 8.9540 -1.6633 0.9506
7.7974 9.8422 -1.6620 0.9506
7.4370 10.1129 -1.6615 0.9506
6.3011 10.8441 -1.6600 0.9507
5.5034 11.2611 -1.6590 0.9507
4.2047 11.6321 -1.6371 0.9513
3.2846 11.6391 -1.6007 0.9524
1.5404 11.6524 -1.5557 0.9537
1.1169 11.6556 -1.5498 0.9539
-0.1421 11.6652 -1.5441 0.9540
-0.5615 11.6684 -1.5462 0.9540
-1.8343 11.6780 -1.5646 0.9534
-2.2672 11.6813 -1.5750 0.9531
-2.7064 11.6847 -1.5875 0.9528
-3.1532 11.6881 -1.6023 0.9523
-3.6691 11.8857 -1.6464 0.9510
-5.3248 11.2222 -1.6441 0.9511
-5.7222 11.0200 -1.6435 0.9511
-6.1120 10.8039 -1.6429 0.9511
-6.8669 10.3307 -1.6419 0.9512
-7.2309 10.0743 -1.6413 0.9512
-7.5855 9.8051 -1.6408 0.9512
-8.2644 9.2300 -1.6398 0.9512
-8.5879 8.9248 -1.6393 0.9513
-8.9003 8.6084 -1.6389 0.9513
-10.0507 9.0458 -1.7897 0.9469
-10.3662 8.6769 -1.7893 0.9469
-10.6683 8.2971 -1.7888 0.9469
-10.9566 7.9069 -1.7884 0.9469
-11.4904 7.0972 -1.7875 0.9470
-12.1794 5.8172 -1.7865 0.9470
-12.3781 5.3754 -1.7861 0.9470
-12.5610 4.9267 -1.7858 0.9470
-12.7278 4.4720 -1.7856 0.9470
-13.1296 3.0766 -1.7849 0.9470
-13.2302 2.6030 -1.7847 0.9470
-13.4301 1.1653 -1.7842 0.9471
-13.4625 0.6825 -1.7842 0.9471
-13.4568 -0.7687 -1.7840 0.9471
-13.4205 -1.2512 -1.7840 0.9471
-12.9839 -3.6282 -1.7844 0.9471
-12.8464 -4.0922 -1.7845 0.9471
-12.5221 -5.0043 -1.7848 0.9470
-12.3358 -5.4512 -1.7850 0.9470
-12.1338 -5.8913 -1.7853 0.9470
-11.9162 -6.3239 -1.7855 0.9470
-11.4354 -7.1649 -1.7861 0.9470
-10.8959 -7.9698 -1.7868 0.9470
-10.6049 -8.3574 -1.7871 0.9470
-9.9823 -9.1007 -1.7879 0.9470
-9.6514 -9.4554 -1.7883 0.9469
-8.9526 -10.1285 -1.7892 0.9469
-8.2073 -10.7505 -1.7902 0.9469
-7.0101 -11.5806 -1.7917 0.9468
-6.5919 -11.8284 -1.7923 0.9468
-5.7299 -12.2786 -1.7934 0.9468
-4.3811 -12.8363 -1.7952 0.9467
-3.4512 -13.1266 -1.7964 0.9467
-2.9788 -13.2467 -1.7971 0.9467
-2.0222 -13.4360 -1.7984 0.9467
-1.5392 -13.5049 -1.7990 0.9466
-0.9433 -12.1343 -1.8000 0.9520
-0.0703 -12.1788 -1.8012 0.9519
0.3670 -12.1776 -1.8018 0.9519
0.8042 -12.1606 -1.8024 0.9519
1.2406 -12.1280 -1.8030 0.9519
1.6757 -12.0796 -1.8036 0.9519
2.9676 -11.8413 -1.8054 0.9518
3.3918 -11.7310 -1.8060 0.9518
3.8120 -11.6055 -1.8066 0.9518
4.2275 -11.4649 -1.8072 0.9518
4.6378 -11.3094 -1.8078 0.9518
5.0424 -11.1392 -1.8083 0.9518
5.4407 -10.9544 -1.8089 0.9517
7.3202 -9.8216 -1.8116 0.9517
7.6702 -9.5552 -1.8121 0.9517
6.3933 -7.4035 -1.4467 0.9612
6.3442 -6.8345 -1.3791 0.9630
6.4383 -6.4549 -1.3483 0.9638
7.0475 -6.1175 -1.3802 0.9630
10.0828 -7.0046 -1.8157 0.9516
9.7062 -6.2386 -1.7064 0.9544
10.7839 -5.8836 -1.8168 0.9515
10.9901 -5.4937 -1.8171 0.9515
11.1821 -5.0965 -1.8174 0.9515
11.3596 -4.6925 -1.8177 0.9515
11.8031 -3.4456 -1.8185 0.9515
12.1088 -2.1574 -1.8190 0.9515
12.3028 0.0394 -1.8195 0.9515
12.2937 0.4810 -1.8195 0.9515
12.1705 1.7998 -1.8195 0.9515
12.0977 2.2355 -1.8195 0.9515
11.6421 3.9402 -1.8177 0.9515
11.2691 4.2706 -1.7823 0.9524
9.6405 5.8019 -1.6641 0.9555
9.4246 6.1433 -1.6638 0.9555
9.1964 6.4766 -1.6635 0.9555
8.9564 6.8013 -1.6632 0.9555
8.7049 7.1171 -1.6629 0.9556
8.4421 7.4235 -1.6626 0.9556
8.1685 7.7202 -1.6622 0.9556
6.9731 8.8017 -1.6607 0.9556
6.6510 9.0440 -1.6603 0.9556
5.9818 9.4929 -1.6594 0.9556
4.1846 10.3936 -1.6571 0.9557
3.8077 10.5339 -1.6566 0.9557
3.4261 10.6605 -1.6560 0.9557
2.6507 10.8720 -1.6550 0.9558
2.2580 10.9566 -1.6545 0.9558
1.8627 11.0270 -1.6539 0.9558
0.6657 11.1523 -1.6523 0.9558
0.2649 11.1653 -1.6517 0.9558
-0.1360 11.1639 -1.6512 0.9559
-0.5365 11.1481 -1.6506 0.9559
-2.5142 10.8550 -1.6479 0.9559
-3.2844 10.6397 -1.6468 0.9560
-4.0367 10.3699 -1.6457 0.9560
-5.1233 9.8666 -1.6442 0.9560
-5.8145 9.4679 -1.6432 0.9561
-6.1488 9.2503 -1.6427 0.9561
-6.4749 9.0211 -1.6422 0.9561
-7.1016 8.5285 -1.6413 0.9561
-7.4011 8.2659 -1.6409 0.9561
-8.2406 7.4167 -1.6397 0.9562
-9.5553 7.4314 -1.7902 0.9522
-10.0595 6.7239 -1.7895 0.9523
-10.2923 6.3572 -1.7891 0.9523
-11.0884 4.8153 -1.7879 0.9523
-11.2524 4.4135 -1.7876 0.9523
-11.8527 2.3320 -1.7865 0.9523
-11.9876 1.4754 -1.7863 0.9523
-12.0321 1.0440 -1.7862 0.9523
-12.0750 0.1781 -1.7860 0.9523
-12.0237 -1.1210 -1.7859 0.9523
-11.9758 -1.5519 -1.7860 0.9523
-11.8343 -2.4073 -1.7861 0.9523
-11.7408 -2.8307 -1.7861 0.9523
-11.6323 -3.2505 -1.7863 0.9523
-11.3709 -4.0773 -1.7865 0.9523
-11.2182 -4.4833 -1.7867 0.9523
-11.0512 -4.8836 -1.7869 0.9523
-10.6750 -5.6652 -1.7873 0.9523
-10.4662 -6.0456 -1.7876 0.9523
-10.0085 -6.7830 -1.7881 0.9523
-9.4994 -7.4862 -1.7887 0.9523
-9.2263 -7.8239 -1.7891 0.9523
-8.9413 -8.1517 -1.7894 0.9523
-8.6447 -8.4692 -1.7898 0.9522
-8.3370 -8.7759 -1.7902 0.9522
-8.0184 -9.0716 -1.7906 0.9522
-7.6894 -9.3558 -1.7910 0.9522
-7.3504 -9.6281 -1.7915 0.9522
-7.0018 -9.8883 -1.7919 0.9522
-6.6441 -10.1358 -1.7924 0.9522
-6.2776 -10.3706 -1.7929 0.9522
-5.9029 -10.5921 -1.7933 0.9522
-5.5205 -10.8002 -1.7939 0.9521
-5.1307 -10.9946 -1.7944 0.9521
-4.7341 -11.1750 -1.7949 0.9521
-4.3312 -11.3411 -1.7954 0.9521
-3.0898 -11.7519 -1.7971 0.9521
-2.2401 -11.9509 -1.7982 0.9520
-0.8533 -10.9776 -1.8002 0.9564
-0.0636 -11.0171 -1.8013 0.9563
0.7275 -10.9999 -1.8024 0.9563
1.1222 -10.9701 -1.8030 0.9563
1.5157 -10.9260 -1.8035 0.9563
1.9075 -10.8679 -1.8041 0.9563
2.6839 -10.7094 -1.8051 0.9562
3.0675 -10.6093 -1.8057 0.9562
4.1940 -10.2271 -1.8073 0.9562
5.2736 -9.7252 -1.8088 0.9562
5.6209 -9.5323 -1.8093 0.9561
6.2937 -9.1093 -1.8103 0.9561
6.6183 -8.8798 -1.8107 0.9561
6.9346 -8.6387 -1.8112 0.9561
6.6307 -6.1868 -1.4827 0.9639
7.0476 -6.1176 -1.5258 0.9629
8.6329 -6.9663 -1.8137 0.9560
9.1141 -6.3316 -1.8145 0.9560
9.3372 -6.0015 -1.8148 0.9560
9.7472 -5.3179 -1.8154 0.9560
9.9334 -4.9654 -1.8157 0.9560
10.5476 -3.4946 -1.8167 0.9560
10.7735 -2.7294 -1.8171 0.9560
10.8655 -2.3411 -1.8173 0.9559
11.0072 -1.5558 -1.8176 0.9559
11.0566 -1.1597 -1.8177 0.9559
10.9990 1.6266 -1.8179 0.9559
10.9332 2.0203 -1.8178 0.9559
10.7591 2.7992 -1.8177 0.9559
10.5292 3.5635 -1.8175 0.9559
9.9788 4.1972 -1.7700 0.9571
9.2299 4.2784 -1.6633 0.9596
8.8971 4.9284 -1.6630 0.9596
8.7133 5.2439 -1.6627 0.9596
8.3122 5.8538 -1.6622 0.9596
8.0954 6.1475 -1.6620 0.9596
7.6308 6.7101 -1.6614 0.9597
7.3837 6.9784 -1.6611 0.9597
7.1270 7.2375 -1.6608 0.9597
6.8612 7.4871 -1.6604 0.9597
3.7023 4.6732 -0.9748 0.9761
5.7139 8.3846 -1.6589 0.9597
5.4079 8.5822 -1.6585 0.9597
5.0951 8.7686 -1.6581 0.9597
4.1197 9.2584 -1.6568 0.9598
3.7837 9.3977 -1.6564 0.9598
3.4430 9.5249 -1.6559 0.9598
3.0980 9.6396 -1.6555 0.9598
2.7492 9.7419 -1.6550 0.9598
1.6845 9.9723 -1.6536 0.9598
0.9641 10.0615 -1.6526 0.9599
0.2396 10.0987 -1.6516 0.9599
-0.8467 10.0568 -1.6501 0.9599
-1.5651 9.9641 -1.6491 0.9599
-2.2746 9.8202 -1.6481 0.9600
-2.9715 9.6260 -1.6471 0.9600
-3.3141 9.5103 -1.6466 0.9600
-3.6523 9.3825 -1.6462 0.9600
-4.3136 9.0911 -1.6452 0.9600
-4.6358 8.9279 -1.6448 0.9600
-5.8596 8.1637 -1.6430 0.9601
-6.4270 7.7184 -1.6422 0.9601
-7.4586 6.7128 -1.6407 0.9601
-9.3165 5.7545 -1.7904 0.9566
-9.5154 5.4154 -1.7901 0.9566
-9.7021 5.0695 -1.7898 0.9566
-9.8763 4.7172 -1.7895 0.9566
-10.0378 4.3590 -1.7893 0.9566
-10.4443 3.2534 -1.7886 0.9566
-10.8527 1.3357 -1.7878 0.9566
-10.9195 0.5536 -1.7876 0.9567
-10.9150 -0.6235 -1.7875 0.9567
-10.8856 -1.0149 -1.7875 0.9567
-10.8423 -1.4050 -1.7875 0.9567
-10.7851 -1.7933 -1.7876 0.9567
-10.6294 -2.5627 -1.7877 0.9567
-10.4194 -3.3191 -1.7879 0.9566
-10.1560 -4.0587 -1.7882 0.9566
-9.8406 -4.7779 -1.7886 0.9566
-9.0601 -6.1403 -1.7895 0.9566
-8.3516 -7.0822 -1.7904 0.9566
-6.9597 -8.4679 -1.7921 0.9565
-6.3371 -8.9494 -1.7929 0.9565
-6.0131 -9.1733 -1.7933 0.9565
-5.6813 -9.3855 -1.7938 0.9565
-5.3421 -9.5858 -1.7942 0.9565
-4.9958 -9.7738 -1.7947 0.9565
-3.5493 -10.3994 -1.7966 0.9564
-2.7957 -10.6332 -1.7976 0.9564
-2.0267 -10.8126 -1.7987 0.9564
-1.6378 -10.8816 -1.7992 0.9564
-1.2465 -10.9366 -1.7997 0.9564
-0.0580 -10.0534 -1.8014 0.9600
0.3030 -10.0517 -1.8019 0.9600
0.6638 -10.0372 -1.8024 0.9599
1.7404 -9.9159 -1.8039 0.9599
2.0958 -9.8497 -1.8044 0.9599
3.8260 -9.3298 -1.8069 0.9599
4.1595 -9.1888 -1.8073 0.9598
4.8105 -8.8713 -1.8083 0.9598
5.1272 -8.6950 -1.8087 0.9598
5.4373 -8.5075 -1.8092 0.9598
6.3249 -7.8793 -1.8105 0.9598
6.8770 -7.4085 -1.8113 0.9598
7.3939 -6.8989 -1.8120 0.9597
7.0476 -6.1176 -1.6722 0.9628
7.8729 -6.3531 -1.8127 0.9597
8.0974 -6.0676 -1.8131 0.9597
8.3115 -5.7740 -1.8134 0.9597
8.5149 -5.4729 -1.8137 0.9597
8.7073 -5.1646 -1.8140 0.9597
9.0581 -4.5279 -1.8146 0.9597
9.4961 -3.5293 -1.8153 0.9597
9.7269 -2.8395 -1.8157 0.9597
9.8235 -2.4887 -1.8158 0.9597
9.9073 -2.1347 -1.8160 0.9597
9.9783 -1.7778 -1.8161 0.9596
10.0364 -1.4186 -1.8162 0.9596
10.0814 -1.0574 -1.8163 0.9596
10.1133 -0.6949 -1.8164 0.9596
10.1321 -0.3314 -1.8165 0.9596
10.1377 0.0325 -1.8165 0.9596
10.1095 0.7598 -1.8166 0.9596
10.0756 1.1222 -1.8166 0.9596
10.0287 1.4831 -1.8165 0.9596
9.9688 1.8421 -1.8165 0.9596
9.8959 2.1987 -1.8164 0.9596
9.8102 2.5524 -1.8164 0.9596
9.7117 2.9027 -1.8163 0.9596
9.4771 3.5915 -1.8160 0.9597
9.0490 4.1945 -1.7872 0.9603
8.3037 4.2175 -1.6688 0.9629
7.9453 4.7817 -1.6616 0.9630
7.7676 5.0632 -1.6614 0.9630
7.5797 5.3380 -1.6612 0.9630
7.1751 5.8663 -1.6607 0.9630
6.7335 6.3639 -1.6601 0.9631
6.4995 6.6003 -1.6598 0.9631
6.2572 6.8281 -1.6595 0.9631
3.8107 4.4704 -1.0526 0.9764
5.4836 7.4567 -1.6585 0.9631
5.2113 7.6471 -1.6582 0.9631
4.9324 7.8275 -1.6578 0.9631
4.3561 8.1575 -1.6571 0.9631
3.7578 8.4450 -1.6563 0.9631
1.8629 9.0391 -1.6537 0.9632
1.5368 9.0978 -1.6533 0.9632
1.2089 9.1446 -1.6528 0.9632
0.8796 9.1796 -1.6524 0.9632
0.5494 9.2027 -1.6519 0.9632
0.2186 9.2140 -1.6515 0.9632
-0.1122 9.2134 -1.6510 0.9632
-0.4428 9.2009 -1.6506 0.9633
-0.7725 9.1765 -1.6501 0.9633
-1.1012 9.1403 -1.6497 0.9633
-2.3954 8.8789 -1.6478 0.9633
-3.9370 8.2975 -1.6457 0.9634
-4.8026 7.8203 -1.6444 0.9634
-5.0790 7.6410 -1.6440 0.9634
-5.3488 7.4520 -1.6436 0.9634
-5.6115 7.2535 -1.6432 0.9634
-5.8669 7.0458 -1.6429 0.9634
-6.8091 6.1283 -1.6415 0.9635
-7.6467 6.4006 -1.7868 0.9603
-7.8961 6.1411 -1.7924 0.9602
-8.6878 4.9444 -1.7912 0.9602
-8.8584 4.6286 -1.7909 0.9602
-9.0175 4.3070 -1.7907 0.9602
-9.3009 3.6480 -1.7902 0.9602
-9.5366 2.9707 -1.7898 0.9602
-9.7981 1.9278 -1.7893 0.9602
-9.8603 1.5747 -1.7892 0.9602
-2.0428 0.2514 -0.3688 0.9917
-2.0522 0.1781 -0.3691 0.9917
-2.0197 0.0298 -0.3619 0.9918
-2.0247 -0.0428 -0.3629 0.9918
-2.0516 -0.1913 -0.3692 0.9917
-2.0396 -0.2643 -0.3685 0.9917
-9.7833 -1.9901 -1.7889 0.9602
-9.7060 -2.3401 -1.7890 0.9602
-9.2735 -3.7060 -1.7894 0.9602
-9.1352 -4.0369 -1.7896 0.9602
-8.9853 -4.3626 -1.7898 0.9602
-8.6510 -4.9971 -1.7902 0.9602
-8.2723 -5.6064 -1.7906 0.9602
-7.8511 -6.1872 -1.7911 0.9602
-7.3893 -6.7367 -1.7917 0.9602
-6.8893 -7.2521 -1.7923 0.9602
-6.6258 -7.4961 -1.7927 0.9602
-6.3537 -7.7306 -1.7930 0.9602
-4.8765 -8.7503 -1.7950 0.9601
-4.5603 -8.9217 -1.7954 0.9601
-3.9103 -9.2304 -1.7962 0.9601
-3.2396 -9.4918 -1.7971 0.9601
-2.5516 -9.7048 -1.7980 0.9600
-0.3849 -9.2304 -1.8011 0.9631
-0.0533 -9.2406 -1.8015 0.9630
0.2785 -9.2389 -1.8020 0.9630
0.6101 -9.2253 -1.8024 0.9630
0.9411 -9.1998 -1.8029 0.9630
1.5995 -9.1132 -1.8038 0.9630
2.5719 -8.8951 -1.8052 0.9630
3.2050 -8.6920 -1.8061 0.9629
3.5158 -8.5734 -1.8065 0.9629
3.8222 -8.4437 -1.8069 0.9629
4.7111 -7.9895 -1.8082 0.9629
4.9960 -7.8170 -1.8086 0.9629
5.5464 -7.4417 -1.8094 0.9629
5.8112 -7.2393 -1.8098 0.9629
6.0686 -7.0275 -1.8102 0.9629
6.3182 -6.8065 -1.8106 0.9629
6.5598 -6.5766 -1.8109 0.9629
7.4389 -5.5741 -1.8122 0.9628
7.6354 -5.3044 -1.8125 0.9628
7.9988 -4.7444 -1.8131 0.9628
8.1651 -4.4548 -1.8133 0.9628
8.4659 -3.8585 -1.8138 0.9628
8.8346 -2.9270 -1.8144 0.9628
9.0235 -2.2861 -1.8148 0.9628
9.1004 -1.9608 -1.8149 0.9628
9.1656 -1.6330 -1.8150 0.9628
9.2602 -0.9713 -1.8152 0.9628
9.2894 -0.6383 -1.8153 0.9628
9.3049 0.3641 -1.8154 0.9628
9.2859 0.6979 -1.8154 0.9628
9.2117 1.3623 -1.8154 0.9628
9.0897 2.0196 -1.8153 0.9628
9.0110 2.3445 -1.8152 0.9628
8.9206 2.6663 -1.8151 0.9628
8.5806 3.6091 -1.8148 0.9628
8.2529 4.1917 -1.8046 0.9630
7.6045 4.2124 -1.6948 0.9652
6.9629 4.9036 -1.6603 0.9659
6.5913 5.3890 -1.6598 0.9659
6.3926 5.6213 -1.6596 0.9659
6.1858 5.8462 -1.6593 0.9659
5.9709 6.0635 -1.6590 0.9659
5.0380 6.8507 -1.6578 0.9659
4.7879 7.0258 -1.6575 0.9659
4.5317 7.1916 -1.6572 0.9660
3.7299 7.6323 -1.6561 0.9660
2.8858 7.9836 -1.6550 0.9660
2.5968 8.0801 -1.6546 0.9660
1.4123 8.3605 -1.6530 0.9660
1.1109 8.4038 -1.6526 0.9660
0.8084 8.4361 -1.6522 0.9661
0.5049 8.4576 -1.6518 0.9661
-0.4070 8.4564 -1.6505 0.9661
-0.7101 8.4342 -1.6501 0.9661
-1.0121 8.4012 -1.6497 0.9661
-1.6114 8.3027 -1.6489 0.9661
-2.2019 8.1616 -1.6480 0.9661
-2.4928 8.0753 -1.6476 0.9661
-2.7804 7.9786 -1.6472 0.9662
-3.6194 7.6280 -1.6460 0.9662
-3.8900 7.4914 -1.6456 0.9662
-4.1554 7.3452 -1.6453 0.9662
-5.1593 6.6690 -1.6438 0.9662
-5.3942 6.4781 -1.6435 0.9662
-6.2610 5.6350 -1.6422 0.9663
-7.2583 5.6450 -1.7926 0.9632
-7.4574 5.3817 -1.7929 0.9632
-7.6446 5.1097 -1.7926 0.9632
-7.8219 4.8313 -1.7924 0.9632
-7.9891 4.5467 -1.7921 0.9632
-8.4283 3.6601 -1.7914 0.9632
-8.6673 3.0453 -1.7910 0.9633
-1.7744 0.5527 -0.3623 0.9925
-1.7561 0.4786 -0.3548 0.9926
-1.7358 0.4067 -0.3476 0.9928
-1.7138 0.3372 -0.3405 0.9929
-1.6983 0.2712 -0.3353 0.9930
-1.7084 0.0866 -0.3335 0.9931
-1.7072 0.0252 -0.3329 0.9931
-1.7076 -0.0361 -0.3330 0.9931
-1.7069 -0.1591 -0.3342 0.9930
-1.7030 -0.2207 -0.3348 0.9930
-1.6971 -0.2822 -0.3354 0.9930
-1.7178 -0.3494 -0.3418 0.9929
-1.7396 -0.4194 -0.3489 0.9927
-1.7595 -0.4917 -0.3562 0.9926
-8.6446 -3.0997 -1.7904 0.9633
-8.5283 -3.4083 -1.7905 0.9633
-8.4012 -3.7125 -1.7906 0.9633
-8.2632 -4.0120 -1.7908 0.9633
-7.9557 -4.5955 -1.7912 0.9633
-7.2197 -5.6896 -1.7921 0.9632
-7.0118 -5.9460 -1.7923 0.9632
-6.0925 -6.8928 -1.7935 0.9632
-5.5844 -7.3148 -1.7941 0.9632
-5.3192 -7.5120 -1.7945 0.9632
-5.0471 -7.6996 -1.7948 0.9632
-4.7684 -7.8774 -1.7952 0.9632
-4.1927 -8.2027 -1.7960 0.9632
-3.8964 -8.3497 -1.7963 0.9631
-2.9783 -8.7262 -1.7976 0.9631
-2.3456 -8.9216 -1.7984 0.9631
0.2575 -8.5439 -1.8020 0.9657
0.8703 -8.5074 -1.8029 0.9656
1.1754 -8.4726 -1.8033 0.9656
1.7810 -8.3704 -1.8041 0.9656
2.9634 -8.0367 -1.8058 0.9656
3.2507 -7.9269 -1.8062 0.9656
3.5340 -7.8069 -1.8066 0.9656
3.8128 -7.6767 -1.8070 0.9656
4.0867 -7.5365 -1.8074 0.9656
4.3556 -7.3865 -1.8078 0.9656
5.1276 -6.8797 -1.8089 0.9655
5.6101 -6.4966 -1.8096 0.9655
6.0640 -6.0796 -1.8103 0.9655
6.2795 -5.8591 -1.8106 0.9655
6.4868 -5.6308 -1.8109 0.9655
6.6859 -5.3953 -1.8112 0.9655
6.8763 -5.1526 -1.8115 0.9655
7.3936 -4.3854 -1.8123 0.9655
7.5473 -4.1177 -1.8125 0.9655
7.9490 -3.2837 -1.8132 0.9655
8.0626 -2.9965 -1.8134 0.9654
8.1658 -2.7054 -1.8135 0.9654
8.2583 -2.4108 -1.8137 0.9654
8.4113 -1.8123 -1.8140 0.9654
8.4715 -1.5093 -1.8141 0.9654
8.5207 -1.2043 -1.8142 0.9654
8.5588 -0.8977 -1.8143 0.9654
8.6017 -0.2814 -1.8144 0.9654
8.6065 0.0276 -1.8144 0.9654
8.6001 0.3365 -1.8145 0.9654
8.5825 0.6450 -1.8145 0.9654
8.5140 1.2591 -1.8144 0.9654
8.4631 1.5639 -1.8144 0.9654
8.3285 2.1669 -1.8143 0.9654
8.2450 2.4643 -1.8142 0.9654
7.8054 3.6180 -1.8137 0.9654
7.6591 3.8901 -1.8110 0.9655
7.4953 4.1519 -1.8064 0.9656
6.9920 4.2080 -1.7204 0.9672
6.5953 4.2990 -1.6597 0.9683
6.4359 4.5325 -1.6595 0.9683
5.7179 5.4040 -1.6586 0.9683
5.5194 5.6050 -1.6584 0.9684
3.8040 4.4626 -1.2362 0.9763
3.9472 6.7931 -1.6563 0.9684
3.7001 6.9291 -1.6560 0.9684
3.4483 7.0560 -1.6557 0.9684
3.1921 7.1738 -1.6553 0.9684
2.6681 7.3812 -1.6546 0.9684
2.4009 7.4706 -1.6543 0.9684
1.3058 7.7304 -1.6528 0.9685
1.0272 7.7705 -1.6524 0.9685
0.1858 7.8305 -1.6513 0.9685
-0.6566 7.7996 -1.6501 0.9685
-0.9360 7.7691 -1.6497 0.9685
-1.4903 7.6784 -1.6490 0.9685
-1.7645 7.6182 -1.6486 0.9685
-2.0364 7.5482 -1.6482 0.9685
-2.3055 7.4685 -1.6478 0.9686
-2.5715 7.3792 -1.6474 0.9686
-2.8341 7.2805 -1.6471 0.9686
-4.3193 6.4980 -1.6449 0.9686
-4.5488 6.3375 -1.6446 0.9686
-5.2008 5.8084 -1.6437 0.9686
-5.7942 5.2148 -1.6434 0.9686
-6.5068 5.4465 -1.7889 0.9659
-6.7162 5.2235 -1.7937 0.9658
-6.8990 4.9787 -1.7936 0.9658
-7.2364 4.4696 -1.7931 0.9658
-7.3912 4.2064 -1.7929 0.9658
-7.6720 3.6644 -1.7924 0.9658
-7.9134 3.1038 -1.7920 0.9658
-1.6255 0.5711 -0.3632 0.9930
-1.6130 0.5025 -0.3562 0.9931
-1.5663 0.3082 -0.3365 0.9935
-1.5642 0.2498 -0.3340 0.9935
-1.5696 0.1932 -0.3334 0.9936
-1.5728 0.1365 -0.3328 0.9936
-1.5740 0.0798 -0.3323 0.9936
-1.5731 0.0232 -0.3317 0.9936
-1.5734 -0.0333 -0.3318 0.9936
-1.5723 -0.1466 -0.3329 0.9936
-1.5688 -0.2033 -0.3335 0.9936
-1.5865 -0.3825 -0.3441 0.9934
-1.6018 -0.4476 -0.3506 0.9932
-1.6275 -0.5836 -0.3645 0.9930
-7.8906 -3.1534 -1.7914 0.9659
-7.6452 -3.7120 -1.7917 0.9659
-7.5077 -3.9843 -1.7918 0.9659
-7.3605 -4.2517 -1.7920 0.9658
-6.6793 -5.2638 -1.7928 0.9658
-6.4869 -5.5009 -1.7931 0.9658
-6.0773 -5.9539 -1.7936 0.9658
-5.4046 -6.5758 -1.7945 0.9658
-5.1659 -6.7668 -1.7948 0.9658
-4.6688 -7.1225 -1.7954 0.9658
-4.1474 -7.4420 -1.7961 0.9658
-3.8783 -7.5875 -1.7965 0.9658
-3.3253 -7.8494 -1.7972 0.9658
-3.0420 -7.9654 -1.7976 0.9657
-2.7547 -8.0712 -1.7979 0.9657
-2.1695 -8.2516 -1.7987 0.9657
-1.2707 -8.4428 -1.7999 0.9657
-0.6154 -7.9171 -1.8009 0.9680
-0.3309 -7.9358 -1.8013 0.9679
0.2394 -7.9425 -1.8021 0.9679
0.5245 -7.9305 -1.8025 0.9679
1.3749 -7.8333 -1.8036 0.9679
1.6555 -7.7806 -1.8040 0.9679
1.9342 -7.7178 -1.8044 0.9679
2.4840 -7.5624 -1.8052 0.9679
3.2846 -7.2561 -1.8063 0.9679
3.7983 -7.0046 -1.8071 0.9678
4.0481 -6.8651 -1.8074 0.9678
4.5320 -6.5595 -1.8081 0.9678
4.7654 -6.3938 -1.8085 0.9678
5.6354 -5.6499 -1.8097 0.9678
6.3900 -4.7882 -1.8109 0.9678
6.7189 -4.3186 -1.8114 0.9678
6.8705 -4.0751 -1.8116 0.9678
7.0132 -3.8263 -1.8118 0.9678
7.1469 -3.5725 -1.8120 0.9678
7.3864 -3.0512 -1.8124 0.9678
7.4918 -2.7844 -1.8126 0.9677
7.6736 -2.2401 -1.8129 0.9677
7.9172 -1.1190 -1.8134 0.9677
7.9526 -0.8342 -1.8134 0.9677
7.9969 0.0256 -1.8136 0.9677
7.9909 0.3127 -1.8136 0.9677
7.9109 1.1699 -1.8136 0.9677
7.8062 1.7344 -1.8135 0.9677
7.7387 2.0134 -1.8134 0.9677
7.6611 2.2898 -1.8134 0.9677
7.5735 2.5632 -1.8133 0.9677
7.3692 3.0996 -1.8131 0.9677
7.2527 3.3618 -1.8129 0.9677
6.9833 3.8683 -1.8105 0.9678
6.8240 4.1069 -1.8062 0.9679
6.4488 4.2036 -1.7458 0.9689
5.9951 4.2221 -1.6629 0.9704
5.6615 4.6288 -1.6585 0.9705
5.4910 4.8284 -1.6583 0.9705
5.3134 5.0218 -1.6580 0.9705
5.1290 5.2085 -1.6578 0.9705
3.8007 4.4587 -1.3287 0.9763
4.1133 6.0359 -1.6565 0.9705
3.8933 6.1785 -1.6562 0.9705
3.6684 6.3132 -1.6559 0.9705
2.7250 6.7681 -1.6547 0.9705
1.7268 7.0827 -1.6533 0.9705
1.2137 7.1853 -1.6526 0.9706
0.9548 7.2228 -1.6523 0.9706
0.4340 7.2695 -1.6516 0.9706
0.1727 7.2788 -1.6512 0.9706
-0.6104 7.2505 -1.6501 0.9706
-0.8701 7.2223 -1.6498 0.9706
-1.1285 7.1849 -1.6494 0.9706
-1.3854 7.1382 -1.6490 0.9706
-1.8932 7.0173 -1.6483 0.9706
-2.1434 6.9434 -1.6480 0.9706
-2.3907 6.8605 -1.6476 0.9706
-2.8756 6.6685 -1.6469 0.9707
-3.1125 6.5597 -1.6466 0.9707
-3.5737 6.3169 -1.6460 0.9707
-3.7974 6.1834 -1.6456 0.9707
-4.4376 5.7360 -1.6447 0.9707
-4.6398 5.5721 -1.6444 0.9707
-5.0259 5.2230 -1.6438 0.9707
-5.7195 5.1477 -1.7451 0.9689
-6.4156 4.6298 -1.7943 0.9681
-6.5767 4.3960 -1.7940 0.9681
-6.7294 4.1565 -1.7938 0.9681
-6.8734 3.9118 -1.7936 0.9681
-7.1347 3.4078 -1.7931 0.9681
-7.2517 3.1491 -1.7930 0.9681
-1.4675 0.3999 -0.3449 0.9938
-1.4420 0.2837 -0.3333 0.9940
-1.4491 0.2314 -0.3328 0.9940
-1.4542 0.1790 -0.3323 0.9940
-1.4573 0.1265 -0.3317 0.9940
-1.4569 -0.1358 -0.3318 0.9940
-1.4534 -0.1883 -0.3324 0.9940
-1.4480 -0.2408 -0.3329 0.9940
-1.4695 -0.4106 -0.3460 0.9938
-1.4800 -0.4715 -0.3523 0.9936
-1.4886 -0.5338 -0.3586 0.9935
-1.4952 -0.5975 -0.3652 0.9934
-7.2287 -3.1944 -1.7923 0.9681
-6.6994 -4.1976 -1.7929 0.9681
-6.3824 -4.6684 -1.7933 0.9681
-6.2114 -4.8951 -1.7935 0.9681
-6.0325 -5.1155 -1.7938 0.9681
-5.8457 -5.3295 -1.7940 0.9681
-5.6514 -5.5366 -1.7942 0.9681
-5.4498 -5.7367 -1.7945 0.9681
-4.8037 -6.2923 -1.7953 0.9681
-4.5755 -6.4617 -1.7956 0.9680
-3.8563 -6.9198 -1.7966 0.9680
-3.3512 -7.1813 -1.7972 0.9680
-3.0918 -7.2983 -1.7976 0.9680
-2.8284 -7.4061 -1.7979 0.9680
-2.5612 -7.5043 -1.7983 0.9680
-1.4621 -7.8001 -1.7998 0.9680
-1.1814 -7.8492 -1.8001 0.9680
-0.5747 -7.3934 -1.8010 0.9699
0.2236 -7.4169 -1.8021 0.9699
0.7554 -7.3847 -1.8028 0.9699
1.0202 -7.3544 -1.8032 0.9699
1.5459 -7.2651 -1.8039 0.9699
1.8060 -7.2064 -1.8043 0.9699
2.0640 -7.1384 -1.8047 0.9699
2.5718 -6.9747 -1.8054 0.9699
2.8211 -6.8792 -1.8057 0.9699
3.0668 -6.7748 -1.8061 0.9699
3.5463 -6.5398 -1.8068 0.9698
4.2311 -6.1240 -1.8078 0.9698
4.4490 -5.9692 -1.8081 0.9698
4.6612 -5.8067 -1.8084 0.9698
4.8674 -5.6365 -1.8087 0.9698
5.2610 -5.2745 -1.8093 0.9698
6.1226 -4.2534 -1.8106 0.9698
6.5467 -3.5718 -1.8112 0.9698
6.7876 -3.0936 -1.8116 0.9698
6.9933 -2.5991 -1.8119 0.9698
7.0827 -2.3466 -1.8121 0.9698
7.1629 -2.0910 -1.8122 0.9698
7.2338 -1.8327 -1.8123 0.9697
7.2954 -1.5719 -1.8125 0.9697
7.3475 -1.3091 -1.8126 0.9697
7.3901 -1.0445 -1.8126 0.9697
7.4232 -0.7786 -1.8127 0.9697
7.4604 -0.2440 -1.8128 0.9697
7.4645 0.0239 -1.8129 0.9697
7.4589 0.2918 -1.8129 0.9697
7.4187 0.8262 -1.8129 0.9697
7.2865 1.6189 -1.8128 0.9697
7.2235 1.8794 -1.8127 0.9697
7.1511 2.1374 -1.8127 0.9697
7.0694 2.3926 -1.8126 0.9697
6.8787 2.8933 -1.8124 0.9697
6.5264 3.6152 -1.8120 0.9698
6.2304 4.0612 -1.8062 0.9699
5.2850 4.3210 -1.6579 0.9723
3.7973 4.4548 -1.4216 0.9762
3.4247 5.8939 -1.6555 0.9723
3.2104 6.0120 -1.6552 0.9723
2.7698 6.2247 -1.6547 0.9723
2.3152 6.4050 -1.6541 0.9724
2.0834 6.4828 -1.6537 0.9724
1.8490 6.5521 -1.6534 0.9724
1.1333 6.7090 -1.6525 0.9724
0.1613 6.7967 -1.6511 0.9724
-1.0539 6.7094 -1.6495 0.9724
-1.7680 6.5533 -1.6485 0.9724
-2.0017 6.4843 -1.6481 0.9725
-2.2327 6.4070 -1.6478 0.9725
-2.4608 6.3215 -1.6475 0.9725
-2.6856 6.2279 -1.6472 0.9725
-2.9068 6.1263 -1.6468 0.9725
-3.1243 6.0169 -1.6465 0.9725
-3.5466 5.7751 -1.6459 0.9725
-3.7510 5.6430 -1.6456 0.9725
-3.9504 5.5038 -1.6453 0.9725
-4.1447 5.3575 -1.6451 0.9725
-4.3336 5.2044 -1.6448 0.9725
-4.9834 4.8200 -1.6838 0.9719
-5.4762 4.9287 -1.7893 0.9701
-5.6623 4.7395 -1.7933 0.9701
-6.1433 4.1062 -1.7946 0.9700
-6.4205 3.6540 -1.7942 0.9700
-1.3767 0.5979 -0.3645 0.9938
-1.3743 0.5390 -0.3585 0.9939
-1.3699 0.4813 -0.3526 0.9940
-1.3636 0.4248 -0.3469 0.9941
-1.3491 0.2154 -0.3318 0.9944
-1.3540 0.1666 -0.3313 0.9944
-1.3583 0.0688 -0.3303 0.9944
-1.3532 -0.1754 -0.3314 0.9944
-1.3649 -0.4348 -0.3479 0.9941
-1.3709 -0.4916 -0.3537 0.9940
-1.3749 -0.5495 -0.3596 0.9939
-6.6417 -3.2247 -1.7931 0.9701
-6.3943 -3.6936 -1.7934 0.9701
-5.8022 -4.5725 -1.7941 0.9700
-5.2789 -5.1717 -1.7948 0.9700
-4.6943 -5.7116 -1.7955 0.9700
-4.0549 -6.1860 -1.7964 0.9700
-3.8309 -6.3286 -1.7967 0.9700
-3.3681 -6.5894 -1.7973 0.9700
-3.1300 -6.7072 -1.7976 0.9700
-2.8877 -6.8165 -1.7979 0.9700
-2.3921 -7.0086 -1.7986 0.9700
-2.1394 -7.0913 -1.7989 0.9700
-1.8838 -7.1649 -1.7992 0.9700
-1.6257 -7.2293 -1.7996 0.9700
-0.5388 -6.9316 -1.8011 0.9717
-0.2897 -6.9477 -1.8015 0.9717
-0.0401 -6.9550 -1.8018 0.9717
0.2096 -6.9533 -1.8021 0.9717
1.4492 -6.8106 -1.8039 0.9716
1.6930 -6.7555 -1.8042 0.9716
2.6444 -6.4484 -1.8055 0.9716
3.5426 -6.0078 -1.8068 0.9716
3.7566 -5.8778 -1.8071 0.9716
3.9658 -5.7401 -1.8074 0.9716
4.7496 -5.1166 -1.8086 0.9716
4.9309 -4.9436 -1.8088 0.9716
5.1059 -4.7641 -1.8091 0.9716
5.5907 -4.1892 -1.8098 0.9715
5.7382 -3.9863 -1.8101 0.9715
6.0108 -3.5652 -1.8105 0.9715
6.1356 -3.3475 -1.8107 0.9715
6.5540 -2.4358 -1.8113 0.9715
6.9257 -0.9789 -1.8120 0.9715
6.9566 -0.7297 -1.8121 0.9715
6.9786 -0.4795 -1.8121 0.9715
6.9915 -0.2287 -1.8122 0.9715
6.9900 0.2735 -1.8122 0.9715
6.9524 0.7743 -1.8122 0.9715
6.8285 1.5172 -1.8121 0.9715
6.7695 1.7612 -1.8121 0.9715
6.7016 2.0030 -1.8120 0.9715
6.5400 2.4784 -1.8118 0.9715
6.4465 2.7115 -1.8117 0.9715
6.1163 3.3881 -1.8114 0.9715
5.9903 3.6051 -1.8112 0.9715
5.8526 3.8149 -1.8098 0.9715
5.5237 4.1946 -1.7968 0.9717
4.8062 4.2263 -1.6580 0.9739
4.4874 4.5570 -1.6568 0.9739
4.3204 4.7146 -1.6566 0.9739
3.6644 4.6253 -1.5287 0.9759
3.4067 5.4064 -1.6555 0.9739
3.0091 5.6351 -1.6549 0.9739
2.5962 5.8345 -1.6544 0.9740
2.3847 5.9229 -1.6541 0.9740
1.9529 6.0767 -1.6535 0.9740
1.7332 6.1417 -1.6532 0.9740
1.5114 6.1989 -1.6529 0.9740
0.8357 6.3219 -1.6520 0.9740
0.6081 6.3467 -1.6517 0.9740
0.1512 6.3715 -1.6511 0.9740
-0.7617 6.3227 -1.6498 0.9740
-0.9880 6.2901 -1.6495 0.9740
-1.2129 6.2494 -1.6492 0.9740
-1.4362 6.2007 -1.6489 0.9740
-1.8767 6.0794 -1.6483 0.9741
-2.0933 6.0070 -1.6480 0.9741
-3.5171 5.2911 -1.6459 0.9741
-3.7041 5.1606 -1.6456 0.9741
-3.8863 5.0235 -1.6454 0.9741
-4.4545 4.6292 -1.6643 0.9738
-4.9468 4.7846 -1.7829 0.9720
-5.3155 4.4492 -1.7958 0.9718
-5.6195 4.0554 -1.7953 0.9718
-5.7608 3.8506 -1.7951 0.9718
-6.1393 3.2079 -1.7945 0.9718
-1.2882 0.6153 -0.3698 0.9941
-1.2890 0.5056 -0.3587 0.9943
-1.2874 0.4523 -0.3535 0.9944
-1.2844 0.2051 -0.3370 0.9946
-1.2877 0.1585 -0.3361 0.9947
-1.2909 0.0190 -0.3344 0.9947
-1.2910 -0.0273 -0.3345 0.9947
-1.2909 -0.0737 -0.3350 0.9947
-1.2896 -0.1202 -0.3355 0.9947
-1.2837 -0.2134 -0.3371 0.9946
-1.2790 -0.2602 -0.3381 0.9946
-1.2771 -0.3079 -0.3403 0.9946
-1.2813 -0.3580 -0.3446 0.9945
-1.2878 -0.4618 -0.3544 0.9944
-1.2892 -0.5152 -0.3597 0.9943
-1.2892 -0.5697 -0.3651 0.9942
-5.7335 -3.8857 -1.7943 0.9718
-5.5908 -4.0894 -1.7945 0.9718
-5.1205 -4.6683 -1.7951 0.9718
-4.9502 -4.8497 -1.7953 0.9718
-4.7735 -5.0249 -1.7955 0.9718
-4.4019 -5.3558 -1.7960 0.9718
-3.8022 -5.8005 -1.7967 0.9717
-3.5921 -5.9341 -1.7970 0.9717
-2.9348 -6.2890 -1.7979 0.9717
-2.2428 -6.5714 -1.7988 0.9717
-1.7662 -6.7177 -1.7994 0.9717
-1.2802 -6.8296 -1.8001 0.9717
-1.0344 -6.8725 -1.8004 0.9717
-0.7871 -6.9064 -1.8008 0.9717
-0.0378 -6.5429 -1.8018 0.9732
0.4319 -6.5311 -1.8025 0.9732
0.6662 -6.5125 -1.8028 0.9732
1.3632 -6.4066 -1.8038 0.9732
2.0451 -6.2262 -1.8047 0.9732
2.4874 -6.0655 -1.8054 0.9732
2.7040 -5.9734 -1.8057 0.9732
2.9171 -5.8734 -1.8060 0.9732
3.1266 -5.7659 -1.8063 0.9732
3.7301 -5.3990 -1.8071 0.9731
4.2909 -4.9689 -1.8080 0.9731
4.6376 -4.6496 -1.8085 0.9731
4.9606 -4.3060 -1.8090 0.9731
5.3967 -3.7491 -1.8096 0.9731
5.5284 -3.5534 -1.8098 0.9731
5.9824 -2.7266 -1.8105 0.9731
6.0770 -2.5103 -1.8107 0.9731
6.2424 -2.0682 -1.8110 0.9731
6.3130 -1.8429 -1.8111 0.9731
6.4297 -1.3854 -1.8113 0.9731
6.4756 -1.1537 -1.8114 0.9731
6.5131 -0.9206 -1.8115 0.9731
6.5422 -0.6862 -1.8115 0.9731
6.5628 -0.4509 -1.8116 0.9731
6.5382 0.7282 -1.8117 0.9731
6.4689 1.1954 -1.8116 0.9731
6.4217 1.4268 -1.8116 0.9731
6.3662 1.6563 -1.8115 0.9731
6.3024 1.8837 -1.8115 0.9731
6.2305 2.1086 -1.8114 0.9731
5.9667 2.7658 -1.8111 0.9731
5.8632 2.9779 -1.8110 0.9731
5.7521 3.1863 -1.8108 0.9731
5.5078 3.5902 -1.8105 0.9731
5.3729 3.7838 -1.8097 0.9731
5.0693 4.1446 -1.8032 0.9732
4.7799 4.2031 -1.7528 0.9739
4.2204 4.2858 -1.6565 0.9754
4.0633 4.4340 -1.6563 0.9754
3.7906 4.4469 -1.6091 0.9760
3.6602 4.6200 -1.6232 0.9758
3.5617 4.8433 -1.6556 0.9754
3.0191 5.1959 -1.6549 0.9754
2.6378 5.3975 -1.6544 0.9754
2.4419 5.4878 -1.6541 0.9754
2.2430 5.5710 -1.6539 0.9754
2.0412 5.6471 -1.6536 0.9754
1.4216 5.8308 -1.6528 0.9754
1.2112 5.8771 -1.6525 0.9754
0.9993 5.9158 -1.6522 0.9754
0.7861 5.9468 -1.6519 0.9754
0.5721 5.9701 -1.6516 0.9754
0.3573 5.9857 -1.6513 0.9754
0.1422 5.9936 -1.6510 0.9754
-0.0730 5.9938 -1.6507 0.9754
-0.2881 5.9862 -1.6504 0.9754
-0.5027 5.9709 -1.6501 0.9754
-0.7166 5.9480 -1.6498 0.9755
-0.9294 5.9174 -1.6495 0.9755
-1.1411 5.8791 -1.6492 0.9755
-1.5594 5.7801 -1.6487 0.9755
-1.7655 5.7194 -1.6484 0.9755
-2.1706 5.5760 -1.6478 0.9755
-2.5642 5.4041 -1.6472 0.9755
-2.9443 5.2045 -1.6467 0.9755
-3.1287 5.0946 -1.6464 0.9755
-3.3091 4.9782 -1.6462 0.9755
-3.6566 4.7265 -1.6457 0.9755
-3.8233 4.5916 -1.6454 0.9755
-4.0337 4.5050 -1.6653 0.9752
-4.6763 4.5229 -1.7916 0.9734
-4.8445 4.3602 -1.7949 0.9733
-5.2877 3.8159 -1.7957 0.9733
-5.6654 3.2243 -1.7951 0.9733
-1.2201 0.6375 -0.3791 0.9943
-1.2235 0.5844 -0.3734 0.9944
-1.2221 0.3331 -0.3488 0.9948
-1.2268 0.2414 -0.3443 0.9948
-1.2312 0.1966 -0.3434 0.9948
-1.2379 0.0627 -0.3413 0.9949
-1.2377 0.0183 -0.3409 0.9949
-1.2378 -0.0262 -0.3409 0.9949
-1.2365 -0.1153 -0.3420 0.9949
-1.2259 -0.2494 -0.3445 0.9948
-1.2206 -0.2943 -0.3458 0.9948
-1.2223 -0.3416 -0.3495 0.9947
-1.2240 -0.3899 -0.3538 0.9947
-1.2252 -0.5414 -0.3689 0.9945
-1.2193 -0.6471 -0.3801 0.9943
-5.6425 -3.2593 -1.7945 0.9733
-5.5224 -3.4601 -1.7946 0.9733
-5.3951 -3.6564 -1.7948 0.9733
-5.2608 -3.8480 -1.7949 0.9733
-5.1198 -4.0348 -1.7951 0.9733
-4.9722 -4.2164 -1.7953 0.9733
-4.8181 -4.3926 -1.7955 0.9733
-4.6579 -4.5633 -1.7957 0.9733
-4.4916 -4.7281 -1.7959 0.9733
-3.9588 -5.1855 -1.7966 0.9733
-3.7706 -5.3250 -1.7968 0.9733
-3.5775 -5.4577 -1.7971 0.9733
-3.1777 -5.7020 -1.7976 0.9733
-2.7612 -5.9171 -1.7982 0.9733
-2.5474 -6.0133 -1.7984 0.9733
-2.3303 -6.1019 -1.7987 0.9733
-0.9731 -6.4655 -1.8006 0.9732
-0.7405 -6.4974 -1.8009 0.9732
-0.2572 -6.1676 -1.8016 0.9746
0.6286 -6.1451 -1.8028 0.9746
1.0683 -6.0862 -1.8034 0.9746
1.5027 -5.9959 -1.8040 0.9746
1.7172 -5.9391 -1.8043 0.9746
1.9296 -5.8746 -1.8046 0.9746
2.1396 -5.8025 -1.8049 0.9746
2.5512 -5.6359 -1.8055 0.9746
2.9499 -5.4400 -1.8061 0.9745
3.1438 -5.3314 -1.8063 0.9745
4.3752 -4.3865 -1.8081 0.9745
4.5304 -4.2271 -1.8084 0.9745
4.6798 -4.0623 -1.8086 0.9745
4.9604 -3.7169 -1.8090 0.9745
5.0912 -3.5369 -1.8092 0.9745
5.6436 -2.5722 -1.8101 0.9745
5.8145 -2.1610 -1.8104 0.9745
5.8887 -1.9510 -1.8105 0.9745
5.9553 -1.7385 -1.8106 0.9745
6.0142 -1.5237 -1.8107 0.9745
6.0654 -1.3069 -1.8108 0.9745
6.1714 -0.6473 -1.8110 0.9745
6.1909 -0.4254 -1.8111 0.9745
6.2023 -0.2029 -1.8111 0.9745
6.2010 0.2426 -1.8111 0.9745
6.1883 0.4651 -1.8112 0.9745
6.1676 0.6869 -1.8111 0.9745
6.1023 1.1276 -1.8111 0.9745
6.0054 1.5625 -1.8110 0.9745
5.8774 1.9891 -1.8109 0.9745
5.8019 2.1987 -1.8108 0.9745
5.7190 2.4055 -1.8107 0.9745
5.4262 3.0058 -1.8104 0.9745
5.3144 3.1984 -1.8102 0.9745
3.8663 4.2190 -1.6701 0.9764
3.5225 4.4462 -1.6555 0.9766
3.3602 4.5692 -1.6553 0.9766
3.0229 4.7973 -1.6549 0.9766
2.8484 4.9020 -1.6546 0.9767
2.6702 5.0004 -1.6544 0.9767
2.4886 5.0923 -1.6542 0.9767
2.3039 5.1775 -1.6539 0.9767
2.1162 5.2561 -1.6537 0.9767
1.9259 5.3279 -1.6534 0.9767
1.3413 5.5014 -1.6526 0.9767
1.1428 5.5451 -1.6524 0.9767
0.9428 5.5817 -1.6521 0.9767
0.3372 5.6479 -1.6513 0.9767
-0.0689 5.6556 -1.6507 0.9767
-0.2718 5.6485 -1.6504 0.9767
-0.4743 5.6341 -1.6501 0.9767
-1.2750 5.5045 -1.6490 0.9767
-1.4715 5.4543 -1.6487 0.9767
-1.8584 5.3329 -1.6482 0.9767
-2.0483 5.2619 -1.6479 0.9767
-2.9526 4.8079 -1.6466 0.9768
-3.1228 4.6981 -1.6464 0.9768
-4.4197 4.2747 -1.7945 0.9747
-4.7203 3.9511 -1.7965 0.9747
-4.8585 3.7787 -1.7963 0.9747
-5.1160 3.4196 -1.7959 0.9747
-5.2349 3.2334 -1.7957 0.9747
-1.1548 0.6572 -0.3878 0.9945
-1.1672 0.5069 -0.3714 0.9947
-1.1687 0.4106 -0.3615 0.9949
-1.1697 0.3644 -0.3576 0.9949
-1.1720 0.2746 -0.3513 0.9950
-1.1819 0.1887 -0.3493 0.9950
-1.1874 0.1030 -0.3478 0.9950
-1.1884 0.0602 -0.3473 0.9951
-1.1884 -0.0252 -0.3469 0.9951
-1.1709 -0.2823 -0.3515 0.9950
-1.1684 -0.4669 -0.3672 0.9948
-1.1595 -0.6153 -0.3831 0.9945
-5.2121 -3.2657 -1.7951 0.9747
-4.8321 -3.8081 -1.7955 0.9747
-4.6928 -3.9795 -1.7957 0.9747
-4.3961 -4.3068 -1.7961 0.9747
-4.0767 -4.6121 -1.7965 0.9747
-3.9090 -4.7561 -1.7967 0.9747
-3.7362 -4.8939 -1.7969 0.9747
-2.9989 -5.3812 -1.7979 0.9747
-2.8042 -5.4861 -1.7982 0.9747
-2.6058 -5.5841 -1.7984 0.9746
-2.4041 -5.6748 -1.7987 0.9746
-1.9913 -5.8345 -1.7992 0.9746
-1.7809 -5.9031 -1.7995 0.9746
-1.3532 -6.0176 -1.8001 0.9746
-1.1365 -6.0633 -1.8004 0.9746
-0.9183 -6.1012 -1.8007 0.9746
-0.4526 -5.8223 -1.8013 0.9759
-0.2433 -5.8357 -1.8016 0.9758
-0.0337 -5.8416 -1.8019 0.9758
0.3856 -5.8308 -1.8025 0.9758
0.5948 -5.8142 -1.8028 0.9758
1.0107 -5.7584 -1.8034 0.9758
1.4217 -5.6728 -1.8039 0.9758
1.8256 -5.5579 -1.8045 0.9758
2.2203 -5.4143 -1.8051 0.9758
2.4136 -5.3319 -1.8053 0.9758
2.6039 -5.2426 -1.8056 0.9758
2.9742 -5.0438 -1.8061 0.9758
3.1537 -4.9345 -1.8064 0.9758
3.6675 -4.5687 -1.8071 0.9758
3.8296 -4.4347 -1.8074 0.9758
3.9868 -4.2950 -1.8076 0.9758
4.1389 -4.1496 -1.8078 0.9758
4.2857 -3.9988 -1.8081 0.9758
4.5627 -3.6819 -1.8085 0.9758
4.6924 -3.5161 -1.8087 0.9758
4.8161 -3.3457 -1.8089 0.9758
5.1493 -2.8094 -1.8094 0.9757
5.2473 -2.6230 -1.8095 0.9757
5.4228 -2.2401 -1.8098 0.9757
5.6333 -1.6445 -1.8102 0.9757
5.6890 -1.4413 -1.8103 0.9757
5.7374 -1.2362 -1.8103 0.9757
5.7783 -1.0295 -1.8104 0.9757
5.8117 -0.8214 -1.8105 0.9757
5.8376 -0.6123 -1.8106 0.9757
5.8560 -0.4024 -1.8106 0.9757
5.8668 -0.1919 -1.8106 0.9757
5.8656 0.2295 -1.8107 0.9757
5.8340 0.6498 -1.8107 0.9757
5.8069 0.8587 -1.8107 0.9757
5.7301 1.2731 -1.8106 0.9757
5.6237 1.6809 -1.8105 0.9757
5.5595 1.8816 -1.8104 0.9757
5.4882 2.0798 -1.8104 0.9757
5.3243 2.4680 -1.8102 0.9757
5.2319 2.6573 -1.8101 0.9757
5.1329 2.8433 -1.8100 0.9757
4.7963 3.3778 -1.8095 0.9757
4.6716 3.5475 -1.8094 0.9757
4.5409 3.7126 -1.8092 0.9757
4.3991 3.8683 -1.8070 0.9758
4.2510 4.0177 -1.8042 0.9758
4.0981 4.1616 -1.8016 0.9758
3.5906 4.2122 -1.7073 0.9771
3.3448 4.2220 -1.6615 0.9777
3.1787 4.3225 -1.6550 0.9778
2.8597 4.5382 -1.6546 0.9778
2.6946 4.6374 -1.6544 0.9778
2.3543 4.8174 -1.6539 0.9778
2.1795 4.8982 -1.6537 0.9778
1.8220 5.0404 -1.6532 0.9778
1.4552 5.1567 -1.6527 0.9778
1.0812 5.2462 -1.6522 0.9778
0.5107 5.3295 -1.6515 0.9778
-0.0652 5.3510 -1.6507 0.9778
-0.2572 5.3443 -1.6504 0.9779
-0.8298 5.2831 -1.6496 0.9779
-1.0188 5.2491 -1.6494 0.9779
-1.3923 5.1608 -1.6488 0.9779
-1.5764 5.1067 -1.6486 0.9779
-1.7584 5.0461 -1.6483 0.9779
-1.9381 4.9789 -1.6481 0.9779
-2.1153 4.9054 -1.6478 0.9779
-2.2897 4.8256 -1.6476 0.9779
-2.4611 4.7396 -1.6473 0.9779
-2.6292 4.6475 -1.6471 0.9779
-3.1123 4.3361 -1.6464 0.9779
-3.3635 4.3478 -1.6956 0.9773
-3.8752 4.3279 -1.7919 0.9760
-4.0340 4.1922 -1.7946 0.9759
-4.4669 3.7390 -1.7968 0.9759
-4.5978 3.5758 -1.7967 0.9759
-4.7227 3.4081 -1.7965 0.9759
-4.9540 3.0599 -1.7961 0.9759
-1.1137 0.4837 -0.3745 0.9949
-1.1164 0.4379 -0.3699 0.9950
-1.1205 0.3491 -0.3620 0.9951
-1.1360 0.1814 -0.3548 0.9952
-1.1422 0.0169 -0.3524 0.9952
-1.1387 -0.1476 -0.3542 0.9952
-1.1307 -0.2300 -0.3559 0.9952
-1.1209 -0.3132 -0.3590 0.9951
-1.1204 -0.3569 -0.3627 0.9951
-1.1158 -0.4459 -0.3706 0.9950
-1.1133 -0.4920 -0.3754 0.9949
-1.1097 -0.5388 -0.3805 0.9948
-1.0985 -0.6345 -0.3913 0.9947
-4.9326 -3.0905 -1.7955 0.9759
-4.8188 -3.2658 -1.7956 0.9759
-4.4410 -3.7659 -1.7961 0.9759
-4.3033 -3.9233 -1.7963 0.9759
-4.0116 -4.2228 -1.7966 0.9759
-3.5356 -4.6312 -1.7972 0.9759
-3.0183 -4.9863 -1.7979 0.9759
-1.6851 -5.5858 -1.7997 0.9759
-1.2804 -5.6940 -1.8002 0.9759
-1.0754 -5.7372 -1.8005 0.9759
-0.8689 -5.7730 -1.8008 0.9759
-0.6612 -5.8014 -1.8011 0.9759
-0.4293 -5.5223 -1.8014 0.9770
-0.2308 -5.5350 -1.8017 0.9770
-0.0320 -5.5405 -1.8020 0.9770
0.3657 -5.5302 -1.8025 0.9770
0.7618 -5.4914 -1.8031 0.9770
0.9586 -5.4614 -1.8033 0.9769
1.1541 -5.4243 -1.8036 0.9769
1.3483 -5.3801 -1.8039 0.9769
1.5408 -5.3291 -1.8041 0.9769
1.9198 -5.2063 -1.8047 0.9769
2.1057 -5.1348 -1.8049 0.9769
2.2890 -5.0566 -1.8052 0.9769
3.1573 -4.5698 -1.8064 0.9769
3.3197 -4.4541 -1.8067 0.9769
3.4779 -4.3326 -1.8069 0.9769
3.7808 -4.0729 -1.8074 0.9769
3.9250 -3.9351 -1.8076 0.9769
4.1981 -3.6441 -1.8080 0.9769
4.4497 -3.3343 -1.8084 0.9769
4.5670 -3.1727 -1.8085 0.9769
5.0622 -2.3072 -1.8093 0.9769
5.2155 -1.9383 -1.8096 0.9769
5.2820 -1.7500 -1.8097 0.9769
5.4791 -0.9762 -1.8100 0.9769
5.5631 -0.1820 -1.8102 0.9769
5.5661 0.0178 -1.8102 0.9769
5.5619 0.2176 -1.8103 0.9769
5.5505 0.4171 -1.8103 0.9769
5.4734 1.0114 -1.8102 0.9769
5.3865 1.4014 -1.8101 0.9769
5.2041 1.9722 -1.8100 0.9769
4.9611 2.5198 -1.8097 0.9769
4.8672 2.6961 -1.8096 0.9769
4.6606 3.0380 -1.8093 0.9769
4.5482 3.2030 -1.8092 0.9769
4.4299 3.3640 -1.8090 0.9769
4.0388 3.8171 -1.8073 0.9769
3.8937 3.9541 -1.8048 0.9769
3.5770 4.1963 -1.7933 0.9771
2.5554 4.3977 -1.6542 0.9788
2.3955 4.4860 -1.6540 0.9788
2.0670 4.6451 -1.6535 0.9788
1.7279 4.7801 -1.6531 0.9788
1.3801 4.8904 -1.6526 0.9789
0.8460 5.0083 -1.6519 0.9789
0.4843 5.0545 -1.6514 0.9789
-0.2439 5.0687 -1.6504 0.9789
-0.4256 5.0560 -1.6501 0.9789
-0.7871 5.0109 -1.6496 0.9789
-0.9663 4.9786 -1.6494 0.9789
-1.3206 4.8950 -1.6489 0.9789
-1.8383 4.7226 -1.6482 0.9789
-2.0064 4.6529 -1.6479 0.9789
-2.6502 4.3154 -1.6470 0.9789
-2.8427 4.2767 -1.6701 0.9786
-3.0863 4.2999 -1.7214 0.9780
-3.3496 4.3297 -1.7803 0.9772
-3.5271 4.2358 -1.7927 0.9771
-3.9728 3.8425 -1.7975 0.9770
-4.1077 3.6970 -1.7973 0.9770
-4.2373 3.5468 -1.7971 0.9770
-4.3615 3.3921 -1.7970 0.9770
-4.4800 3.2330 -1.7968 0.9770
-1.0413 0.6432 -0.3981 0.9949
-1.0556 0.5516 -0.3874 0.9950
-1.0607 0.5066 -0.3823 0.9951
-1.0658 0.4628 -0.3779 0.9951
-1.0700 0.4197 -0.3738 0.9952
-1.0731 0.3770 -0.3699 0.9952
-1.0750 0.3348 -0.3662 0.9953
-1.0770 0.2935 -0.3631 0.9953
-1.0984 0.0953 -0.3586 0.9954
-1.0994 0.0557 -0.3580 0.9954
-1.0993 -0.0628 -0.3581 0.9954
-1.0958 -0.1420 -0.3594 0.9954
-1.0824 -0.2610 -0.3621 0.9953
-1.0758 -0.3006 -0.3633 0.9953
-1.0726 -0.3846 -0.3706 0.9952
-1.0693 -0.4273 -0.3745 0.9952
-1.0599 -0.5146 -0.3832 0.9951
-1.0479 -0.6053 -0.3936 0.9949
-4.5713 -3.0981 -1.7960 0.9770
-4.2128 -3.5725 -1.7964 0.9770
-3.9464 -3.8662 -1.7968 0.9770
-3.8054 -4.0058 -1.7969 0.9770
-3.3538 -4.3931 -1.7975 0.9770
-3.1943 -4.5112 -1.7977 0.9770
-2.8631 -4.7299 -1.7982 0.9770
-2.6918 -4.8302 -1.7984 0.9770
-2.1578 -5.0936 -1.7991 0.9770
-1.9739 -5.1685 -1.7993 0.9770
-1.7873 -5.2367 -1.7996 0.9770
-1.4074 -5.3530 -1.8001 0.9770
-1.2145 -5.4008 -1.8003 0.9770
-0.8241 -5.4756 -1.8009 0.9770
-0.6271 -5.5025 -1.8011 0.9770
-0.4081 -5.2492 -1.8015 0.9780
-0.2194 -5.2612 -1.8017 0.9780
-0.0304 -5.2664 -1.8020 0.9780
0.5362 -5.2415 -1.8028 0.9780
0.7241 -5.2196 -1.8030 0.9780
1.4645 -5.0651 -1.8041 0.9780
1.6456 -5.0100 -1.8043 0.9780
2.0014 -4.8804 -1.8048 0.9779
2.1756 -4.8060 -1.8051 0.9779
2.3470 -4.7255 -1.8053 0.9779
2.5155 -4.6388 -1.8056 0.9779
3.0007 -4.3432 -1.8063 0.9779
3.1551 -4.2332 -1.8065 0.9779
3.3054 -4.1177 -1.8067 0.9779
3.4515 -3.9969 -1.8069 0.9779
3.5932 -3.8708 -1.8071 0.9779
3.7302 -3.7398 -1.8073 0.9779
3.9898 -3.4633 -1.8077 0.9779
4.5462 -2.6965 -1.8086 0.9779
4.8108 -2.1926 -1.8090 0.9779
4.8868 -2.0187 -1.8091 0.9779
4.9564 -1.8421 -1.8092 0.9779
5.0763 -1.4819 -1.8094 0.9779
5.1701 -1.1140 -1.8096 0.9779
5.2370 -0.7402 -1.8097 0.9779
5.2769 -0.3626 -1.8098 0.9779
5.2866 -0.1729 -1.8098 0.9779
5.2895 0.0170 -1.8099 0.9779
5.2855 0.2068 -1.8099 0.9779
5.2571 0.5855 -1.8099 0.9779
5.2326 0.7738 -1.8099 0.9779
5.2014 0.9611 -1.8098 0.9779
5.1635 1.1472 -1.8098 0.9779
5.0098 1.6955 -1.8097 0.9779
4.8748 2.0504 -1.8095 0.9779
4.7979 2.2240 -1.8094 0.9779
4.7147 2.3946 -1.8093 0.9779
4.6254 2.5622 -1.8092 0.9779
4.4291 2.8871 -1.8090 0.9779
3.8409 3.6300 -1.8083 0.9779
3.7071 3.7646 -1.8078 0.9779
3.5650 3.8902 -1.8055 0.9779
3.4188 4.0107 -1.8032 0.9780
1.9645 4.4148 -1.6534 0.9798
1.8045 4.4819 -1.6532 0.9798
1.1438 4.6915 -1.6523 0.9798
0.9746 4.7289 -1.6520 0.9798
0.2876 4.8170 -1.6511 0.9798
0.1144 4.8235 -1.6509 0.9798
-0.2319 4.8179 -1.6504 0.9798
-0.5767 4.7874 -1.6499 0.9798
-1.2553 4.6529 -1.6490 0.9798
-1.4213 4.6042 -1.6487 0.9798
-1.7475 4.4891 -1.6483 0.9798
-1.9072 4.4229 -1.6480 0.9798
-2.2190 4.2735 -1.6476 0.9798
-2.3974 4.2377 -1.6659 0.9796
-2.6090 4.2483 -1.7058 0.9791
-2.8321 4.2607 -1.7505 0.9786
-3.2077 4.1463 -1.7937 0.9781
-3.3583 4.0331 -1.7957 0.9781
-3.6436 3.7865 -1.7980 0.9780
-3.9050 3.5146 -1.7976 0.9780
-4.0282 3.3718 -1.7974 0.9780
-4.1462 3.2247 -1.7972 0.9780
-4.2589 3.0735 -1.7971 0.9780
-0.9850 0.6584 -0.4054 0.9950
-0.9945 0.6143 -0.4000 0.9951
-1.0026 0.5706 -0.3947 0.9951
-1.0372 0.2827 -0.3678 0.9955
-1.0561 0.1300 -0.3641 0.9955
-1.0581 0.0918 -0.3634 0.9955
-1.0591 0.0156 -0.3624 0.9955
-1.0578 -0.0986 -0.3635 0.9955
-1.0556 -0.1368 -0.3642 0.9955
-1.0479 -0.2131 -0.3659 0.9955
-1.0424 -0.2513 -0.3669 0.9955
-1.0359 -0.2895 -0.3680 0.9955
-1.0298 -0.3692 -0.3743 0.9954
-1.0262 -0.4101 -0.3781 0.9953
-1.0155 -0.4931 -0.3863 0.9952
-0.9929 -0.6221 -0.4009 0.9951
-0.9831 -0.6663 -0.4064 0.9950
-4.2377 -3.0996 -1.7964 0.9780
-4.1240 -3.2500 -1.7966 0.9780
-4.0050 -3.3962 -1.7967 0.9780
-3.8808 -3.5381 -1.7969 0.9780
-3.7517 -3.6755 -1.7970 0.9780
-3.6177 -3.8081 -1.7972 0.9780
-3.1883 -4.1762 -1.7978 0.9780
-2.8811 -4.3952 -1.7982 0.9780
-2.7218 -4.4963 -1.7984 0.9780
-2.2234 -4.7646 -1.7990 0.9780
-2.0512 -4.8420 -1.7993 0.9780
-1.3378 -5.0884 -1.8002 0.9780
-1.1545 -5.1338 -1.8005 0.9780
-0.5961 -5.2304 -1.8012 0.9780
-0.3886 -4.9993 -1.8015 0.9789
-0.2089 -5.0107 -1.8018 0.9789
-0.0289 -5.0157 -1.8020 0.9789
0.3311 -5.0062 -1.8025 0.9789
1.5672 -4.7712 -1.8042 0.9789
1.7376 -4.7125 -1.8045 0.9789
1.9059 -4.6477 -1.8047 0.9789
2.0718 -4.5768 -1.8050 0.9789
2.3955 -4.4175 -1.8054 0.9789
2.5528 -4.3292 -1.8056 0.9789
2.7069 -4.2353 -1.8059 0.9789
2.8575 -4.1359 -1.8061 0.9789
3.1476 -3.9212 -1.8065 0.9789
3.2867 -3.8061 -1.8067 0.9789
3.4216 -3.6860 -1.8069 0.9789
3.5521 -3.5612 -1.8071 0.9788
3.6780 -3.4318 -1.8073 0.9788
3.9155 -3.1597 -1.8076 0.9788
4.2337 -2.7212 -1.8081 0.9788
4.3290 -2.5677 -1.8083 0.9788
4.4187 -2.4108 -1.8084 0.9788
4.5027 -2.2508 -1.8085 0.9788
4.6532 -1.9222 -1.8088 0.9788
4.7195 -1.7540 -1.8089 0.9788
4.7797 -1.5836 -1.8090 0.9788
4.8337 -1.4111 -1.8091 0.9788
4.9229 -1.0607 -1.8092 0.9788
4.9580 -0.8833 -1.8093 0.9788
5.0089 -0.5254 -1.8094 0.9788
5.0246 -0.3452 -1.8095 0.9788
5.0366 0.0161 -1.8095 0.9788
5.0225 0.3774 -1.8095 0.9788
4.9825 0.7368 -1.8095 0.9788
4.9166 1.0924 -1.8095 0.9788
4.8741 1.2681 -1.8094 0.9788
4.7703 1.6145 -1.8093 0.9788
4.7091 1.7846 -1.8093 0.9788
4.5685 2.1177 -1.8091 0.9788
4.4893 2.2802 -1.8090 0.9788
4.4044 2.4397 -1.8089 0.9788
4.2174 2.7491 -1.8087 0.9788
4.1158 2.8985 -1.8086 0.9788
3.7794 3.3234 -1.8081 0.9788
3.6574 3.4566 -1.8080 0.9788
3.1182 3.9360 -1.8041 0.9789
2.6458 4.1987 -1.7830 0.9791
2.0608 4.2170 -1.6863 0.9802
1.8788 4.2223 -1.6603 0.9805
1.7184 4.2681 -1.6530 0.9806
1.5639 4.3265 -1.6528 0.9806
1.2491 4.4264 -1.6524 0.9806
1.0893 4.4678 -1.6522 0.9806
0.7657 4.5332 -1.6517 0.9806
0.4384 4.5752 -1.6513 0.9807
-0.0560 4.5940 -1.6506 0.9807
-0.2208 4.5884 -1.6504 0.9807
-0.3853 4.5769 -1.6501 0.9807
-0.5493 4.5594 -1.6499 0.9807
-0.7125 4.5362 -1.6497 0.9807
-0.8748 4.5071 -1.6495 0.9807
-1.3537 4.3851 -1.6488 0.9807
-1.6643 4.2755 -1.6484 0.9807
-1.8226 4.2267 -1.6537 0.9806
-2.0037 4.2229 -1.6793 0.9803
-2.7629 4.1566 -1.7931 0.9790
-2.9130 4.0585 -1.7948 0.9790
-3.8369 3.2116 -1.7977 0.9790
-3.9493 3.0715 -1.7975 0.9790
-0.9690 0.5063 -0.3928 0.9954
-0.9761 0.4662 -0.3886 0.9954
-0.9868 0.3870 -0.3808 0.9955
-0.9904 0.3480 -0.3771 0.9955
-0.9929 0.3093 -0.3736 0.9956
-1.0152 0.1621 -0.3694 0.9956
-1.0213 0.0518 -0.3674 0.9957
-1.0214 -0.0216 -0.3670 0.9957
-1.0212 -0.0583 -0.3675 0.9957
-1.0200 -0.0951 -0.3680 0.9957
-1.0103 -0.2055 -0.3704 0.9956
-1.0049 -0.2423 -0.3714 0.9956
-0.9925 -0.3162 -0.3743 0.9956
-0.9898 -0.3549 -0.3778 0.9955
-0.9860 -0.3941 -0.3815 0.9955
-0.9749 -0.4734 -0.3894 0.9954
-0.9676 -0.5135 -0.3936 0.9954
-0.9398 -0.6369 -0.4079 0.9952
-4.0365 -2.9525 -1.7967 0.9790
-3.9282 -3.0957 -1.7969 0.9790
-3.5735 -3.5009 -1.7973 0.9790
-3.4458 -3.6273 -1.7975 0.9790
-3.3137 -3.7490 -1.7976 0.9790
-3.1773 -3.8659 -1.7978 0.9790
-3.0368 -3.9779 -1.7980 0.9790
-2.8924 -4.0847 -1.7982 0.9790
-2.5924 -4.2826 -1.7986 0.9789
-2.1177 -4.5381 -1.7992 0.9789
-1.7871 -4.6795 -1.7996 0.9789
-1.6182 -4.7412 -1.7999 0.9789
-1.4471 -4.7969 -1.8001 0.9789
-1.2742 -4.8463 -1.8003 0.9789
-0.7461 -4.9572 -1.8010 0.9789
-0.5678 -4.9815 -1.8013 0.9789
-0.1993 -4.7806 -1.8018 0.9798
0.3159 -4.7762 -1.8025 0.9797
0.6579 -4.7425 -1.8030 0.9797
0.9967 -4.6843 -1.8035 0.9797
