ply
format ascii 1.0
element vertex 1562
property float32 x
property float32 y
property float32 z
property float32 I
end_header
-8.0357 -23.5443 -0.2412 0.9053
-6.3667 -24.2154 -0.2428 0.9047
-5.5798 -71.7794 -1.7955 0.7497
2.1828 -72.4188 -1.8068 0.7483
1.3248 -20.0323 -0.5007 0.9228
2.0557 -20.0959 -0.5038 0.9224
2.7889 -20.1037 -0.5062 0.9220
3.5299 -20.1115 -0.5092 0.9215
4.2810 -20.1195 -0.5130 0.9210
5.8051 -20.0776 -0.5212 0.9198
7.4302 -20.1506 -0.5356 0.9177
8.2671 -20.1595 -0.5434 0.9165
9.9929 -20.1198 -0.5602 0.9140
12.2235 -16.4004 -0.5101 0.9214
9.1770 -9.8862 -0.3364 0.9475
11.3665 -9.8666 -0.3754 0.9416
27.4439 -20.5643 -0.8552 0.8718
29.4958 -20.4908 -0.8957 0.8661
34.3339 -20.3645 -0.9955 0.8524
37.7446 -20.5931 -1.0723 0.8419
23.4284 -9.6780 -0.6322 0.9035
25.6954 -9.5498 -0.6836 0.8961
25.5554 -6.4743 -0.6574 0.8999
45.4435 -9.7914 -1.1593 0.8303
68.5040 -12.2050 -1.7353 0.7570
46.0108 -6.5032 -1.1588 0.8303
75.8752 -5.2135 -1.8967 0.7376
39.2860 -1.2851 -0.9803 0.8545
38.4712 0.1233 -0.9594 0.8573
68.8307 10.1790 -1.7352 0.7570
40.0711 10.4255 -1.0326 0.8473
39.8438 13.4847 -1.0490 0.8451
26.0705 18.3601 -0.7952 0.8802
25.5780 20.9125 -0.8239 0.8762
31.3203 27.5412 -1.0401 0.8463
11.4071 11.5840 -0.4054 0.9370
22.1758 24.1989 -0.8186 0.8769
21.7888 25.5611 -0.8376 0.8742
3.5962 4.5393 -0.1444 0.9771
6.2917 11.7822 -0.3331 0.9480
3.3313 11.8044 -0.3059 0.9521
2.8789 11.8078 -0.3031 0.9525
2.4276 11.7792 -0.2999 0.9530
1.1327 11.8209 -0.2961 0.9536
0.7059 11.8241 -0.2954 0.9537
0.2806 11.8273 -0.2950 0.9538
-0.1441 11.8305 -0.2951 0.9538
-0.9965 11.8369 -0.2962 0.9536
-3.2080 13.8503 -0.3546 0.9447
-20.5827 66.6772 -1.7402 0.7564
-9.2688 26.5981 -0.7024 0.8934
-21.2156 54.5012 -1.4585 0.7914
-21.3223 41.0634 -1.1539 0.8310
-21.2784 37.6126 -1.0777 0.8412
-29.7459 33.2214 -1.1121 0.8366
-21.4012 20.6994 -0.7425 0.8877
-45.1573 40.6425 -1.5151 0.7842
-45.1785 37.8162 -1.4693 0.7900
-55.1018 31.3593 -1.5811 0.7759
-58.0251 25.1981 -1.5776 0.7764
-60.2958 18.7824 -1.5749 0.7767
-62.2737 9.9451 -1.5727 0.7770
-62.8044 5.4496 -1.5721 0.7771
-68.7687 3.4862 -1.7172 0.7592
-68.8426 -1.4567 -1.7172 0.7592
-68.7522 -3.9273 -1.7174 0.7592
-57.2311 -9.5164 -1.4469 0.7928
-61.3789 -14.7982 -1.5746 0.7768
-60.8287 -16.9976 -1.5751 0.7767
-60.2104 -19.1801 -1.5759 0.7766
-55.2572 -19.8137 -1.4639 0.7907
-49.9721 -19.9708 -1.3421 0.8063
-43.2588 -21.0033 -1.1992 0.8250
-43.2327 -22.9437 -1.2206 0.8221
-51.4886 -29.7416 -1.4829 0.7883
-43.2219 -27.0808 -1.2720 0.8154
-34.4476 -23.3460 -1.0378 0.8466
-33.1961 -24.2813 -1.0257 0.8483
-33.2254 -28.1751 -1.0864 0.8400
-24.7004 -24.1986 -0.8623 0.8708
-24.7140 -26.0152 -0.8949 0.8663
-24.7288 -27.9768 -0.9312 0.8612
-43.0576 -52.3888 -1.6911 0.7624
-41.3280 -54.1346 -1.6985 0.7615
-16.6259 -23.4798 -0.7175 0.8913
-15.0438 -26.9943 -0.7707 0.8837
-29.5087 -63.2345 -1.7402 0.7564
-7.1051 -23.5513 -0.6135 0.9063
-6.3671 -24.2173 -0.6245 0.9047
-10.6605 -70.8304 -1.7863 0.7508
-3.2997 -42.4489 -1.7112 0.8433
1.2876 -42.7202 -1.7178 0.8427
1.3248 -20.0323 -0.8069 0.9228
4.4184 -20.7652 -0.8533 0.9185
5.8051 -20.0776 -0.8400 0.9197
9.1832 -20.2865 -0.8950 0.9147
9.9929 -20.1198 -0.9029 0.9140
11.2424 -20.7323 -0.9479 0.9099
10.5212 -16.4619 -0.7852 0.9248
11.3264 -16.3936 -0.8009 0.9233
8.7006 -10.0754 -0.5350 0.9481
9.0636 -9.7640 -0.5354 0.9481
8.1453 -6.5729 -0.4207 0.9590
25.6743 -9.5420 -1.1009 0.8961
43.7726 -14.5024 -1.8533 0.8314
45.2095 -9.7410 -1.8588 0.8310
45.5394 -8.1135 -1.8591 0.8310
46.1641 -3.1720 -1.8598 0.8309
39.3228 -1.2863 -1.5813 0.8543
41.6306 7.6927 -1.7015 0.8441
41.3173 9.1799 -1.7011 0.8441
40.0711 10.4255 -1.6642 0.8473
31.2705 15.8825 -1.4096 0.8690
31.1871 17.2756 -1.4329 0.8670
25.4363 17.9135 -1.2504 0.8829
25.4852 19.3528 -1.2862 0.8798
25.4386 20.7985 -1.3207 0.8767
31.1785 29.4672 -1.7242 0.8422
25.6010 27.9365 -1.5230 0.8593
21.8002 25.5745 -1.3507 0.8741
7.4027 11.7479 -0.5581 0.9459
6.8288 11.7522 -0.5463 0.9470
5.7600 11.7862 -0.5273 0.9488
4.7356 11.7619 -0.5096 0.9505
4.2644 11.7974 -0.5042 0.9510
3.7926 11.8010 -0.4982 0.9516
2.4276 11.7793 -0.4834 0.9530
1.9957 11.8144 -0.4816 0.9532
1.1327 11.8209 -0.4773 0.9536
0.7059 11.8241 -0.4761 0.9537
-0.1441 11.8305 -0.4755 0.9537
-0.5695 11.8337 -0.4762 0.9537
-1.6710 13.8707 -0.5615 0.9456
-2.1793 13.8745 -0.5645 0.9453
-2.6874 13.8464 -0.5669 0.9451
-11.5822 42.9316 -1.7872 0.8369
-13.1020 42.4436 -1.7853 0.8371
-17.5352 40.6645 -1.7799 0.8375
-20.3676 39.2248 -1.7764 0.8378
-14.1775 23.0858 -1.0889 0.8972
-14.1909 21.3492 -1.0303 0.9025
-14.6574 20.4210 -1.0103 0.9043
-17.9932 23.2583 -1.1819 0.8889
-18.2684 21.9391 -1.1474 0.8920
-29.3012 32.7247 -1.7655 0.8387
-21.3346 22.1716 -1.2367 0.8841
-21.4263 19.2841 -1.1586 0.8910
-21.3816 17.8973 -1.1207 0.8944
-35.4107 18.5026 -1.6058 0.8522
-38.4608 10.4820 -1.6022 0.8525
-39.0961 7.6921 -1.6015 0.8526
-40.4448 4.9777 -1.6378 0.8495
-43.3458 3.7612 -1.7487 0.8401
-43.5009 0.6416 -1.7486 0.8402
-43.3256 -4.0394 -1.7489 0.8401
-42.9376 -7.1397 -1.7494 0.8401
-42.6629 -8.6783 -1.7498 0.8401
-41.9530 -11.7231 -1.7508 0.8400
-41.5188 -13.2258 -1.7513 0.8399
-40.8662 -14.6536 -1.7449 0.8405
-37.0700 -14.8146 -1.6045 0.8523
-35.9442 -17.4519 -1.6059 0.8522
-35.3123 -18.7404 -1.6067 0.8521
-34.0921 -21.3605 -1.6170 0.8512
-33.4608 -22.6771 -1.6246 0.8506
-31.8177 -25.0747 -1.6282 0.8503
-30.9337 -26.2317 -1.6301 0.8501
-25.6796 -23.4118 -1.3967 0.8701
-24.7295 -27.9776 -1.5008 0.8612
-18.9769 -37.1266 -1.6758 0.8463
-14.9752 -39.2119 -1.6870 0.8453
-8.0358 -23.5443 -0.9999 0.9052
-7.8071 -41.6523 -1.7032 0.8440
-6.3176 -41.9752 -1.7061 0.8437
-2.3580 -30.3337 -1.6875 0.8852
-1.2692 -30.4380 -1.6897 0.8851
-0.1760 -30.5033 -1.6919 0.8850
2.0677 -20.2134 -1.1270 0.9218
2.8075 -20.2382 -1.1332 0.9214
4.3858 -20.6120 -1.1688 0.9190
5.8051 -20.0776 -1.1592 0.9197
7.6021 -20.6165 -1.2187 0.9157
9.1832 -20.2865 -1.2351 0.9147
9.9929 -20.1198 -1.2460 0.9139
9.4737 -16.0661 -1.0345 0.9280
7.3450 -10.6310 -0.7167 0.9496
7.3838 -9.9069 -0.6853 0.9517
8.3824 -9.7069 -0.7113 0.9499
7.6647 -6.6532 -0.5629 0.9602
7.9497 -6.4150 -0.5666 0.9599
25.5123 -16.3979 -1.6821 0.8856
22.8394 -11.4168 -1.4162 0.9028
31.5223 -10.4437 -1.8418 0.8754
24.6685 -6.2496 -1.4114 0.9031
32.4819 -6.9987 -1.8429 0.8754
32.9087 -4.6514 -1.8434 0.8753
33.0573 -3.4673 -1.8436 0.8753
33.1625 -2.2786 -1.8437 0.8753
33.2238 -1.0868 -1.8437 0.8753
33.2150 1.2996 -1.8436 0.8753
32.4145 7.2019 -1.8417 0.8754
31.2504 10.5764 -1.8298 0.8762
30.9417 11.7259 -1.8352 0.8759
30.5818 12.8631 -1.8401 0.8755
30.0900 13.9477 -1.8395 0.8756
29.5590 15.0133 -1.8388 0.8756
28.9895 16.0583 -1.8381 0.8757
27.2707 17.7761 -1.8055 0.8777
25.5413 20.8825 -1.8298 0.8762
24.8150 21.8209 -1.8328 0.8760
11.4077 11.5846 -0.9019 0.9369
22.2865 24.3197 -1.8296 0.8762
8.6326 11.7387 -0.8082 0.9433
7.4027 11.7479 -0.7702 0.9459
6.2747 11.7504 -0.7388 0.9480
5.7444 11.7544 -0.7256 0.9489
4.7356 11.7619 -0.7033 0.9505
3.7824 11.7691 -0.6856 0.9517
3.3223 11.7725 -0.6785 0.9522
2.8711 11.7759 -0.6723 0.9526
2.4276 11.7793 -0.6671 0.9530
1.5402 11.6509 -0.6518 0.9540
0.2806 11.8273 -0.6562 0.9537
-0.9965 11.8369 -0.6588 0.9535
-1.6710 13.8707 -0.7749 0.9456
-2.6874 13.8464 -0.7823 0.9451
-3.2080 13.8503 -0.7885 0.9446
-7.7014 28.5467 -1.6399 0.8883
-8.7145 28.2303 -1.6387 0.8884
-9.1932 26.3813 -1.5495 0.8941
-13.7942 29.0720 -1.7848 0.8791
-14.8185 28.5380 -1.7835 0.8791
-14.6119 20.3576 -1.3899 0.9045
-18.2317 23.5666 -1.6526 0.8875
-18.2606 21.9298 -1.5828 0.8920
-21.1380 20.4448 -1.6311 0.8889
-21.3818 17.8974 -1.5465 0.8943
-21.3738 16.6232 -1.5018 0.8972
-22.1668 14.8165 -1.4788 0.8987
-28.2390 14.7553 -1.7672 0.8802
-28.7407 13.7275 -1.7666 0.8802
-29.2058 12.6830 -1.7660 0.8802
-29.6338 11.6231 -1.7655 0.8803
-30.0240 10.5491 -1.7651 0.8803
-30.6900 8.3641 -1.7643 0.8804
-31.2007 6.1387 -1.7637 0.8804
-31.3970 5.0141 -1.7635 0.8804
-31.7476 1.6094 -1.7631 0.8804
-31.7846 0.4688 -1.7631 0.8804
-31.7815 -0.6725 -1.7631 0.8804
-31.7383 -1.8130 -1.7632 0.8804
-31.1664 -6.3397 -1.7640 0.8804
-30.9244 -7.4558 -1.7643 0.8803
-29.9651 -10.7447 -1.7656 0.8803
-29.5687 -11.8168 -1.7661 0.8802
-28.6636 -13.9170 -1.7673 0.8802
-27.6740 -14.6867 -1.7377 0.8820
-25.4633 -14.7085 -1.6310 0.8889
-24.7477 -15.5058 -1.6198 0.8896
-23.5929 -17.2570 -1.6212 0.8895
-22.9694 -18.1016 -1.6220 0.8894
-22.3162 -18.9241 -1.6229 0.8894
-21.6340 -19.7235 -1.6237 0.8893
-20.9236 -20.4986 -1.6246 0.8893
-19.7142 -22.3036 -1.6510 0.8876
-18.9308 -23.0334 -1.6536 0.8874
-15.3971 -23.4890 -1.5577 0.8936
-14.5923 -26.1843 -1.6626 0.8868
-13.6589 -26.7223 -1.6645 0.8867
-12.7058 -27.2275 -1.6665 0.8866
-8.0358 -23.5443 -1.3798 0.9051
-6.3681 -24.2210 -1.3890 0.9045
-4.5166 -30.0091 -1.6832 0.8855
-3.4409 -30.1906 -1.6853 0.8854
-1.8485 -23.7800 -1.6878 0.9088
-0.1379 -23.8997 -1.6912 0.9086
0.7208 -23.9134 -1.6929 0.9085
2.0677 -20.2134 -1.4378 0.9218
3.5559 -20.2592 -1.4555 0.9208
4.3848 -20.6072 -1.4909 0.9190
5.0737 -20.2452 -1.4769 0.9197
5.8051 -20.0776 -1.4789 0.9196
7.6099 -20.6378 -1.5565 0.9156
8.4996 -20.7261 -1.5852 0.9141
9.1832 -20.2865 -1.5757 0.9146
11.0218 -20.3257 -1.6361 0.9115
10.5204 -16.4607 -1.3824 0.9247
7.2774 -10.5331 -0.9059 0.9500
8.2829 -9.5917 -0.8968 0.9505
8.9637 -9.6565 -0.9323 0.9485
7.3485 -7.3673 -0.7363 0.9591
8.3614 -6.2654 -0.7393 0.9590
9.0326 -6.2750 -0.7783 0.9569
9.8535 -6.3333 -0.8289 0.9541
22.2476 -13.1957 -1.8304 0.9015
22.7139 -12.3924 -1.8309 0.9014
23.1507 -11.5724 -1.8315 0.9014
23.5574 -10.7368 -1.8319 0.9014
24.5915 -8.1475 -1.8332 0.9013
24.8726 -7.2608 -1.8335 0.9013
25.3368 -5.4592 -1.8340 0.9013
25.5194 -4.5467 -1.8342 0.9013
25.9130 -0.8476 -1.8346 0.9013
25.9268 0.0831 -1.8346 0.9013
25.9064 1.0137 -1.8346 0.9013
25.7638 2.8694 -1.8344 0.9013
25.6418 3.7920 -1.8342 0.9013
25.4862 4.7095 -1.8340 0.9013
25.2973 5.6206 -1.8337 0.9013
24.5329 8.3029 -1.8327 0.9014
24.2136 9.1761 -1.8323 0.9014
23.0682 11.7166 -1.8308 0.9014
21.1252 14.8774 -1.8284 0.9016
17.7413 15.6007 -1.6717 0.9096
17.0739 16.1367 -1.6624 0.9101
15.9397 17.3938 -1.6695 0.9097
15.2976 17.9461 -1.6687 0.9098
8.6326 11.7387 -1.0311 0.9432
7.4027 11.7479 -0.9826 0.9458
6.2029 11.6159 -0.9318 0.9486
5.6787 11.6199 -0.9152 0.9495
5.1722 11.6237 -0.9003 0.9503
3.7391 11.6344 -0.8647 0.9522
3.2842 11.6378 -0.8557 0.9527
2.3998 11.6445 -0.8413 0.9534
1.5402 11.6509 -0.8316 0.9540
0.2767 11.6604 -0.8253 0.9543
-0.1421 11.6635 -0.8254 0.9543
-0.5614 11.6667 -0.8265 0.9542
-0.9824 11.6698 -0.8287 0.9541
-2.1793 13.8745 -0.9938 0.9452
-2.6874 13.8464 -0.9981 0.9450
-6.0445 22.4051 -1.6421 0.9111
-6.8407 22.1604 -1.6411 0.9112
-8.4032 21.5872 -1.6392 0.9113
-9.1674 21.2594 -1.6383 0.9113
-11.6414 22.4195 -1.7876 0.9037
-13.9619 21.0046 -1.7847 0.9038
-14.6994 20.4795 -1.7838 0.9039
-15.4175 19.9289 -1.7829 0.9039
-17.4463 18.1307 -1.7805 0.9040
-18.0781 17.4853 -1.7797 0.9041
-20.3627 14.6949 -1.7769 0.9042
-20.9156 9.9900 -1.6402 0.9112
-23.6393 8.3058 -1.7730 0.9044
-23.9178 7.4505 -1.7727 0.9044
-24.7251 3.9486 -1.7718 0.9045
-24.8490 3.0583 -1.7716 0.9045
-24.9415 2.1642 -1.7715 0.9045
-25.0023 1.2675 -1.7715 0.9045
-25.0288 -0.5296 -1.7715 0.9045
-24.8312 -3.2178 -1.7718 0.9045
-24.5418 -4.9922 -1.7722 0.9045
-24.1280 -6.7422 -1.7727 0.9044
-23.8749 -7.6054 -1.7731 0.9044
-23.5914 -8.4592 -1.7734 0.9044
-22.9347 -10.1349 -1.7743 0.9043
-22.5622 -10.9546 -1.7748 0.9043
-21.7311 -12.5527 -1.7758 0.9043
-20.7886 -14.0890 -1.7770 0.9042
-20.0825 -14.6894 -1.7607 0.9050
-17.5543 -14.8860 -1.6287 0.9118
-17.0158 -15.5131 -1.6294 0.9118
-16.4551 -16.1209 -1.6301 0.9118
-15.8730 -16.7087 -1.6308 0.9117
-14.0049 -18.3446 -1.6332 0.9116
-13.3441 -18.8451 -1.6340 0.9116
-12.6656 -19.3220 -1.6348 0.9115
-10.5322 -20.6053 -1.6375 0.9114
-9.8047 -21.0109 -1.6407 0.9112
-9.0924 -21.4631 -1.6494 0.9108
-8.3584 -21.8844 -1.6577 0.9103
-2.8461 -15.1840 -1.0932 0.9399
-2.6982 -23.6744 -1.6861 0.9089
-0.7983 -19.1433 -1.6495 0.9260
-0.1106 -19.1695 -1.6504 0.9259
0.5779 -19.1711 -1.6512 0.9259
1.2663 -19.1479 -1.6521 0.9259
1.9538 -19.0999 -1.6529 0.9258
2.6395 -19.0272 -1.6538 0.9258
3.3225 -18.9299 -1.6546 0.9257
4.0019 -18.8079 -1.6555 0.9257
6.0096 -18.2961 -1.6580 0.9256
6.6658 -18.0773 -1.6588 0.9256
7.3139 -17.8350 -1.6596 0.9255
9.2017 -16.9691 -1.6619 0.9254
9.8093 -16.6353 -1.6626 0.9254
10.4047 -16.2796 -1.6634 0.9254
7.3187 -9.8196 -1.0544 0.9520
7.8301 -9.7544 -1.0769 0.9510
6.7677 -6.7851 -0.8251 0.9623
7.0153 -6.5456 -0.8260 0.9622
7.2263 -6.2727 -0.8238 0.9623
18.2356 -10.8161 -1.8253 0.9184
19.8954 -7.3942 -1.8273 0.9183
20.3810 -5.9496 -1.8279 0.9183
20.7603 -4.4731 -1.8283 0.9183
20.9094 -3.7253 -1.8285 0.9183
21.1922 -1.4561 -1.8288 0.9183
21.2312 -0.6945 -1.8288 0.9183
21.2424 0.0681 -1.8288 0.9183
21.0099 3.1071 -1.8285 0.9183
20.7285 4.6055 -1.8281 0.9183
20.1042 6.8041 -1.8273 0.9183
19.5566 8.2257 -1.8266 0.9183
19.2445 8.9205 -1.8262 0.9184
18.9074 9.6033 -1.8257 0.9184
16.9778 9.4046 -1.6709 0.9250
16.2502 10.5925 -1.6700 0.9251
15.8547 11.1657 -1.6695 0.9251
14.5481 12.7927 -1.6678 0.9252
14.0744 13.3019 -1.6673 0.9252
13.0739 14.2666 -1.6660 0.9253
12.5484 14.7209 -1.6653 0.9253
3.5943 4.5369 -0.4983 0.9770
8.6326 11.7387 -1.2545 0.9432
8.0029 11.7434 -1.2235 0.9445
6.2029 11.6159 -1.1337 0.9485
5.6787 11.6199 -1.1135 0.9494
4.6814 11.6273 -1.0791 0.9509
3.2842 11.6379 -1.0411 0.9526
2.3998 11.6445 -1.0236 0.9534
1.9675 11.6477 -1.0170 0.9537
1.5402 11.6509 -1.0118 0.9539
1.1167 11.6541 -1.0079 0.9541
0.6959 11.6572 -1.0054 0.9542
0.2767 11.6604 -1.0042 0.9543
-3.2080 13.8503 -1.2240 0.9445
-7.5446 17.4960 -1.6404 0.9264
-8.1639 17.2059 -1.6396 0.9264
-9.9530 16.2068 -1.6374 0.9265
-11.4958 17.2945 -1.7879 0.9200
-12.1041 16.8637 -1.7871 0.9200
-13.2723 15.9391 -1.7857 0.9201
-14.3708 14.9346 -1.7844 0.9202
-15.8768 13.2895 -1.7825 0.9202
-16.3384 12.7070 -1.7820 0.9203
-16.7791 12.1087 -1.7814 0.9203
-17.1980 11.4954 -1.7809 0.9203
-18.9518 8.2301 -1.7788 0.9204
-19.2314 7.5431 -1.7785 0.9204
-19.4865 6.8467 -1.7782 0.9204
-20.2557 3.9853 -1.7773 0.9205
-20.4865 2.5214 -1.7771 0.9205
-20.5629 1.7843 -1.7770 0.9205
-20.6372 0.3044 -1.7769 0.9205
-20.6351 -0.4366 -1.7769 0.9205
-20.6067 -1.1771 -1.7770 0.9205
-20.4715 -2.6528 -1.7772 0.9205
-20.2321 -4.1155 -1.7775 0.9205
-19.8898 -5.5579 -1.7780 0.9204
-19.6805 -6.2692 -1.7782 0.9204
-19.4462 -6.9729 -1.7786 0.9204
-19.1869 -7.6679 -1.7789 0.9204
-18.9033 -8.3534 -1.7793 0.9204
-18.5953 -9.0286 -1.7797 0.9204
-16.7070 -12.2204 -1.7821 0.9203
-16.2627 -12.8162 -1.7826 0.9202
-15.7974 -13.3962 -1.7832 0.9202
-15.3116 -13.9594 -1.7838 0.9202
-13.9627 -14.6978 -1.7453 0.9218
-12.0990 -14.7210 -1.6405 0.9264
-10.4274 -15.9075 -1.6375 0.9265
-9.8540 -16.2787 -1.6383 0.9264
-9.2674 -16.6294 -1.6390 0.9264
-8.0579 -17.2674 -1.6405 0.9264
-7.4364 -17.5538 -1.6413 0.9263
-6.8048 -17.8180 -1.6421 0.9263
-2.1674 -19.0171 -1.6478 0.9260
-1.2595 -16.2022 -1.6489 0.9368
-0.6774 -16.2440 -1.6496 0.9367
0.4903 -16.2651 -1.6511 0.9367
1.0743 -16.2441 -1.6518 0.9366
1.6574 -16.2021 -1.6525 0.9366
2.2389 -16.1392 -1.6532 0.9366
2.8180 -16.0554 -1.6540 0.9366
3.3940 -15.9508 -1.6547 0.9365
3.9661 -15.8254 -1.6554 0.9365
6.7420 -14.8936 -1.6588 0.9364
7.3167 -14.7315 -1.6689 0.9360
7.9856 -14.7264 -1.6997 0.9349
9.4043 -14.7143 -1.7719 0.9322
7.5530 -10.9321 -1.3482 0.9480
7.5662 -10.1516 -1.2846 0.9504
7.6806 -9.5682 -1.2449 0.9519
6.2088 -6.6886 -0.9260 0.9640
7.6028 -6.1351 -0.9912 0.9615
8.1645 -6.1178 -1.0352 0.9598
9.6407 -6.1965 -1.1628 0.9550
15.4434 -9.1600 -1.8218 0.9304
16.0674 -8.0316 -1.8226 0.9303
16.3483 -7.4511 -1.8229 0.9303
16.6081 -6.8606 -1.8232 0.9303
17.0625 -5.6530 -1.8238 0.9303
17.8060 -2.5167 -1.8246 0.9303
17.8857 -1.8760 -1.8247 0.9302
17.9845 0.0576 -1.8248 0.9302
17.9705 0.7032 -1.8248 0.9302
17.8723 1.9905 -1.8246 0.9303
17.7882 2.6306 -1.8245 0.9303
17.6808 3.2671 -1.8243 0.9303
17.5505 3.8994 -1.8242 0.9303
17.3972 4.5263 -1.8240 0.9303
16.8027 6.3676 -1.8232 0.9303
15.1602 6.3766 -1.6688 0.9360
14.6580 7.4450 -1.6681 0.9360
13.7632 8.9714 -1.6670 0.9361
13.4289 9.4573 -1.6665 0.9361
12.3240 10.8370 -1.6651 0.9361
11.9235 11.2690 -1.6646 0.9362
10.6145 11.5829 -1.5941 0.9388
8.6092 11.7069 -1.4745 0.9432
8.0029 11.7434 -1.4419 0.9445
6.8288 11.7522 -1.3791 0.9468
5.6787 11.6199 -1.3123 0.9493
4.6814 11.6273 -1.2718 0.9509
4.2043 11.6309 -1.2549 0.9515
3.2842 11.6378 -1.2269 0.9525
2.3998 11.6445 -1.2063 0.9533
0.6959 11.6572 -1.1849 0.9541
0.2767 11.6604 -1.1834 0.9542
-2.1793 13.8746 -1.4250 0.9451
-2.6874 13.8464 -1.4311 0.9449
-4.2217 15.6484 -1.6445 0.9369
-4.7787 15.4803 -1.6438 0.9369
-5.3291 15.2925 -1.6432 0.9370
-5.8722 15.0852 -1.6425 0.9370
-6.4073 14.8587 -1.6418 0.9370
-6.9338 14.6134 -1.6412 0.9370
-7.4510 14.3495 -1.6405 0.9371
-7.9583 14.0675 -1.6399 0.9371
-8.4550 13.7676 -1.6393 0.9371
-10.3240 12.3985 -1.6370 0.9372
-14.6191 9.7716 -1.7842 0.9317
-15.2757 8.6937 -1.7834 0.9318
-15.5748 8.1381 -1.7830 0.9318
-16.1128 6.9972 -1.7824 0.9318
-16.3510 6.4133 -1.7821 0.9318
-16.5683 5.8214 -1.7818 0.9318
-17.3329 2.7681 -1.7810 0.9319
-17.4201 2.1440 -1.7809 0.9319
-17.4853 1.5172 -1.7808 0.9319
-17.5485 0.2588 -1.7807 0.9319
-17.5467 -0.3713 -1.7808 0.9319
-17.4759 -1.6293 -1.7809 0.9319
-16.7332 -5.3304 -1.7819 0.9318
-16.0709 -7.1018 -1.7827 0.9318
-14.5603 -9.8679 -1.7847 0.9317
-14.2004 -10.3869 -1.7851 0.9317
-13.8221 -10.8928 -1.7856 0.9317
-12.5820 -12.3265 -1.7872 0.9316
-11.6727 -13.2059 -1.7883 0.9316
-11.1949 -13.6210 -1.7889 0.9316
-10.7024 -14.0189 -1.7895 0.9315
-9.6325 -14.6948 -1.7828 0.9318
-5.7781 -15.1298 -1.6433 0.9370
-5.2335 -15.3338 -1.6440 0.9369
-4.6816 -15.5183 -1.6446 0.9369
-4.1233 -15.6830 -1.6453 0.9369
-3.5592 -15.8276 -1.6460 0.9369
-2.8423 -15.1640 -1.5654 0.9399
-2.4166 -16.0561 -1.6475 0.9368
-0.0849 -14.7152 -1.7200 0.9425
0.4436 -14.7156 -1.7208 0.9424
0.9732 -14.7155 -1.7238 0.9423
1.5053 -14.7150 -1.7289 0.9422
2.0412 -14.7141 -1.7363 0.9419
3.6863 -14.7090 -1.7724 0.9408
4.2521 -14.7063 -1.7893 0.9402
5.8724 -14.3198 -1.8090 0.9396
6.3887 -14.1132 -1.8107 0.9395
6.8935 -13.8795 -1.8114 0.9395
5.8618 -6.7881 -1.0483 0.9645
6.2376 -6.2536 -1.0324 0.9651
7.5830 -6.1191 -1.1389 0.9615
8.1473 -6.1049 -1.1900 0.9598
9.5195 -6.1186 -1.3227 0.9554
13.6661 -7.4561 -1.8196 0.9392
14.3953 -5.9465 -1.8205 0.9392
14.6015 -5.4267 -1.8207 0.9392
14.7886 -4.8997 -1.8209 0.9392
15.1051 -3.8268 -1.8213 0.9392
15.5011 -1.6259 -1.8218 0.9392
15.5498 -1.0684 -1.8218 0.9392
15.5784 -0.5096 -1.8218 0.9392
15.5866 0.0499 -1.8218 0.9392
15.5745 0.6094 -1.8218 0.9392
15.4168 2.2799 -1.8216 0.9392
15.0786 3.9231 -1.8211 0.9392
14.7548 4.9936 -1.8207 0.9392
13.1408 5.5271 -1.6663 0.9442
12.9318 5.9943 -1.6660 0.9442
12.4639 6.9041 -1.6654 0.9442
11.9316 7.7774 -1.6647 0.9443
10.3385 9.7711 -1.6627 0.9443
8.4154 11.4434 -1.6603 0.9444
7.3143 11.6076 -1.6036 0.9462
6.7560 11.6269 -1.5718 0.9473
6.2029 11.6159 -1.5392 0.9483
5.6787 11.6199 -1.5117 0.9492
4.6814 11.6274 -1.4651 0.9508
3.2842 11.6378 -1.4134 0.9525
2.8383 11.6412 -1.4005 0.9529
2.3998 11.6445 -1.3896 0.9532
1.9675 11.6477 -1.3807 0.9535
1.5402 11.6509 -1.3736 0.9538
1.1167 11.6541 -1.3684 0.9539
0.6959 11.6573 -1.3650 0.9541
-0.5614 11.6667 -1.3652 0.9541
-0.9824 11.6698 -1.3688 0.9539
-2.5433 13.1038 -1.5602 0.9477
-4.1504 13.4449 -1.6447 0.9449
-4.6286 13.2825 -1.6441 0.9449
-5.1006 13.1032 -1.6435 0.9449
-5.5658 12.9072 -1.6429 0.9450
-6.0234 12.6947 -1.6424 0.9450
-6.4731 12.4661 -1.6418 0.9450
-6.9141 12.2217 -1.6413 0.9450
-7.7682 11.6866 -1.6402 0.9451
-8.1802 11.3968 -1.6397 0.9451
-8.9715 10.7741 -1.6387 0.9451
-10.9995 10.6388 -1.7886 0.9402
-12.3972 8.9465 -1.7869 0.9403
-12.7076 8.4939 -1.7866 0.9403
-13.2792 7.5574 -1.7859 0.9403
-13.7825 6.5830 -1.7853 0.9403
-14.0079 6.0831 -1.7850 0.9404
-14.4044 5.0611 -1.7845 0.9404
-14.8606 3.4822 -1.7840 0.9404
-15.2579 0.2250 -1.7836 0.9404
-15.2562 -0.3228 -1.7836 0.9404
-15.0555 -2.5034 -1.7839 0.9404
-14.9570 -3.0425 -1.7840 0.9404
-14.8395 -3.5777 -1.7842 0.9404
-14.7030 -4.1085 -1.7844 0.9404
-14.1815 -5.6675 -1.7851 0.9403
-13.9711 -6.1738 -1.7853 0.9403
-13.7427 -6.6725 -1.7856 0.9403
-13.2334 -7.6441 -1.7863 0.9403
-12.9531 -8.1158 -1.7866 0.9403
-12.3428 -9.0282 -1.7874 0.9403
-10.5458 -11.1010 -1.7897 0.9402
-10.1434 -11.4757 -1.7902 0.9402
-9.7278 -11.8359 -1.7907 0.9402
-8.8589 -12.5109 -1.7918 0.9401
-7.4699 -13.4038 -1.7935 0.9401
-4.4240 -14.6642 -1.7903 0.9402
-2.2139 -14.7098 -1.7387 0.9419
-1.0548 -13.5699 -1.8015 0.9466
-0.5672 -13.6036 -1.8021 0.9465
0.4105 -13.6184 -1.8033 0.9465
0.8994 -13.5995 -1.8039 0.9465
1.3874 -13.5630 -1.8045 0.9465
2.3585 -13.4374 -1.8057 0.9464
2.8403 -13.3485 -1.8063 0.9464
3.3187 -13.2423 -1.8069 0.9464
4.2630 -12.9784 -1.8081 0.9464
4.7276 -12.8211 -1.8086 0.9464
5.1864 -12.6471 -1.8092 0.9463
5.6388 -12.4566 -1.8098 0.9463
6.0841 -12.2498 -1.8103 0.9463
6.5218 -12.0271 -1.8109 0.9463
6.9514 -11.7887 -1.8114 0.9463
8.1853 -10.9822 -1.8129 0.9462
5.8396 -6.7623 -1.1826 0.9646
6.5555 -6.1166 -1.1867 0.9645
8.1590 -6.1137 -1.3494 0.9597
12.0550 -6.5771 -1.8176 0.9461
12.2852 -6.1410 -1.8179 0.9461
13.3229 -3.3753 -1.8191 0.9461
13.5325 -2.4110 -1.8193 0.9460
13.6110 -1.9238 -1.8194 0.9460
13.6718 -1.4340 -1.8195 0.9460
13.7147 -0.9423 -1.8195 0.9460
13.7471 0.0441 -1.8195 0.9460
13.7365 0.5375 -1.8195 0.9460
13.6617 1.5216 -1.8194 0.9460
13.5976 2.0109 -1.8193 0.9460
13.0027 4.4006 -1.8169 0.9461
11.7603 4.4567 -1.6646 0.9505
11.2082 5.6928 -1.6639 0.9505
10.7672 6.4800 -1.6633 0.9506
10.5257 6.8611 -1.6630 0.9506
10.2706 7.2331 -1.6627 0.9506
10.0024 7.5956 -1.6623 0.9506
9.7212 7.9480 -1.6620 0.9506
9.4275 8.2900 -1.6616 0.9506
9.1217 8.6210 -1.6612 0.9506
8.1360 9.5446 -1.6600 0.9507
3.5929 4.5351 -0.7658 0.9769
7.4262 10.0982 -1.6591 0.9507
7.0570 10.3554 -1.6586 0.9507
6.6788 10.5990 -1.6581 0.9507
5.8976 11.0444 -1.6572 0.9507
5.4957 11.2455 -1.6567 0.9508
5.0870 11.4321 -1.6562 0.9508
4.2043 11.6309 -1.6369 0.9513
3.2842 11.6379 -1.6005 0.9524
2.8383 11.6412 -1.5859 0.9528
2.3998 11.6445 -1.5736 0.9532
1.9675 11.6477 -1.5635 0.9535
0.6959 11.6573 -1.5457 0.9540
-0.1421 11.6636 -1.5439 0.9540
-1.8340 11.6762 -1.5644 0.9534
-3.1527 11.6861 -1.6020 0.9523
-4.5064 11.5767 -1.6443 0.9511
-5.7197 11.0152 -1.6428 0.9512
-6.1096 10.7996 -1.6423 0.9512
-6.4915 10.5703 -1.6418 0.9512
-6.8648 10.3276 -1.6414 0.9512
-7.2291 10.0718 -1.6409 0.9512
-7.5840 9.8032 -1.6405 0.9512
-8.2636 9.2291 -1.6397 0.9512
-8.5875 8.9244 -1.6393 0.9513
-10.3674 8.6779 -1.7895 0.9469
-12.1848 5.8199 -1.7873 0.9470
-12.3842 5.3780 -1.7870 0.9470
-13.1390 3.0788 -1.7861 0.9470
-13.2402 2.6050 -1.7860 0.9470
-13.4419 1.1664 -1.7858 0.9470
-13.4892 -0.2854 -1.7858 0.9470
-13.3816 -1.7341 -1.7860 0.9470
-13.2243 -2.6900 -1.7862 0.9470
-13.1202 -3.1632 -1.7863 0.9470
-12.9994 -3.6325 -1.7865 0.9470
-12.8619 -4.0972 -1.7867 0.9470
-11.9317 -6.3322 -1.7879 0.9470
-10.9105 -7.9805 -1.7892 0.9469
-10.6192 -8.3687 -1.7895 0.9469
-9.9958 -9.1130 -1.7903 0.9469
-6.6004 -11.8436 -1.7946 0.9468
-5.7371 -12.2941 -1.7957 0.9467
-5.2937 -12.4959 -1.7962 0.9467
-3.4552 -13.1417 -1.7985 0.9466
-2.9822 -13.2616 -1.7991 0.9466
-2.5051 -13.3645 -1.7997 0.9466
-2.0244 -13.4503 -1.8003 0.9466
-1.5408 -13.5188 -1.8009 0.9466
-0.5077 -12.1748 -1.8021 0.9519
0.8048 -12.1698 -1.8038 0.9519
1.2415 -12.1367 -1.8043 0.9519
1.6769 -12.0879 -1.8049 0.9519
2.1103 -12.0235 -1.8054 0.9518
2.9693 -11.8481 -1.8064 0.9518
3.3937 -11.7373 -1.8070 0.9518
4.2294 -11.4701 -1.8080 0.9518
4.6397 -11.3140 -1.8085 0.9518
5.4425 -10.9580 -1.8095 0.9517
5.8282 -6.7492 -1.3188 0.9646
6.5555 -6.1166 -1.3260 0.9644
7.0496 -6.1193 -1.3806 0.9630
7.5939 -6.1279 -1.4431 0.9613
8.1761 -6.1265 -1.5110 0.9595
10.0798 -7.0024 -1.8152 0.9516
9.5194 -6.1186 -1.6736 0.9553
10.5595 -6.2632 -1.8157 0.9516
10.7791 -5.8810 -1.8160 0.9516
10.9848 -5.4910 -1.8162 0.9516
11.1762 -5.0938 -1.8165 0.9515
11.3532 -4.6898 -1.8167 0.9515
11.5154 -4.2798 -1.8169 0.9515
12.0990 -2.1556 -1.8175 0.9515
12.1692 -1.7200 -1.8176 0.9515
12.2618 -0.8425 -1.8177 0.9515
12.2908 0.0394 -1.8177 0.9515
12.2813 0.4806 -1.8177 0.9515
12.2559 0.9211 -1.8177 0.9515
12.2145 1.3604 -1.8176 0.9515
12.0842 2.2330 -1.8174 0.9515
11.9955 2.6652 -1.8173 0.9515
11.7714 3.5183 -1.8170 0.9515
11.6329 3.9370 -1.8163 0.9516
10.3641 4.3593 -1.6629 0.9556
10.1996 4.7279 -1.6626 0.9556
9.8314 5.4459 -1.6622 0.9556
9.6280 5.7944 -1.6619 0.9556
9.4123 6.1353 -1.6616 0.9556
8.9446 6.7923 -1.6610 0.9556
8.6934 7.1077 -1.6607 0.9556
8.4309 7.4137 -1.6604 0.9556
7.8740 7.9960 -1.6597 0.9556
7.2767 8.5365 -1.6589 0.9557
6.3122 9.2625 -1.6577 0.9557
5.6285 9.6865 -1.6569 0.9557
4.9163 10.0600 -1.6560 0.9557
4.5508 10.2271 -1.6555 0.9557
3.0368 10.7609 -1.6536 0.9558
2.6478 10.8598 -1.6531 0.9558
1.8607 11.0153 -1.6522 0.9558
1.4636 11.0717 -1.6517 0.9558
0.2647 11.1548 -1.6502 0.9559
-0.1359 11.1537 -1.6497 0.9559
-0.5360 11.1383 -1.6492 0.9559
-0.9352 11.1086 -1.6487 0.9559
-1.7287 11.0063 -1.6477 0.9560
-2.5125 10.8475 -1.6467 0.9560
-3.6609 10.5055 -1.6453 0.9560
-4.0345 10.3644 -1.6449 0.9560
-5.1212 9.8626 -1.6435 0.9561
-5.4705 9.6699 -1.6431 0.9561
-6.1471 9.2478 -1.6423 0.9561
-7.6907 7.9924 -1.6404 0.9561
-7.9710 7.7096 -1.6400 0.9562
-8.2409 7.4170 -1.6397 0.9562
-9.2698 7.7592 -1.7878 0.9523
-9.5566 7.4325 -1.7905 0.9522
-10.0618 6.7254 -1.7899 0.9522
-10.5152 5.9844 -1.7893 0.9523
-10.7217 5.6023 -1.7891 0.9523
-11.4079 4.0083 -1.7883 0.9523
-11.6642 3.1789 -1.7880 0.9523
-11.7699 2.7580 -1.7879 0.9523
-11.8607 2.3336 -1.7877 0.9523
-11.9362 1.9062 -1.7877 0.9523
-11.9965 1.4765 -1.7876 0.9523
-12.0711 0.6119 -1.7875 0.9523
-12.0839 -0.2557 -1.7875 0.9523
-12.0671 -0.6893 -1.7876 0.9523
-11.9874 -1.5534 -1.7877 0.9523
-11.8463 -2.4097 -1.7879 0.9523
-11.6446 -3.2539 -1.7881 0.9523
-11.5214 -3.6701 -1.7883 0.9523
-11.3833 -4.0818 -1.7885 0.9523
-11.0637 -4.8891 -1.7889 0.9523
-10.6873 -5.6718 -1.7894 0.9523
-10.2560 -6.4259 -1.7899 0.9522
-10.0204 -6.7911 -1.7902 0.9522
-8.6552 -8.4794 -1.7920 0.9522
-8.0280 -9.0825 -1.7928 0.9522
-7.3592 -9.6396 -1.7936 0.9521
-7.0101 -9.8999 -1.7940 0.9521
-6.2849 -10.3827 -1.7949 0.9521
-5.9097 -10.6044 -1.7954 0.9521
-4.3359 -11.3534 -1.7974 0.9520
-3.9267 -11.5050 -1.7979 0.9520
-3.0929 -11.7639 -1.7989 0.9520
-2.6694 -11.8708 -1.7995 0.9520
-0.4592 -11.0129 -1.8022 0.9563
0.3323 -11.0235 -1.8032 0.9563
1.1229 -10.9772 -1.8041 0.9563
1.9086 -10.8742 -1.8051 0.9562
2.2983 -10.8015 -1.8056 0.9562
3.4489 -10.5001 -1.8070 0.9562
4.1955 -10.2308 -1.8079 0.9562
4.5612 -10.0761 -1.8084 0.9562
4.9212 -9.9083 -1.8088 0.9562
5.2749 -9.7276 -1.8093 0.9561
5.6221 -9.5342 -1.8097 0.9561
6.2945 -9.1105 -1.8105 0.9561
5.9407 -6.3997 -1.4277 0.9652
6.1438 -6.1596 -1.4224 0.9654
6.5555 -6.1166 -1.4659 0.9643
7.0509 -6.1205 -1.5266 0.9629
8.6311 -6.9650 -1.8134 0.9560
9.3342 -5.9995 -1.8142 0.9560
9.5449 -5.6614 -1.8145 0.9560
10.2618 -4.2390 -1.8153 0.9560
10.4083 -3.8683 -1.8155 0.9560
10.5414 -3.4925 -1.8156 0.9560
10.7663 -2.7276 -1.8159 0.9560
10.8579 -2.3395 -1.8160 0.9560
10.9987 -1.5546 -1.8162 0.9560
11.0478 -1.1588 -1.8162 0.9560
11.0825 -0.7615 -1.8163 0.9560
11.1086 0.0356 -1.8163 0.9560
11.0771 0.8325 -1.8162 0.9560
10.9221 2.0183 -1.8160 0.9560
10.7478 2.7963 -1.8158 0.9560
10.5177 3.5596 -1.8155 0.9560
10.3654 3.9282 -1.8124 0.9561
9.2194 4.2735 -1.6614 0.9597
9.0589 4.6011 -1.6612 0.9597
8.7031 5.2377 -1.6608 0.9597
8.3023 5.8469 -1.6603 0.9597
8.0857 6.1401 -1.6600 0.9597
7.6217 6.7020 -1.6594 0.9597
7.3748 6.9700 -1.6591 0.9597
7.1184 7.2288 -1.6588 0.9597
5.4016 8.5722 -1.6566 0.9598
5.0892 8.7585 -1.6562 0.9598
4.7704 8.9334 -1.6558 0.9598
4.1151 9.2480 -1.6550 0.9598
3.7796 9.3874 -1.6546 0.9598
3.4393 9.5146 -1.6542 0.9598
2.3946 9.8214 -1.6529 0.9599
0.9632 10.0522 -1.6511 0.9599
-0.8460 10.0490 -1.6488 0.9600
-1.2058 10.0095 -1.6484 0.9600
-1.9199 9.8919 -1.6475 0.9600
-2.2731 9.8140 -1.6471 0.9600
-2.6232 9.7235 -1.6466 0.9600
-2.9698 9.6206 -1.6462 0.9600
-3.6505 9.3779 -1.6454 0.9600
-4.6341 8.9246 -1.6442 0.9601
-5.5628 8.3689 -1.6430 0.9601
-5.8584 8.1620 -1.6427 0.9601
-6.1463 7.9447 -1.6423 0.9601
-6.4262 7.7174 -1.6420 0.9601
-6.6977 7.4802 -1.6416 0.9601
-7.4588 6.7131 -1.6407 0.9601
-7.6936 6.4399 -1.6404 0.9602
-9.3187 5.7558 -1.7908 0.9566
-9.7052 5.0711 -1.7904 0.9566
-10.1908 3.9971 -1.7898 0.9566
-10.3268 3.6284 -1.7896 0.9566
-10.4495 3.2551 -1.7895 0.9566
-10.5589 2.8777 -1.7893 0.9566
-10.7369 2.1125 -1.7891 0.9566
-10.8600 1.3366 -1.7890 0.9566
-10.9275 0.5540 -1.7889 0.9566
-10.9403 0.1614 -1.7889 0.9566
-10.9239 -0.6240 -1.7890 0.9566
-10.8516 -1.4062 -1.7891 0.9566
-10.7946 -1.7949 -1.7892 0.9566
-10.6393 -2.5651 -1.7894 0.9566
-10.5411 -2.9456 -1.7895 0.9566
-10.3044 -3.6949 -1.7898 0.9566
-10.1662 -4.0628 -1.7900 0.9566
-10.0149 -4.4256 -1.7902 0.9566
-9.2832 -5.8164 -1.7911 0.9566
-9.0698 -6.1469 -1.7914 0.9566
-8.8447 -6.4695 -1.7917 0.9566
-8.6083 -6.7840 -1.7920 0.9565
-8.3607 -7.0898 -1.7923 0.9565
-7.2655 -8.2198 -1.7937 0.9565
-6.9672 -8.4771 -1.7941 0.9565
-5.3476 -9.5957 -1.7961 0.9565
-4.6477 -9.9595 -1.7970 0.9564
-3.1776 -10.5329 -1.7988 0.9564
-2.0285 -10.8221 -1.8002 0.9564
-1.6392 -10.8909 -1.8007 0.9563
-0.4190 -10.0491 -1.8022 0.9600
-0.0581 -10.0601 -1.8027 0.9599
0.3032 -10.0582 -1.8031 0.9599
0.6642 -10.0434 -1.8035 0.9599
1.3837 -9.9747 -1.8044 0.9599
2.4498 -9.7753 -1.8058 0.9599
2.7998 -9.6834 -1.8062 0.9599
3.4890 -9.4620 -1.8070 0.9598
3.8273 -9.3328 -1.8075 0.9598
4.1608 -9.1915 -1.8079 0.9598
4.4890 -9.0382 -1.8083 0.9598
4.8116 -8.8732 -1.8087 0.9598
5.1281 -8.6966 -1.8091 0.9598
6.0371 -8.0999 -1.8102 0.9598
6.6052 -7.6489 -1.8109 0.9598
6.8767 -7.4082 -1.8112 0.9598
7.6372 -6.6294 -1.8121 0.9597
8.0956 -6.0662 -1.8127 0.9597
8.3093 -5.7725 -1.8129 0.9597
8.5123 -5.4713 -1.8132 0.9597
8.7044 -5.1628 -1.8134 0.9597
9.0544 -4.5261 -1.8138 0.9597
9.3577 -3.8655 -1.8142 0.9597
9.4342 -3.5063 -1.8034 0.9599
9.6125 -3.1847 -1.8145 0.9597
9.7213 -2.8378 -1.8146 0.9597
10.0740 -1.0567 -1.8150 0.9597
10.1056 -0.6944 -1.8150 0.9597
10.1295 0.0325 -1.8151 0.9597
10.1007 0.7591 -1.8150 0.9597
10.0667 1.1212 -1.8150 0.9597
9.9595 1.8404 -1.8148 0.9597
9.8865 2.1966 -1.8147 0.9597
9.7021 2.8998 -1.8145 0.9597
9.5910 3.2460 -1.8143 0.9597
9.4675 3.5879 -1.8142 0.9597
9.3162 3.9185 -1.8110 0.9598
8.3033 4.2173 -1.6687 0.9629
7.7591 5.0577 -1.6596 0.9631
7.5715 5.3322 -1.6594 0.9631
7.1672 5.8599 -1.6589 0.9631
3.5432 4.4724 -1.0224 0.9771
5.2057 7.6388 -1.6564 0.9631
4.9271 7.8192 -1.6560 0.9631
4.6422 7.9892 -1.6557 0.9631
4.0553 8.2980 -1.6549 0.9632
3.7539 8.4363 -1.6546 0.9632
1.5354 9.0897 -1.6518 0.9632
1.2079 9.1367 -1.6514 0.9632
0.8789 9.1719 -1.6510 0.9632
-0.1121 9.2063 -1.6498 0.9633
-0.7720 9.1700 -1.6489 0.9633
-1.7520 9.0272 -1.6477 0.9633
-2.7104 8.7803 -1.6465 0.9633
-3.0231 8.6753 -1.6462 0.9634
-3.6361 8.4322 -1.6454 0.9634
-3.9355 8.2944 -1.6450 0.9634
-4.5185 7.9872 -1.6443 0.9634
-4.8013 7.8181 -1.6440 0.9634
-5.6106 7.2523 -1.6430 0.9634
-6.1142 6.8285 -1.6424 0.9634
-6.3542 6.6035 -1.6421 0.9634
-6.5860 6.3700 -1.6418 0.9635
-6.8093 6.1285 -1.6415 0.9635
-7.8863 6.1335 -1.7902 0.9602
-8.1111 5.8534 -1.7923 0.9602
-8.3148 5.5578 -1.7921 0.9602
-8.5079 5.2550 -1.7918 0.9602
-8.8609 4.6300 -1.7914 0.9602
-9.0204 4.3084 -1.7912 0.9602
-9.4288 3.3129 -1.7907 0.9602
-9.5409 2.9720 -1.7906 0.9602
-9.6408 2.6275 -1.7905 0.9602
-9.8035 1.9288 -1.7903 0.9602
-2.0428 0.2514 -0.3688 0.9917
-2.0521 0.1781 -0.3691 0.9917
-2.0197 0.0298 -0.3619 0.9918
-2.0449 -0.1168 -0.3670 0.9917
-2.0396 -0.2643 -0.3685 0.9917
-9.7142 -2.3421 -1.7905 0.9602
-9.6245 -2.6894 -1.7906 0.9602
-9.4082 -3.3735 -1.7909 0.9602
-9.2819 -3.7094 -1.7911 0.9602
-9.1437 -4.0406 -1.7913 0.9602
-8.8322 -4.6873 -1.7917 0.9602
-8.6593 -5.0019 -1.7919 0.9602
-8.4753 -5.3102 -1.7921 0.9602
-7.8588 -6.1933 -1.7929 0.9602
-7.1510 -7.0058 -1.7938 0.9601
-6.8961 -7.2592 -1.7941 0.9601
-6.6323 -7.5035 -1.7944 0.9601
-6.0793 -7.9631 -1.7951 0.9601
-5.4945 -8.3821 -1.7959 0.9601
-5.1912 -8.5758 -1.7963 0.9601
-4.5645 -8.9300 -1.7970 0.9601
-4.2420 -9.0902 -1.7974 0.9601
-3.9138 -9.2387 -1.7979 0.9600
-3.5805 -9.3754 -1.7983 0.9600
-3.2424 -9.5001 -1.7987 0.9600
-2.5537 -9.7129 -1.7996 0.9600
-1.8511 -9.8759 -1.8004 0.9600
-0.7163 -9.2144 -1.8018 0.9630
-0.3851 -9.2363 -1.8022 0.9630
-0.0534 -9.2463 -1.8026 0.9630
1.2717 -9.1671 -1.8043 0.9630
1.6003 -9.1176 -1.8047 0.9630
2.2513 -8.9832 -1.8055 0.9630
2.5729 -8.8986 -1.8059 0.9630
2.8913 -8.8024 -1.8063 0.9629
3.2061 -8.6948 -1.8067 0.9629
3.5169 -8.5760 -1.8071 0.9629
4.1248 -8.3050 -1.8078 0.9629
4.4212 -8.1532 -1.8082 0.9629
5.2751 -7.6351 -1.8092 0.9629
5.5468 -7.4421 -1.8095 0.9629
7.0164 -6.0905 -1.8113 0.9628
7.2315 -5.8355 -1.8116 0.9628
7.9963 -4.7429 -1.8125 0.9628
8.1623 -4.4533 -1.8127 0.9628
8.3178 -4.1578 -1.8129 0.9628
8.4625 -3.8569 -1.8131 0.9628
8.5962 -3.5510 -1.8132 0.9628
8.9301 -2.6069 -1.8136 0.9628
9.0950 -1.9596 -1.8138 0.9628
9.1599 -1.6320 -1.8139 0.9628
9.2129 -1.3022 -1.8140 0.9628
9.2539 -0.9706 -1.8140 0.9628
9.2829 -0.6378 -1.8140 0.9628
9.2999 -0.3042 -1.8140 0.9628
9.3048 0.0298 -1.8140 0.9628
9.2977 0.3638 -1.8140 0.9628
9.2785 0.6973 -1.8140 0.9628
9.2472 1.0299 -1.8139 0.9628
9.1488 1.6906 -1.8138 0.9628
9.0818 2.0178 -1.8137 0.9628
8.8105 2.9818 -1.8134 0.9628
8.6971 3.2959 -1.8132 0.9628
8.5724 3.6056 -1.8130 0.9628
8.4237 3.9047 -1.8101 0.9629
8.2537 4.1922 -1.8048 0.9630
7.6052 4.2128 -1.6950 0.9652
7.1281 4.6464 -1.6588 0.9659
6.7746 5.1445 -1.6584 0.9659
6.1795 5.8403 -1.6576 0.9659
3.5402 4.4686 -1.1114 0.9770
4.7831 7.0187 -1.6559 0.9660
4.5272 7.1846 -1.6556 0.9660
4.2656 7.3410 -1.6552 0.9660
3.9985 7.4879 -1.6549 0.9660
3.4495 7.7522 -1.6542 0.9660
3.1683 7.8694 -1.6539 0.9660
2.8832 7.9763 -1.6535 0.9660
2.5945 8.0729 -1.6531 0.9660
2.0077 8.2346 -1.6524 0.9660
1.4111 8.3537 -1.6517 0.9661
1.1101 8.3970 -1.6513 0.9661
0.8077 8.4296 -1.6509 0.9661
0.2008 8.4619 -1.6502 0.9661
-0.4067 8.4507 -1.6494 0.9661
-0.7096 8.4287 -1.6490 0.9661
-1.0115 8.3959 -1.6487 0.9661
-2.4916 8.0714 -1.6468 0.9662
-3.0629 7.8685 -1.6461 0.9662
-3.8887 7.4890 -1.6451 0.9662
-4.1542 7.3431 -1.6448 0.9662
-4.4142 7.1879 -1.6445 0.9662
-4.9167 6.8501 -1.6439 0.9662
-5.3936 6.4774 -1.6433 0.9662
-5.6217 6.2785 -1.6430 0.9662
-5.8425 6.0717 -1.6427 0.9662
-6.2611 5.6351 -1.6422 0.9663
-6.7105 5.6169 -1.7061 0.9650
-7.2500 5.6386 -1.7906 0.9633
-7.4584 5.3824 -1.7931 0.9632
-7.6458 5.1106 -1.7929 0.9632
-8.1482 4.2575 -1.7923 0.9632
-8.4310 3.6613 -1.7920 0.9632
-8.5563 3.3560 -1.7918 0.9632
-1.6983 0.2712 -0.3353 0.9930
-1.7039 0.2097 -0.3347 0.9930
-1.7073 0.1482 -0.3341 0.9930
-1.7072 0.0252 -0.3329 0.9931
-1.7084 -0.0976 -0.3336 0.9931
-1.7069 -0.1591 -0.3342 0.9930
-1.7178 -0.3494 -0.3418 0.9929
-8.6517 -3.1022 -1.7918 0.9632
-8.5355 -3.4111 -1.7920 0.9632
-8.4083 -3.7156 -1.7922 0.9632
-7.9627 -4.5995 -1.7927 0.9632
-7.7934 -4.8829 -1.7930 0.9632
-7.6140 -5.1602 -1.7932 0.9632
-7.2262 -5.6948 -1.7937 0.9632
-7.0181 -5.9514 -1.7939 0.9632
-6.8010 -6.2004 -1.7942 0.9632
-6.5751 -6.4416 -1.7945 0.9632
-6.3407 -6.6745 -1.7948 0.9632
-5.5893 -7.3213 -1.7957 0.9632
-5.3239 -7.5187 -1.7961 0.9632
-4.7726 -7.8843 -1.7968 0.9631
-4.1963 -8.2097 -1.7975 0.9631
-3.5980 -8.4931 -1.7982 0.9631
-3.2915 -8.6186 -1.7986 0.9631
-2.9806 -8.7331 -1.7990 0.9631
-2.6658 -8.8364 -1.7994 0.9631
-2.3474 -8.9284 -1.7998 0.9631
-2.0259 -9.0089 -1.8002 0.9631
-1.7016 -9.0778 -1.8006 0.9631
-0.6624 -8.5213 -1.8019 0.9657
-0.3562 -8.5414 -1.8023 0.9657
-0.0493 -8.5504 -1.8026 0.9656
0.2577 -8.5485 -1.8030 0.9656
0.5645 -8.5355 -1.8034 0.9656
0.8707 -8.5116 -1.8038 0.9656
1.7818 -8.3739 -1.8049 0.9656
2.9643 -8.0391 -1.8064 0.9656
3.5348 -7.8088 -1.8071 0.9656
4.6195 -7.2278 -1.8084 0.9655
5.1279 -6.8801 -1.8090 0.9655
5.3724 -6.6927 -1.8093 0.9655
5.8406 -6.2920 -1.8099 0.9655
6.2788 -5.8585 -1.8104 0.9655
6.8750 -5.1516 -1.8111 0.9655
7.6885 -3.8433 -1.8121 0.9655
7.8222 -3.5651 -1.8123 0.9655
8.0591 -2.9952 -1.8126 0.9655
8.2542 -2.4096 -1.8128 0.9655
8.4067 -1.8113 -1.8130 0.9655
8.4666 -1.5085 -1.8130 0.9655
8.5534 -0.8972 -1.8131 0.9655
8.6005 0.0276 -1.8132 0.9655
8.5939 0.3363 -1.8131 0.9655
8.5073 1.2581 -1.8130 0.9655
8.4564 1.5626 -1.8129 0.9655
8.2380 2.4622 -1.8127 0.9655
8.1438 2.7562 -1.8125 0.9655
7.7984 3.6148 -1.8121 0.9655
7.6525 3.8868 -1.8095 0.9655
7.4888 4.1483 -1.8048 0.9656
6.9926 4.2083 -1.7206 0.9672
6.5891 4.2951 -1.6582 0.9684
6.2624 4.7555 -1.6578 0.9684
5.9035 5.1912 -1.6573 0.9684
5.5142 5.5997 -1.6568 0.9684
3.4546 4.6977 -1.2293 0.9764
4.4220 6.4889 -1.6554 0.9684
3.9436 6.7870 -1.6548 0.9684
3.4452 7.0498 -1.6542 0.9684
3.1893 7.1675 -1.6539 0.9684
2.6658 7.3749 -1.6532 0.9685
2.3989 7.4644 -1.6529 0.9685
1.5816 7.6743 -1.6519 0.9685
0.7469 7.7949 -1.6509 0.9685
0.1857 7.8251 -1.6502 0.9685
-0.3761 7.8150 -1.6495 0.9685
-0.9354 7.7646 -1.6488 0.9685
-1.2133 7.7244 -1.6484 0.9685
-1.4895 7.6743 -1.6481 0.9685
-1.7636 7.6143 -1.6477 0.9686
-2.3044 7.4651 -1.6471 0.9686
-2.8330 7.2777 -1.6464 0.9686
-4.0831 6.6487 -1.6449 0.9686
-4.3184 6.4967 -1.6446 0.9686
-4.9893 5.9918 -1.6438 0.9686
-5.4047 5.6167 -1.6433 0.9686
-5.6020 5.4183 -1.6430 0.9686
-5.7920 5.2129 -1.6428 0.9686
-6.8998 4.9793 -1.7938 0.9658
-7.3927 4.2073 -1.7932 0.9658
-7.6740 3.6654 -1.7929 0.9658
-7.8000 3.3873 -1.7928 0.9658
-7.9160 3.1048 -1.7926 0.9658
-1.5992 0.4358 -0.3494 0.9932
-1.5836 0.3711 -0.3429 0.9934
-1.5663 0.3082 -0.3365 0.9935
-1.5696 0.1932 -0.3334 0.9936
-1.5740 0.0798 -0.3323 0.9936
-1.5731 0.0232 -0.3317 0.9936
-1.5734 -0.0333 -0.3318 0.9936
-1.5739 -0.0899 -0.3324 0.9936
-1.5695 -0.3193 -0.3377 0.9935
-7.6512 -3.7149 -1.7931 0.9658
-6.8688 -5.0242 -1.7941 0.9658
-6.6849 -5.2682 -1.7943 0.9658
-6.4923 -5.5055 -1.7946 0.9658
-6.0823 -5.9588 -1.7951 0.9658
-5.8654 -6.1742 -1.7954 0.9658
-5.6409 -6.3818 -1.7957 0.9658
-5.1702 -6.7723 -1.7962 0.9658
-4.6726 -7.1283 -1.7969 0.9658
-3.6070 -7.7294 -1.7982 0.9657
-3.3278 -7.8554 -1.7986 0.9657
-2.7568 -8.0771 -1.7993 0.9657
-2.4655 -8.1725 -1.7996 0.9657
-1.2715 -8.4482 -1.8011 0.9657
-0.0459 -7.9484 -1.8026 0.9679
0.2395 -7.9465 -1.8030 0.9679
0.5247 -7.9343 -1.8033 0.9679
0.8094 -7.9119 -1.8037 0.9679
1.9349 -7.7206 -1.8051 0.9679
2.2112 -7.6476 -1.8054 0.9679
2.4848 -7.5647 -1.8058 0.9679
4.0487 -6.8660 -1.8077 0.9678
4.7656 -6.3941 -1.8086 0.9678
5.4278 -5.8473 -1.8094 0.9678
5.6350 -5.6495 -1.8096 0.9678
6.0274 -5.2320 -1.8101 0.9678
6.2121 -5.0129 -1.8103 0.9678
6.3888 -4.7873 -1.8105 0.9678
7.0111 -3.8252 -1.8113 0.9678
7.1445 -3.5713 -1.8114 0.9678
7.3835 -3.0500 -1.8117 0.9678
7.4887 -2.7832 -1.8118 0.9678
7.8673 -1.4017 -1.8123 0.9678
7.9479 -0.8337 -1.8124 0.9678
7.9728 -0.5478 -1.8124 0.9678
7.9917 0.0256 -1.8124 0.9678
7.9855 0.3124 -1.8124 0.9678
7.9422 0.8846 -1.8123 0.9678
7.9051 1.1690 -1.8123 0.9678
7.8578 1.4520 -1.8122 0.9678
7.8003 1.7331 -1.8121 0.9678
7.6550 2.2880 -1.8119 0.9678
7.4701 2.8309 -1.8117 0.9678
6.8184 4.1035 -1.8048 0.9679
6.4493 4.2039 -1.7459 0.9689
5.6565 4.6247 -1.6570 0.9705
5.3087 5.0173 -1.6566 0.9705
5.1245 5.2039 -1.6563 0.9705
4.7365 5.5565 -1.6558 0.9705
3.5342 4.4610 -1.2907 0.9769
3.4506 4.6922 -1.3209 0.9764
4.1098 6.0307 -1.6551 0.9705
2.9643 6.6618 -1.6536 0.9705
2.4778 6.8548 -1.6530 0.9705
2.2297 6.9380 -1.6527 0.9706
1.7256 7.0774 -1.6521 0.9706
1.2129 7.1802 -1.6514 0.9706
0.9542 7.2177 -1.6511 0.9706
0.6943 7.2459 -1.6508 0.9706
0.4337 7.2647 -1.6505 0.9706
0.1726 7.2742 -1.6502 0.9706
-0.3496 7.2650 -1.6495 0.9706
-0.8696 7.2184 -1.6489 0.9706
-1.1279 7.1811 -1.6485 0.9706
-1.3847 7.1346 -1.6482 0.9706
-1.6396 7.0789 -1.6479 0.9706
-2.8746 6.6663 -1.6464 0.9707
-3.1115 6.5576 -1.6461 0.9707
-3.5727 6.3153 -1.6455 0.9707
-3.7965 6.1820 -1.6453 0.9707
-4.6393 5.5715 -1.6442 0.9707
-5.0256 5.2228 -1.6438 0.9707
-5.2091 5.0383 -1.6435 0.9707
-6.0497 5.0639 -1.7892 0.9682
-6.5776 4.3965 -1.7943 0.9681
-7.2536 3.1500 -1.7934 0.9681
-1.4783 0.4605 -0.3511 0.9937
-1.4675 0.3999 -0.3449 0.9938
-1.4552 0.3410 -0.3390 0.9939
-1.4420 0.2837 -0.3333 0.9940
-1.4542 0.1790 -0.3323 0.9940
-1.4573 0.1265 -0.3317 0.9940
-1.4581 -0.0309 -0.3308 0.9940
-1.4584 -0.0833 -0.3313 0.9940
-1.4534 -0.1883 -0.3324 0.9940
-1.4480 -0.2408 -0.3329 0.9940
-1.4440 -0.2937 -0.3342 0.9940
-1.4575 -0.3514 -0.3400 0.9939
-1.4800 -0.4715 -0.3523 0.9936
-1.4886 -0.5338 -0.3586 0.9935
-7.2339 -3.1967 -1.7936 0.9681
-7.1151 -3.4546 -1.7938 0.9681
-6.9872 -3.7081 -1.7939 0.9681
-6.8503 -3.9569 -1.7941 0.9681
-6.7045 -4.2007 -1.7943 0.9681
-6.5501 -4.4392 -1.7945 0.9681
-6.3873 -4.6720 -1.7947 0.9681
-6.2162 -4.8988 -1.7949 0.9681
-6.0371 -5.1194 -1.7951 0.9681
-5.4540 -5.7412 -1.7959 0.9680
-5.0295 -6.1195 -1.7964 0.9680
-4.1046 -6.7807 -1.7976 0.9680
-3.3536 -7.1864 -1.7985 0.9680
-2.8304 -7.4112 -1.7992 0.9680
-2.5630 -7.5094 -1.7995 0.9680
-2.2922 -7.5980 -1.7998 0.9680
-1.7418 -7.7458 -1.8005 0.9680
-1.4629 -7.8049 -1.8009 0.9680
-1.1821 -7.8539 -1.8012 0.9679
-0.3092 -7.4145 -1.8023 0.9699
-0.0428 -7.4222 -1.8026 0.9699
0.2237 -7.4203 -1.8029 0.9699
0.4900 -7.4088 -1.8033 0.9699
1.0206 -7.3573 -1.8039 0.9699
1.2843 -7.3172 -1.8043 0.9699
1.5464 -7.2677 -1.8046 0.9699
1.8066 -7.2088 -1.8049 0.9699
2.8217 -6.8808 -1.8062 0.9699
3.3092 -6.6628 -1.8068 0.9698
3.5468 -6.5408 -1.8070 0.9698
3.7799 -6.4103 -1.8073 0.9698
5.0672 -5.4589 -1.8089 0.9698
5.9641 -4.4690 -1.8100 0.9698
6.1213 -4.2525 -1.8102 0.9698
6.4119 -3.8031 -1.8105 0.9698
6.5449 -3.5708 -1.8107 0.9698
6.6694 -3.3338 -1.8108 0.9698
6.7853 -3.0925 -1.8110 0.9698
6.9906 -2.5981 -1.8112 0.9698
7.0798 -2.3456 -1.8113 0.9698
7.2305 -1.8318 -1.8115 0.9698
7.3862 -1.0440 -1.8117 0.9698
7.4542 0.2917 -1.8117 0.9698
7.4138 0.8257 -1.8117 0.9698
7.3792 1.0913 -1.8116 0.9698
7.3350 1.3554 -1.8116 0.9698
7.2813 1.6178 -1.8115 0.9698
7.2182 1.8780 -1.8114 0.9698
7.1458 2.1358 -1.8113 0.9698
7.0641 2.3908 -1.8112 0.9698
6.9733 2.6426 -1.8111 0.9698
6.7647 3.1357 -1.8108 0.9698
6.6472 3.3762 -1.8107 0.9698
6.5212 3.6123 -1.8105 0.9698
6.3809 3.8402 -1.8087 0.9698
5.9630 4.1994 -1.7713 0.9704
5.5496 4.2142 -1.6924 0.9717
4.6059 5.0261 -1.6557 0.9723
4.4219 5.1875 -1.6555 0.9723
3.5312 4.4572 -1.3810 0.9769
3.8369 5.6303 -1.6547 0.9723
3.4220 5.8892 -1.6542 0.9724
2.9897 6.1176 -1.6537 0.9724
2.7677 6.2199 -1.6534 0.9724
1.6112 6.6084 -1.6520 0.9724
1.3727 6.6608 -1.6517 0.9724
0.8910 6.7396 -1.6511 0.9724
0.4050 6.7837 -1.6505 0.9724
0.1612 6.7926 -1.6502 0.9724
-0.0827 6.7928 -1.6498 0.9724
-0.8121 6.7408 -1.6489 0.9724
-1.0533 6.7061 -1.6486 0.9724
-2.0009 6.4817 -1.6475 0.9725
-2.4599 6.3193 -1.6469 0.9725
-2.6847 6.2259 -1.6466 0.9725
-2.9060 6.1245 -1.6464 0.9725
-3.3368 5.8983 -1.6458 0.9725
-3.5459 5.7738 -1.6456 0.9725
-3.7503 5.6420 -1.6453 0.9725
-3.9498 5.5029 -1.6451 0.9725
-4.1442 5.3568 -1.6448 0.9725
-4.3332 5.2039 -1.6446 0.9725
-4.5166 5.0443 -1.6444 0.9725
-5.8347 4.5379 -1.7952 0.9700
-5.9932 4.3251 -1.7950 0.9700
-1.3636 0.4248 -0.3469 0.9941
-1.3491 0.2155 -0.3318 0.9944
-1.3540 0.1666 -0.3313 0.9944
-1.3583 0.0689 -0.3303 0.9944
-1.3579 -0.0287 -0.3299 0.9944
-1.3566 -0.1265 -0.3309 0.9944
-1.3480 -0.2241 -0.3319 0.9944
-1.3475 -0.3249 -0.3366 0.9943
-1.3749 -0.5495 -0.3596 0.9939
-6.6463 -3.2270 -1.7943 0.9700
-6.3987 -3.6961 -1.7947 0.9700
-6.1183 -4.1465 -1.7950 0.9700
-5.8063 -4.5758 -1.7954 0.9700
-5.6390 -4.7819 -1.7956 0.9700
-5.4644 -4.9818 -1.7958 0.9700
-5.0942 -5.3624 -1.7963 0.9700
-4.8991 -5.5425 -1.7966 0.9700
-4.6976 -5.7157 -1.7968 0.9700
-4.2767 -6.0397 -1.7973 0.9700
-4.0578 -6.1903 -1.7976 0.9700
-3.6043 -6.4675 -1.7982 0.9700
-2.8896 -6.8209 -1.7991 0.9700
-2.6433 -6.9214 -1.7994 0.9700
-2.3936 -7.0131 -1.7997 0.9700
-1.6266 -7.2336 -1.8006 0.9699
-1.3662 -7.2886 -1.8010 0.9699
-0.8400 -7.3705 -1.8016 0.9699
-0.5391 -6.9349 -1.8020 0.9717
-0.0402 -6.9581 -1.8026 0.9717
0.9568 -6.8970 -1.8038 0.9716
1.2039 -6.8593 -1.8041 0.9716
1.4496 -6.8128 -1.8045 0.9716
2.4114 -6.5395 -1.8056 0.9716
2.6450 -6.4498 -1.8059 0.9716
2.8752 -6.3517 -1.8062 0.9716
3.1019 -6.2453 -1.8065 0.9716
3.5430 -6.0085 -1.8070 0.9716
3.7570 -5.8783 -1.8073 0.9716
3.9661 -5.7404 -1.8075 0.9716
4.1702 -5.5952 -1.8078 0.9716
4.3689 -5.4426 -1.8080 0.9716
4.5621 -5.2829 -1.8083 0.9716
5.1054 -4.7636 -1.8089 0.9716
5.2737 -4.5778 -1.8091 0.9716
5.4353 -4.3860 -1.8093 0.9716
5.5898 -4.1885 -1.8095 0.9716
6.2506 -3.1245 -1.8103 0.9715
6.3592 -2.8983 -1.8104 0.9715
6.4595 -2.6684 -1.8106 0.9715
6.8338 -1.4724 -1.8110 0.9715
6.9530 -0.7293 -1.8111 0.9715
6.9748 -0.4792 -1.8112 0.9715
6.9876 -0.2286 -1.8112 0.9715
6.9859 0.2733 -1.8112 0.9715
6.9480 0.7738 -1.8111 0.9715
6.9156 1.0227 -1.8111 0.9715
6.8240 1.5162 -1.8109 0.9715
6.3399 2.9388 -1.8103 0.9715
5.1478 4.2088 -1.7226 0.9729
4.3171 4.7109 -1.6553 0.9739
4.1446 4.8622 -1.6551 0.9739
3.5964 5.2774 -1.6544 0.9740
3.4042 5.4023 -1.6542 0.9740
3.2076 5.5202 -1.6540 0.9740
2.8024 5.7343 -1.6534 0.9740
2.3830 5.9187 -1.6529 0.9740
1.7321 6.1376 -1.6521 0.9740
1.5104 6.1948 -1.6518 0.9740
1.2868 6.2439 -1.6516 0.9740
0.8352 6.3180 -1.6510 0.9740
0.6078 6.3429 -1.6507 0.9740
-0.5341 6.3440 -1.6493 0.9740
-0.7613 6.3197 -1.6490 0.9740
-0.9875 6.2872 -1.6487 0.9740
-2.5172 5.8374 -1.6469 0.9741
-2.7247 5.7424 -1.6466 0.9741
-2.9286 5.6400 -1.6463 0.9741
-3.7035 5.1598 -1.6454 0.9741
-3.8858 5.0229 -1.6452 0.9741
-4.2351 4.7299 -1.6447 0.9741
-4.8237 4.6655 -1.7385 0.9727
-5.1378 4.6241 -1.7907 0.9718
-5.6200 4.0557 -1.7954 0.9718
-5.8954 3.6414 -1.7951 0.9718
-1.2882 0.6153 -0.3698 0.9941
-1.2890 0.5056 -0.3587 0.9943
-1.2805 0.3490 -0.3438 0.9945
-1.2765 0.2991 -0.3397 0.9946
-1.2844 0.2051 -0.3370 0.9946
-1.2909 0.0190 -0.3344 0.9947
-1.2910 -0.0273 -0.3345 0.9947
-1.2909 -0.0737 -0.3350 0.9947
-1.2872 -0.1668 -0.3363 0.9947
-1.2790 -0.2602 -0.3381 0.9946
-1.2878 -0.4618 -0.3544 0.9944
-1.2892 -0.5152 -0.3597 0.9943
-6.0003 -3.4660 -1.7951 0.9718
-5.8726 -3.6795 -1.7953 0.9718
-5.5945 -4.0921 -1.7957 0.9718
-5.2877 -4.4839 -1.7960 0.9718
-5.1239 -4.6714 -1.7963 0.9718
-4.9535 -4.8529 -1.7965 0.9718
-4.5937 -5.1971 -1.7969 0.9717
-4.2101 -5.5148 -1.7974 0.9717
-4.0100 -5.6631 -1.7977 0.9717
-3.8047 -5.8043 -1.7979 0.9717
-3.5944 -5.9380 -1.7982 0.9717
-3.3795 -6.0641 -1.7984 0.9717
-3.1601 -6.1824 -1.7987 0.9717
-2.9366 -6.2929 -1.7990 0.9717
-2.4783 -6.4894 -1.7996 0.9717
-2.0070 -6.6526 -1.8002 0.9717
-1.7672 -6.7215 -1.8005 0.9717
-1.5250 -6.7818 -1.8008 0.9717
-0.7875 -6.9099 -1.8017 0.9717
-0.5071 -6.5239 -1.8020 0.9732
0.4321 -6.5336 -1.8032 0.9732
0.6664 -6.5149 -1.8035 0.9732
1.1325 -6.4523 -1.8040 0.9732
1.3636 -6.4085 -1.8043 0.9732
1.8204 -6.2962 -1.8049 0.9732
2.0456 -6.2277 -1.8052 0.9732
3.1270 -5.7666 -1.8065 0.9732
3.3325 -5.6515 -1.8068 0.9731
3.9223 -5.2625 -1.8075 0.9731
4.1092 -5.1190 -1.8077 0.9731
4.4670 -4.8122 -1.8081 0.9731
4.8018 -4.4803 -1.8086 0.9731
5.5273 -3.5526 -1.8094 0.9731
5.6517 -3.3522 -1.8096 0.9731
6.1615 -2.2899 -1.8102 0.9731
6.2400 -2.0674 -1.8103 0.9731
6.3728 -1.6145 -1.8104 0.9731
6.4269 -1.3848 -1.8105 0.9731
6.4727 -1.1532 -1.8106 0.9731
6.5100 -0.9201 -1.8106 0.9731
6.5595 -0.4507 -1.8106 0.9731
6.5749 0.0211 -1.8107 0.9731
6.5699 0.2571 -1.8106 0.9731
6.5343 0.7278 -1.8106 0.9731
6.5038 0.9618 -1.8105 0.9731
6.3621 1.6553 -1.8104 0.9731
6.2982 1.8825 -1.8103 0.9731
6.1463 2.3292 -1.8101 0.9731
6.0583 2.5482 -1.8100 0.9731
5.7480 3.1840 -1.8096 0.9731
5.3691 3.7812 -1.8085 0.9731
5.0658 4.1418 -1.8020 0.9732
4.7801 4.2034 -1.7529 0.9739
4.0604 4.4308 -1.6550 0.9754
3.4383 4.6755 -1.5983 0.9762
3.3827 4.9637 -1.6542 0.9754
3.0170 5.1922 -1.6537 0.9754
2.8283 5.2964 -1.6535 0.9754
2.6359 5.3937 -1.6532 0.9754
2.4403 5.4841 -1.6530 0.9754
1.4207 5.8272 -1.6517 0.9754
0.9987 5.9122 -1.6512 0.9754
0.7857 5.9433 -1.6509 0.9754
0.1421 5.9904 -1.6501 0.9754
-0.0730 5.9907 -1.6499 0.9754
-0.2879 5.9833 -1.6496 0.9755
-0.9290 5.9148 -1.6488 0.9755
-1.1406 5.8767 -1.6486 0.9755
-1.5588 5.7779 -1.6480 0.9755
-1.7649 5.7173 -1.6478 0.9755
-2.5635 5.4027 -1.6468 0.9755
-3.3085 4.9774 -1.6459 0.9755
-3.4846 4.8548 -1.6457 0.9755
-3.6561 4.7260 -1.6455 0.9755
-3.8229 4.5911 -1.6453 0.9755
-3.9848 4.4504 -1.6451 0.9755
-4.6730 4.5197 -1.7903 0.9734
-5.1481 4.0039 -1.7960 0.9733
-5.4211 3.6236 -1.7957 0.9733
-5.5473 3.4263 -1.7955 0.9733
