ply
format ascii 1.0
element vertex 1595
property float32 x
property float32 y
property float32 z
property float32 I
end_header
6.7643 5.1366 -1.6559 0.9660
6.3768 5.6074 -1.6555 0.9660
6.1707 5.8320 -1.6553 0.9660
5.7349 6.2580 -1.6548 0.9660
5.5058 6.4590 -1.6546 0.9660
4.5220 7.1763 -1.6537 0.9660
4.2609 7.3329 -1.6534 0.9660
3.9943 7.4800 -1.6532 0.9660
3.4462 7.7448 -1.6526 0.9660
2.5924 8.0664 -1.6518 0.9661
2.3008 8.1529 -1.6515 0.9661
2.0063 8.2289 -1.6513 0.9661
0.5043 8.4477 -1.6499 0.9661
-0.1030 8.4592 -1.6493 0.9661
-1.6105 8.2979 -1.6479 0.9661
-1.9070 8.2333 -1.6476 0.9661
-2.2010 8.1583 -1.6474 0.9662
-2.4920 8.0727 -1.6471 0.9662
-3.0638 7.8706 -1.6466 0.9662
-3.6195 7.6282 -1.6461 0.9662
-5.3976 6.4822 -1.6445 0.9662
-6.0611 5.8623 -1.6439 0.9662
-6.2669 5.6404 -1.6437 0.9662
-6.4647 5.4112 -1.6436 0.9662
-7.4663 5.3881 -1.7950 0.9632
-7.6542 5.1162 -1.7949 0.9632
-7.8323 4.8377 -1.7947 0.9632
-8.0002 4.5531 -1.7946 0.9632
-8.1579 4.2626 -1.7945 0.9632
-8.3051 3.9668 -1.7943 0.9632
-8.4417 3.6659 -1.7942 0.9632
-8.5674 3.3603 -1.7941 0.9632
-8.6820 3.0505 -1.7940 0.9632
-1.7358 0.4067 -0.3476 0.9928
-1.6983 0.2712 -0.3353 0.9930
-1.7039 0.2097 -0.3347 0.9930
-1.7072 0.0252 -0.3329 0.9931
-1.7084 -0.0976 -0.3336 0.9931
-1.7069 -0.1592 -0.3342 0.9930
-1.7031 -0.2207 -0.3348 0.9930
-8.6642 -3.1068 -1.7944 0.9632
-8.5477 -3.4160 -1.7946 0.9632
-7.9735 -4.6058 -1.7952 0.9632
-7.4344 -5.4379 -1.7957 0.9632
-6.8091 -6.2078 -1.7963 0.9631
-6.5827 -6.4490 -1.7966 0.9631
-6.3478 -6.6820 -1.7968 0.9631
-5.8536 -7.1221 -1.7973 0.9631
-5.5950 -7.3287 -1.7975 0.9631
-4.7768 -7.8912 -1.7983 0.9631
-3.6005 -8.4990 -1.7995 0.9631
-2.6672 -8.8411 -1.8004 0.9631
-2.3486 -8.9327 -1.8007 0.9631
-1.7022 -9.0812 -1.8013 0.9630
-1.3754 -9.1380 -1.8016 0.9630
-1.0466 -9.1831 -1.8019 0.9630
-0.6625 -8.5228 -1.8022 0.9657
-0.3562 -8.5424 -1.8025 0.9657
0.2577 -8.5487 -1.8031 0.9656
0.5645 -8.5353 -1.8033 0.9656
0.8706 -8.5109 -1.8036 0.9656
1.1757 -8.4754 -1.8039 0.9656
1.4794 -8.4291 -1.8042 0.9656
1.7813 -8.3718 -1.8045 0.9656
2.3781 -8.2249 -1.8050 0.9656
2.6722 -8.1355 -1.8053 0.9656
3.5328 -7.8044 -1.8060 0.9656
3.8112 -7.6736 -1.8063 0.9656
4.0848 -7.5329 -1.8065 0.9656
4.6159 -7.2223 -1.8070 0.9656
5.1235 -6.8742 -1.8075 0.9656
5.3676 -6.6867 -1.8077 0.9656
5.6048 -6.4905 -1.8079 0.9656
6.0574 -6.0729 -1.8083 0.9655
6.2721 -5.8522 -1.8085 0.9655
6.4787 -5.6238 -1.8087 0.9655
7.0477 -4.8961 -1.8091 0.9655
7.2195 -4.6403 -1.8093 0.9655
7.3819 -4.3785 -1.8094 0.9655
7.8114 -3.5602 -1.8098 0.9655
8.0475 -2.9909 -1.8100 0.9655
8.2420 -2.4060 -1.8101 0.9655
8.3233 -2.1087 -1.8102 0.9655
8.4535 -1.5061 -1.8102 0.9655
8.5023 -1.2017 -1.8103 0.9655
8.5400 -0.8958 -1.8103 0.9655
8.5868 0.0275 -1.8103 0.9655
8.5801 0.3357 -1.8102 0.9655
8.5624 0.6435 -1.8102 0.9655
8.5335 0.9504 -1.8102 0.9655
8.4937 1.2561 -1.8101 0.9655
8.4428 1.5601 -1.8100 0.9655
8.3810 1.8621 -1.8100 0.9655
8.3084 2.1616 -1.8099 0.9655
8.1310 2.7518 -1.8097 0.9655
8.0264 3.0418 -1.8096 0.9655
7.6418 3.8813 -1.8069 0.9656
7.4785 4.1426 -1.8023 0.9657
7.0017 4.2138 -1.7228 0.9671
6.4207 4.5217 -1.6556 0.9684
6.2536 4.7488 -1.6554 0.9684
6.0784 4.9697 -1.6552 0.9684
5.8955 5.1841 -1.6551 0.9684
5.7049 5.3918 -1.6549 0.9684
5.3021 5.7858 -1.6545 0.9684
5.0904 5.9716 -1.6543 0.9684
3.2080 4.7075 -1.2010 0.9770
4.1810 6.6352 -1.6534 0.9684
3.9396 6.7800 -1.6531 0.9685
3.6932 6.9161 -1.6529 0.9685
3.1865 7.1611 -1.6524 0.9685
2.1275 7.5389 -1.6514 0.9685
1.5806 7.6697 -1.6509 0.9685
1.3041 7.7203 -1.6506 0.9685
1.0260 7.7609 -1.6504 0.9685
0.7466 7.7915 -1.6501 0.9685
0.4664 7.8120 -1.6499 0.9685
0.1856 7.8225 -1.6496 0.9685
-0.6561 7.7934 -1.6488 0.9685
-1.4894 7.6741 -1.6480 0.9685
-1.7637 7.6146 -1.6478 0.9686
-2.0356 7.5452 -1.6476 0.9686
-2.8337 7.2794 -1.6468 0.9686
-3.0927 7.1720 -1.6466 0.9686
-3.5983 6.9297 -1.6461 0.9686
-3.8442 6.7952 -1.6459 0.9686
-4.0851 6.6519 -1.6457 0.9686
-4.3207 6.5002 -1.6455 0.9686
-4.7748 6.1719 -1.6451 0.9686
-4.9927 5.9959 -1.6449 0.9686
-6.1197 5.1224 -1.6825 0.9679
-6.7073 5.2165 -1.7913 0.9659
-7.5465 3.9432 -1.7950 0.9658
-7.6827 3.6695 -1.7949 0.9658
-7.9254 3.1085 -1.7947 0.9658
-1.6255 0.5711 -0.3632 0.9930
-1.6130 0.5025 -0.3562 0.9931
-1.5663 0.3082 -0.3365 0.9935
-1.5728 0.1365 -0.3328 0.9936
-1.5740 0.0798 -0.3323 0.9936
-1.5739 -0.0899 -0.3324 0.9936
-1.5723 -0.1466 -0.3329 0.9936
-1.5688 -0.2033 -0.3335 0.9936
-1.5631 -0.2599 -0.3341 0.9935
-1.5865 -0.3825 -0.3441 0.9934
-1.6017 -0.4476 -0.3506 0.9932
-1.6154 -0.5146 -0.3574 0.9931
-7.6610 -3.7196 -1.7954 0.9658
-7.0523 -4.7795 -1.7960 0.9658
-6.8768 -5.0301 -1.7962 0.9658
-6.4996 -5.5117 -1.7966 0.9658
-6.2983 -5.7421 -1.7968 0.9658
-6.0888 -5.9651 -1.7970 0.9658
-5.8714 -6.1806 -1.7972 0.9658
-5.6465 -6.3882 -1.7974 0.9657
-5.4142 -6.5876 -1.7977 0.9657
-4.9290 -6.9609 -1.7981 0.9657
-4.6766 -7.1343 -1.7984 0.9657
-3.8841 -7.5989 -1.7991 0.9657
-3.3299 -7.8603 -1.7997 0.9657
-3.0461 -7.9760 -1.7999 0.9657
-2.1720 -8.2610 -1.8008 0.9657
-1.8743 -8.3350 -1.8011 0.9657
-0.9679 -8.4922 -1.8019 0.9657
-0.3311 -7.9410 -1.8025 0.9679
0.2395 -7.9466 -1.8030 0.9679
0.5247 -7.9340 -1.8033 0.9679
0.8093 -7.9112 -1.8035 0.9679
1.0929 -7.8782 -1.8038 0.9679
3.0207 -7.3661 -1.8055 0.9679
3.5424 -7.1323 -1.8060 0.9679
4.0460 -6.8614 -1.8065 0.9679
4.5289 -6.5550 -1.8069 0.9678
4.7618 -6.3890 -1.8071 0.9678
4.9886 -6.2146 -1.8073 0.9678
5.6296 -5.6440 -1.8079 0.9678
5.8291 -5.4389 -1.8080 0.9678
6.0212 -5.2266 -1.8082 0.9678
6.3817 -4.7819 -1.8085 0.9678
6.5497 -4.5501 -1.8087 0.9678
6.7093 -4.3124 -1.8088 0.9678
7.2593 -3.3086 -1.8092 0.9678
7.4787 -2.7795 -1.8094 0.9678
7.6594 -2.2359 -1.8095 0.9678
7.7349 -1.9596 -1.8096 0.9678
7.8005 -1.6807 -1.8096 0.9678
7.8559 -1.3996 -1.8097 0.9678
7.9012 -1.1168 -1.8097 0.9678
7.9363 -0.8324 -1.8097 0.9678
7.9736 0.3120 -1.8097 0.9678
7.9571 0.5980 -1.8097 0.9678
7.7886 1.7305 -1.8094 0.9678
7.7211 2.0088 -1.8093 0.9678
7.6437 2.2846 -1.8093 0.9678
7.2362 3.3543 -1.8088 0.9678
7.1107 3.6116 -1.8087 0.9678
6.8097 4.0983 -1.8025 0.9679
5.9986 4.2245 -1.6639 0.9704
5.8119 4.4134 -1.6550 0.9705
5.4792 4.8181 -1.6547 0.9705
5.1183 5.1977 -1.6543 0.9705
4.9279 5.3774 -1.6541 0.9705
4.7311 5.5502 -1.6540 0.9705
4.5283 5.7158 -1.6538 0.9705
3.2845 4.4663 -1.2573 0.9775
3.6617 6.3018 -1.6529 0.9705
3.1993 6.5465 -1.6525 0.9706
2.7206 6.7573 -1.6520 0.9706
2.2282 6.9331 -1.6515 0.9706
1.7245 7.0731 -1.6511 0.9706
1.2123 7.1765 -1.6506 0.9706
0.9537 7.2143 -1.6503 0.9706
0.6940 7.2428 -1.6501 0.9706
0.4335 7.2620 -1.6499 0.9706
0.1725 7.2718 -1.6496 0.9706
-0.0886 7.2723 -1.6494 0.9706
-0.3495 7.2633 -1.6491 0.9706
-0.6100 7.2450 -1.6489 0.9706
-1.1279 7.1805 -1.6484 0.9706
-2.8754 6.6680 -1.6468 0.9707
-3.1125 6.5597 -1.6466 0.9707
-3.3455 6.4429 -1.6464 0.9707
-3.5742 6.3179 -1.6462 0.9707
-4.2311 5.8949 -1.6456 0.9707
-4.6422 5.5749 -1.6452 0.9707
-6.2417 4.8544 -1.7932 0.9681
-7.0172 3.6666 -1.7956 0.9680
-1.4783 0.4605 -0.3511 0.9937
-1.4675 0.3999 -0.3449 0.9938
-1.4552 0.3410 -0.3390 0.9939
-1.4585 0.0739 -0.3312 0.9940
-1.4584 -0.0833 -0.3313 0.9940
-1.4534 -0.1883 -0.3324 0.9940
-1.4575 -0.3514 -0.3400 0.9939
-1.4695 -0.4106 -0.3460 0.9938
-1.4800 -0.4715 -0.3523 0.9936
-1.4886 -0.5338 -0.3586 0.9935
-1.4952 -0.5975 -0.3652 0.9934
-7.2426 -3.2005 -1.7958 0.9680
-6.9954 -3.7125 -1.7960 0.9680
-6.8581 -3.9615 -1.7962 0.9680
-6.3942 -4.6771 -1.7966 0.9680
-6.0433 -5.1248 -1.7970 0.9680
-5.8561 -5.3389 -1.7972 0.9680
-5.6613 -5.5463 -1.7974 0.9680
-5.4592 -5.7466 -1.7976 0.9680
-5.2500 -5.9395 -1.7978 0.9680
-5.0340 -6.1249 -1.7980 0.9680
-4.5827 -6.4719 -1.7984 0.9680
-4.3480 -6.6330 -1.7987 0.9680
-3.6111 -7.0648 -1.7994 0.9680
-3.0958 -7.3077 -1.7999 0.9680
-2.2932 -7.6013 -1.8006 0.9680
-2.0192 -7.6799 -1.8009 0.9680
-1.7425 -7.7485 -1.8011 0.9679
-0.8998 -7.8944 -1.8019 0.9679
-0.5751 -7.3983 -1.8022 0.9699
-0.3092 -7.4152 -1.8025 0.9699
-0.0429 -7.4226 -1.8027 0.9699
0.2236 -7.4204 -1.8030 0.9699
0.4899 -7.4085 -1.8032 0.9699
0.7557 -7.3872 -1.8034 0.9699
1.0205 -7.3563 -1.8037 0.9699
1.8061 -7.2068 -1.8044 0.9699
2.0639 -7.1383 -1.8046 0.9699
2.3191 -7.0605 -1.8049 0.9699
2.5714 -6.9736 -1.8051 0.9699
3.3074 -6.6592 -1.8058 0.9699
3.7775 -6.4062 -1.8062 0.9699
4.0055 -6.2672 -1.8064 0.9698
4.8633 -5.6318 -1.8072 0.9698
5.0628 -5.4541 -1.8073 0.9698
5.2558 -5.2694 -1.8075 0.9698
5.4421 -5.0777 -1.8077 0.9698
5.6213 -4.8796 -1.8078 0.9698
5.7933 -4.6750 -1.8080 0.9698
5.9579 -4.4644 -1.8081 0.9698
6.1147 -4.2479 -1.8082 0.9698
6.6614 -3.3299 -1.8087 0.9698
6.7770 -3.0888 -1.8088 0.9698
7.0707 -2.3426 -1.8090 0.9698
7.2821 -1.5690 -1.8092 0.9698
7.3762 -1.0426 -1.8092 0.9698
7.4437 0.2913 -1.8092 0.9698
7.2711 1.6155 -1.8090 0.9698
7.1358 2.1328 -1.8088 0.9698
7.0543 2.3875 -1.8087 0.9698
6.7556 3.1314 -1.8084 0.9698
6.6384 3.3717 -1.8083 0.9698
6.5126 3.6075 -1.8081 0.9698
6.3733 3.8356 -1.8065 0.9698
5.9699 4.2043 -1.7733 0.9704
5.5557 4.2188 -1.6942 0.9717
5.1155 4.4983 -1.6544 0.9723
4.6009 5.0206 -1.6539 0.9724
3.2818 4.4626 -1.3453 0.9775
3.2051 6.0021 -1.6525 0.9724
2.9872 6.1125 -1.6523 0.9724
2.7655 6.2150 -1.6521 0.9724
2.5403 6.3095 -1.6519 0.9724
1.8466 6.5434 -1.6512 0.9724
1.6103 6.6046 -1.6510 0.9724
1.3720 6.6572 -1.6508 0.9724
1.1320 6.7012 -1.6505 0.9724
0.8906 6.7366 -1.6503 0.9724
0.6481 6.7633 -1.6501 0.9724
-0.0827 6.7910 -1.6494 0.9724
-0.3264 6.7827 -1.6492 0.9724
-0.5696 6.7657 -1.6490 0.9724
-1.2931 6.6626 -1.6483 0.9724
-1.5312 6.6110 -1.6481 0.9725
-2.0011 6.4824 -1.6476 0.9725
-2.2322 6.4056 -1.6474 0.9725
-3.1245 6.0172 -1.6466 0.9725
-3.3381 5.9005 -1.6464 0.9725
-3.5473 5.7762 -1.6463 0.9725
-4.1464 5.3597 -1.6457 0.9725
-4.3357 5.2068 -1.6456 0.9725
-4.6971 4.8814 -1.6452 0.9725
-4.8689 4.7092 -1.6451 0.9725
-5.8359 4.5388 -1.7955 0.9700
-6.1493 4.1102 -1.7963 0.9700
-6.5543 3.4247 -1.7960 0.9700
-6.6726 3.1871 -1.7959 0.9700
-1.3743 0.5390 -0.3585 0.9939
-1.3699 0.4813 -0.3526 0.9940
-1.3636 0.4248 -0.3469 0.9941
-1.3424 0.2641 -0.3323 0.9944
-1.3540 0.1666 -0.3313 0.9944
-1.3583 0.0688 -0.3303 0.9944
-1.3579 -0.0287 -0.3299 0.9944
-1.3582 -0.0776 -0.3304 0.9944
-1.3410 -0.2728 -0.3323 0.9944
-1.3571 -0.3792 -0.3422 0.9942
-1.3649 -0.4348 -0.3479 0.9941
-1.3709 -0.4916 -0.3537 0.9940
-1.3749 -0.5495 -0.3596 0.9939
-1.3769 -0.6085 -0.3656 0.9938
-6.6536 -3.2305 -1.7963 0.9700
-6.5338 -3.4675 -1.7964 0.9700
-6.4056 -3.7001 -1.7966 0.9700
-6.2691 -3.9279 -1.7967 0.9700
-6.1246 -4.1508 -1.7969 0.9700
-5.9721 -4.3683 -1.7970 0.9700
-5.8120 -4.5803 -1.7972 0.9700
-5.2875 -5.1801 -1.7977 0.9700
-4.7015 -5.7203 -1.7983 0.9700
-4.4936 -5.8861 -1.7985 0.9700
-4.0607 -6.1947 -1.7989 0.9700
-3.3724 -6.5978 -1.7996 0.9700
-3.1338 -6.7155 -1.7998 0.9700
-2.8911 -6.8245 -1.8000 0.9700
-2.3947 -7.0162 -1.8005 0.9699
-1.6272 -7.2359 -1.8012 0.9699
-1.1041 -7.3360 -1.8017 0.9699
-0.5392 -6.9358 -1.8022 0.9717
-0.2899 -6.9516 -1.8024 0.9717
-0.0402 -6.9584 -1.8027 0.9717
0.2097 -6.9562 -1.8029 0.9717
0.4593 -6.9451 -1.8031 0.9716
0.7084 -6.9250 -1.8034 0.9716
0.9566 -6.8960 -1.8036 0.9716
1.2037 -6.8581 -1.8038 0.9716
1.4493 -6.8113 -1.8041 0.9716
2.1739 -6.6185 -1.8047 0.9716
2.6438 -6.4470 -1.8051 0.9716
3.3227 -6.1275 -1.8058 0.9716
3.5409 -6.0049 -1.8059 0.9716
3.7546 -5.8745 -1.8061 0.9716
4.1672 -5.5912 -1.8065 0.9716
5.2688 -4.5736 -1.8075 0.9716
5.5842 -4.1844 -1.8077 0.9716
5.7312 -3.9815 -1.8079 0.9716
5.8708 -3.7735 -1.8080 0.9716
6.0029 -3.5605 -1.8081 0.9716
6.1272 -3.3429 -1.8082 0.9716
6.2435 -3.1210 -1.8083 0.9716
6.4520 -2.6652 -1.8085 0.9716
6.6270 -2.1956 -1.8086 0.9716
6.7018 -1.9564 -1.8086 0.9716
6.7679 -1.7146 -1.8087 0.9716
6.8737 -1.2247 -1.8088 0.9716
6.9440 -0.7284 -1.8088 0.9716
6.9657 -0.4786 -1.8088 0.9716
6.9784 -0.2283 -1.8088 0.9716
6.9820 0.0224 -1.8088 0.9716
6.9766 0.2730 -1.8088 0.9716
6.9064 1.0214 -1.8087 0.9716
6.8651 1.2686 -1.8086 0.9716
6.8149 1.5141 -1.8085 0.9716
6.6882 1.9990 -1.8084 0.9716
6.4335 2.7060 -1.8081 0.9716
6.1042 3.3813 -1.8078 0.9716
5.9784 3.5980 -1.8076 0.9716
5.8418 3.8079 -1.8065 0.9716
5.5302 4.1995 -1.7989 0.9717
4.8079 4.2278 -1.6586 0.9739
4.6400 4.3853 -1.6539 0.9740
4.4792 4.5486 -1.6538 0.9740
4.1404 4.8572 -1.6534 0.9740
3.2790 4.4589 -1.4338 0.9774
3.4011 5.3975 -1.6527 0.9740
3.2048 5.5155 -1.6525 0.9740
2.8002 5.7298 -1.6522 0.9740
2.5924 5.8259 -1.6520 0.9740
2.1672 5.9955 -1.6515 0.9740
1.2861 6.2408 -1.6507 0.9740
0.8349 6.3153 -1.6503 0.9740
-0.5340 6.3429 -1.6490 0.9740
-0.7612 6.3188 -1.6488 0.9740
-0.9874 6.2867 -1.6486 0.9740
-1.2123 6.2464 -1.6484 0.9741
-1.4356 6.1981 -1.6482 0.9741
-1.6570 6.1418 -1.6480 0.9741
-1.8761 6.0776 -1.6478 0.9741
-2.5177 5.8387 -1.6472 0.9741
-2.9295 5.6417 -1.6468 0.9741
-3.1298 5.5323 -1.6467 0.9741
-3.5179 5.2924 -1.6463 0.9741
-4.2375 4.7326 -1.6457 0.9741
-4.4042 4.5770 -1.6455 0.9741
-4.7096 4.5552 -1.6974 0.9733
-5.3107 4.4453 -1.7942 0.9718
-6.0269 3.4300 -1.7965 0.9718
-1.2893 0.5599 -0.3641 0.9942
-1.2890 0.5056 -0.3587 0.9943
-1.2846 0.4001 -0.3485 0.9945
-1.2805 0.3490 -0.3438 0.9945
-1.2844 0.2051 -0.3370 0.9946
-1.2899 0.1119 -0.3354 0.9947
-1.2909 -0.0737 -0.3350 0.9947
-1.2896 -0.1202 -0.3355 0.9947
-1.2872 -0.1668 -0.3363 0.9947
-1.2771 -0.3079 -0.3403 0.9946
-1.2813 -0.3580 -0.3446 0.9945
-1.2892 -0.5697 -0.3651 0.9942
-1.2879 -0.6253 -0.3709 0.9941
-6.1265 -3.2514 -1.7968 0.9717
-6.0063 -3.4694 -1.7969 0.9717
-5.8783 -3.6831 -1.7971 0.9717
-5.7427 -3.8920 -1.7972 0.9717
-5.5998 -4.0960 -1.7973 0.9717
-5.2924 -4.4879 -1.7977 0.9717
-5.1283 -4.6755 -1.7978 0.9717
-4.7806 -5.0323 -1.7982 0.9717
-4.4081 -5.3634 -1.7985 0.9717
-4.2132 -5.5188 -1.7987 0.9717
-3.8072 -5.8081 -1.7991 0.9717
-3.3815 -6.0677 -1.7995 0.9717
-2.9381 -6.2962 -1.7999 0.9717
-2.7106 -6.3983 -1.8002 0.9717
-1.7678 -6.7237 -1.8011 0.9717
-0.5072 -6.5246 -1.8022 0.9732
-0.2727 -6.5394 -1.8024 0.9732
-0.0378 -6.5458 -1.8027 0.9732
0.4321 -6.5332 -1.8031 0.9732
0.8999 -6.4870 -1.8035 0.9732
1.1323 -6.4512 -1.8037 0.9732
1.3633 -6.4072 -1.8039 0.9732
1.5926 -6.3548 -1.8042 0.9732
1.8199 -6.2943 -1.8044 0.9732
2.2673 -6.1489 -1.8048 0.9732
2.9162 -5.8714 -1.8054 0.9732
3.3306 -5.6482 -1.8057 0.9732
3.7279 -5.3958 -1.8061 0.9732
3.9196 -5.2590 -1.8063 0.9732
4.1062 -5.1154 -1.8064 0.9732
4.4634 -4.8084 -1.8067 0.9731
4.7977 -4.4765 -1.8070 0.9731
5.1073 -4.1213 -1.8073 0.9731
5.3905 -3.7448 -1.8075 0.9731
5.7628 -3.1441 -1.8078 0.9731
5.8723 -2.9354 -1.8079 0.9731
5.9741 -2.7228 -1.8080 0.9731
6.3032 -1.8400 -1.8083 0.9731
6.5309 -0.6850 -1.8084 0.9731
6.5633 -0.2147 -1.8084 0.9731
6.5481 0.4921 -1.8083 0.9731
6.4568 1.1931 -1.8082 0.9731
6.4096 1.4241 -1.8082 0.9731
6.3541 1.6532 -1.8081 0.9731
6.2904 1.8801 -1.8080 0.9731
6.2186 2.1046 -1.8079 0.9731
6.1388 2.3264 -1.8079 0.9731
5.9554 2.7605 -1.8077 0.9731
5.8521 2.9724 -1.8076 0.9731
5.7413 3.1803 -1.8074 0.9731
5.6230 3.3841 -1.8073 0.9731
5.4976 3.5835 -1.8072 0.9731
5.2151 3.9602 -1.8033 0.9732
4.7848 4.2075 -1.7547 0.9739
4.4642 4.2191 -1.6916 0.9748
4.0564 4.4264 -1.6534 0.9754
3.8945 4.5687 -1.6532 0.9754
3.7276 4.7051 -1.6531 0.9754
3.2763 4.4551 -1.5229 0.9773
2.8261 5.2923 -1.6522 0.9754
2.6340 5.3897 -1.6520 0.9754
2.2400 5.5635 -1.6516 0.9754
1.8346 5.7086 -1.6513 0.9754
1.6283 5.7701 -1.6511 0.9754
1.4200 5.8241 -1.6509 0.9754
0.7854 5.9409 -1.6503 0.9754
0.5715 5.9645 -1.6501 0.9754
0.1421 5.9887 -1.6497 0.9755
-0.0730 5.9892 -1.6495 0.9755
-0.2879 5.9820 -1.6493 0.9755
-0.5024 5.9671 -1.6491 0.9755
-0.7161 5.9445 -1.6489 0.9755
-2.1702 5.5752 -1.6475 0.9755
-2.3687 5.4930 -1.6474 0.9755
-2.5641 5.4039 -1.6472 0.9755
-2.9446 5.2050 -1.6468 0.9755
-3.1292 5.0954 -1.6467 0.9755
-3.6578 4.7281 -1.6462 0.9755
-3.8248 4.5934 -1.6461 0.9755
-4.2705 4.4380 -1.6961 0.9748
-4.8407 4.3567 -1.7935 0.9733
-5.0034 4.1880 -1.7968 0.9733
-5.5515 3.4290 -1.7969 0.9733
-1.2235 0.5844 -0.3734 0.9944
-1.2261 0.4809 -0.3627 0.9946
-1.2221 0.3331 -0.3488 0.9948
-1.2346 0.1519 -0.3425 0.9949
-1.2379 0.0627 -0.3413 0.9949
-1.2377 0.0182 -0.3409 0.9949
-1.2378 -0.0262 -0.3409 0.9949
-1.2377 -0.0707 -0.3414 0.9949
-1.2206 -0.2943 -0.3458 0.9948
-1.2257 -0.4395 -0.3586 0.9946
-1.2193 -0.6471 -0.3801 0.9943
-5.6512 -3.2643 -1.7972 0.9733
-5.5308 -3.4653 -1.7974 0.9733
-5.4032 -3.6619 -1.7975 0.9733
-5.2687 -3.8538 -1.7976 0.9733
-4.9794 -4.2225 -1.7979 0.9733
-4.8250 -4.3989 -1.7981 0.9733
-4.6644 -4.5697 -1.7982 0.9733
-4.3254 -4.8935 -1.7986 0.9733
-4.1473 -5.0461 -1.7987 0.9733
-3.9639 -5.1922 -1.7989 0.9733
-3.7754 -5.3317 -1.7991 0.9733
-3.5819 -5.4644 -1.7993 0.9733
-3.1813 -5.7085 -1.7997 0.9733
-2.5501 -6.0195 -1.8003 0.9732
-2.1121 -6.1883 -1.8007 0.9732
-1.8888 -6.2609 -1.8009 0.9732
-0.9738 -6.4699 -1.8018 0.9732
-0.4786 -6.1566 -1.8022 0.9746
-0.0357 -6.1765 -1.8026 0.9746
0.4077 -6.1646 -1.8030 0.9746
0.6288 -6.1466 -1.8033 0.9746
0.8491 -6.1208 -1.8035 0.9746
1.5027 -5.9960 -1.8041 0.9746
1.7171 -5.9389 -1.8042 0.9746
2.1392 -5.8016 -1.8046 0.9746
2.5505 -5.6343 -1.8050 0.9746
2.9488 -5.4379 -1.8054 0.9746
3.1423 -5.3291 -1.8055 0.9746
3.6980 -4.9617 -1.8060 0.9745
3.8741 -4.8262 -1.8062 0.9745
4.0452 -4.6844 -1.8063 0.9745
4.2111 -4.5365 -1.8065 0.9745
4.3715 -4.3828 -1.8066 0.9745
4.6754 -4.0584 -1.8069 0.9745
5.2094 -3.3483 -1.8073 0.9745
5.4368 -2.9663 -1.8075 0.9745
5.7249 -2.3649 -1.8078 0.9745
5.9465 -1.7359 -1.8079 0.9745
6.0051 -1.5214 -1.8080 0.9745
6.0560 -1.3049 -1.8080 0.9745
6.0990 -1.0866 -1.8080 0.9745
6.1919 -0.2026 -1.8081 0.9745
6.1951 0.0199 -1.8081 0.9745
6.1568 0.6857 -1.8080 0.9745
6.1281 0.9062 -1.8079 0.9745
6.0469 1.3435 -1.8078 0.9745
5.9946 1.5596 -1.8078 0.9745
5.4166 3.0004 -1.8071 0.9745
5.3050 3.1927 -1.8070 0.9745
5.1866 3.3809 -1.8069 0.9745
5.0616 3.5646 -1.8068 0.9745
4.6338 4.0747 -1.8008 0.9746
3.8697 4.2227 -1.6716 0.9764
3.2735 4.4513 -1.6126 0.9772
3.1882 4.6784 -1.6523 0.9767
3.0184 4.7902 -1.6524 0.9767
2.8443 4.8949 -1.6522 0.9767
2.6664 4.9934 -1.6521 0.9767
2.3008 5.1707 -1.6517 0.9767
2.1135 5.2494 -1.6515 0.9767
1.9235 5.3213 -1.6514 0.9767
1.5364 5.4444 -1.6510 0.9767
1.3398 5.4954 -1.6508 0.9767
0.9419 5.5761 -1.6504 0.9767
-0.4740 5.6307 -1.6491 0.9767
-0.8766 5.5809 -1.6487 0.9767
-1.0762 5.5452 -1.6486 0.9767
-1.2745 5.5024 -1.6484 0.9767
-1.4710 5.4525 -1.6482 0.9767
-2.0480 5.2611 -1.6477 0.9767
-2.2353 5.1837 -1.6475 0.9768
-2.9530 4.8085 -1.6469 0.9768
-3.2898 4.5834 -1.6466 0.9768
-3.6095 4.3348 -1.6463 0.9768
-4.2492 4.4159 -1.7885 0.9748
-4.7233 3.9536 -1.7977 0.9747
-4.8619 3.7812 -1.7976 0.9747
-5.1200 3.4223 -1.7973 0.9747
-1.1548 0.6572 -0.3878 0.9945
-1.1604 0.6063 -0.3821 0.9946
-1.1686 0.4583 -0.3663 0.9948
-1.1687 0.4106 -0.3615 0.9949
-1.1775 0.2317 -0.3502 0.9950
-1.1819 0.1887 -0.3493 0.9950
-1.1874 0.1030 -0.3478 0.9950
-1.1884 -0.0252 -0.3469 0.9951
-1.1883 -0.0679 -0.3474 0.9951
-1.1812 -0.1964 -0.3495 0.9950
-1.1709 -0.2823 -0.3515 0.9950
-1.1696 -0.3726 -0.3582 0.9949
-1.1668 -0.5156 -0.3723 0.9947
-1.1595 -0.6153 -0.3831 0.9945
-5.3333 -3.0807 -1.7975 0.9747
-4.9722 -3.6369 -1.7979 0.9747
-4.8388 -3.8134 -1.7980 0.9747
-4.6992 -3.9849 -1.7982 0.9747
-4.5535 -4.1513 -1.7983 0.9747
-4.2446 -4.4681 -1.7986 0.9746
-4.0819 -4.6180 -1.7988 0.9746
-3.7407 -4.8999 -1.7991 0.9746
-3.0021 -5.3870 -1.7998 0.9746
-2.8071 -5.4918 -1.8000 0.9746
-2.4064 -5.6803 -1.8004 0.9746
-1.9931 -5.8396 -1.8008 0.9746
-1.7824 -5.9080 -1.8010 0.9746
-1.3542 -6.0220 -1.8014 0.9746
-0.9189 -6.1050 -1.8018 0.9746
-0.4528 -5.8251 -1.8022 0.9758
-0.2435 -5.8382 -1.8024 0.9758
0.1761 -5.8419 -1.8028 0.9758
0.3857 -5.8325 -1.8030 0.9758
1.0108 -5.7590 -1.8036 0.9758
1.2170 -5.7196 -1.8038 0.9758
1.4217 -5.6729 -1.8040 0.9758
1.6246 -5.6188 -1.8041 0.9758
1.8254 -5.5574 -1.8043 0.9758
2.4130 -5.3305 -1.8049 0.9758
2.6030 -5.2409 -1.8050 0.9758
2.7897 -5.1446 -1.8052 0.9758
3.3275 -4.8162 -1.8057 0.9758
3.4985 -4.6940 -1.8058 0.9758
3.6651 -4.5658 -1.8060 0.9758
3.9838 -4.2917 -1.8063 0.9758
4.2821 -3.9954 -1.8065 0.9758
4.4230 -3.8394 -1.8066 0.9758
4.5583 -3.6784 -1.8068 0.9758
4.6877 -3.5126 -1.8069 0.9758
4.8110 -3.3422 -1.8070 0.9758
4.9282 -3.1676 -1.8071 0.9758
5.3318 -2.4301 -1.8074 0.9758
5.4157 -2.2372 -1.8075 0.9758
5.5626 -1.8430 -1.8076 0.9758
5.6808 -1.4392 -1.8077 0.9758
5.7289 -1.2344 -1.8077 0.9758
5.7696 -1.0279 -1.8077 0.9758
5.8286 -0.6114 -1.8077 0.9758
5.8439 0.4392 -1.8077 0.9758
5.7971 0.8573 -1.8076 0.9758
5.7625 1.0648 -1.8076 0.9758
5.6709 1.4754 -1.8075 0.9758
5.4005 2.2715 -1.8072 0.9758
5.3152 2.4637 -1.8071 0.9758
5.1241 2.8384 -1.8069 0.9758
5.0186 3.0204 -1.8068 0.9758
4.9067 3.1984 -1.8067 0.9758
4.6639 3.5417 -1.8064 0.9758
3.8547 4.2064 -1.7599 0.9764
3.5936 4.2158 -1.7087 0.9771
3.1741 4.3161 -1.6526 0.9778
2.6909 4.6310 -1.6521 0.9778
2.5227 4.7241 -1.6520 0.9778
2.1768 4.8920 -1.6516 0.9778
1.9996 4.9665 -1.6515 0.9778
1.8198 5.0345 -1.6513 0.9778
1.6378 5.0961 -1.6511 0.9778
1.4536 5.1510 -1.6509 0.9778
1.0801 5.2409 -1.6506 0.9778
0.5103 5.3249 -1.6500 0.9779
0.1269 5.3467 -1.6497 0.9779
-0.0651 5.3472 -1.6495 0.9779
-0.2570 5.3408 -1.6493 0.9779
-0.4485 5.3276 -1.6492 0.9779
-0.6394 5.3075 -1.6490 0.9779
-1.2059 5.2064 -1.6485 0.9779
-1.7581 5.0450 -1.6480 0.9779
-1.9378 4.9781 -1.6478 0.9779
-2.1151 4.9049 -1.6476 0.9779
-2.2896 4.8254 -1.6475 0.9779
-2.4611 4.7396 -1.6473 0.9779
-2.9555 4.4464 -1.6469 0.9779
-3.1130 4.3371 -1.6467 0.9779
-3.3078 4.2757 -1.6675 0.9776
-3.8731 4.3256 -1.7910 0.9760
-4.0319 4.1900 -1.7936 0.9760
-4.1861 4.0488 -1.7964 0.9759
-4.4696 3.7412 -1.7979 0.9759
-4.8450 3.2385 -1.7976 0.9759
-4.9579 3.0623 -1.7975 0.9759
-1.0997 0.6259 -0.3903 0.9947
-1.1104 0.5304 -0.3796 0.9949
-1.1164 0.4379 -0.3699 0.9950
-1.1191 0.3932 -0.3659 0.9950
-1.1205 0.3490 -0.3620 0.9951
-1.1209 0.3055 -0.3584 0.9951
-1.1316 0.2226 -0.3558 0.9952
-1.1392 0.1402 -0.3541 0.9952
-1.1424 0.0579 -0.3528 0.9952
-1.1423 0.0168 -0.3524 0.9952
-1.1424 -0.0242 -0.3524 0.9952
-1.1423 -0.0653 -0.3529 0.9952
-1.1411 -0.1064 -0.3535 0.9952
-1.1307 -0.2300 -0.3559 0.9952
-1.1251 -0.2713 -0.3570 0.9952
-1.1209 -0.3132 -0.3590 0.9951
-1.1187 -0.4011 -0.3666 0.9950
-1.1097 -0.5388 -0.3805 0.9948
-1.0985 -0.6345 -0.3913 0.9947
-4.8253 -3.2702 -1.7980 0.9759
-4.5788 -3.6085 -1.7983 0.9759
-4.4467 -3.7708 -1.7984 0.9759
-4.1653 -4.0807 -1.7987 0.9759
-3.8625 -4.3698 -1.7990 0.9759
-3.5396 -4.6365 -1.7993 0.9759
-3.3712 -4.7610 -1.7995 0.9759
-3.1984 -4.8794 -1.7996 0.9759
-3.0215 -4.9915 -1.7998 0.9759
-2.8407 -5.0972 -1.8000 0.9759
-2.6561 -5.1964 -1.8001 0.9759
-2.4681 -5.2890 -1.8003 0.9759
-2.2769 -5.3747 -1.8005 0.9759
-2.0827 -5.4535 -1.8007 0.9759
-1.8858 -5.5254 -1.8009 0.9759
-1.6865 -5.5901 -1.8011 0.9759
-1.4849 -5.6476 -1.8013 0.9759
-1.2813 -5.6979 -1.8014 0.9758
-1.0761 -5.7408 -1.8016 0.9758
-0.8694 -5.7763 -1.8018 0.9758
-0.6616 -5.8045 -1.8020 0.9758
-0.4295 -5.5248 -1.8022 0.9770
0.5642 -5.5155 -1.8032 0.9769
1.1542 -5.4246 -1.8037 0.9769
1.7312 -5.2706 -1.8042 0.9769
1.9195 -5.2055 -1.8044 0.9769
2.2884 -5.0553 -1.8047 0.9769
2.6457 -4.8790 -1.8050 0.9769
2.8194 -4.7813 -1.8052 0.9769
3.1556 -4.5674 -1.8055 0.9769
3.3178 -4.4516 -1.8056 0.9769
3.4758 -4.3299 -1.8058 0.9769
4.1945 -3.6410 -1.8064 0.9769
4.3227 -3.4883 -1.8065 0.9769
4.4454 -3.3311 -1.8066 0.9769
4.5624 -3.1695 -1.8067 0.9769
4.6735 -3.0039 -1.8068 0.9769
4.7785 -2.8343 -1.8069 0.9769
5.0561 -2.3045 -1.8071 0.9769
5.1358 -2.1215 -1.8072 0.9769
5.2751 -1.7477 -1.8073 0.9769
5.3871 -1.3648 -1.8074 0.9769
5.4713 -0.9748 -1.8074 0.9769
5.5028 -0.7778 -1.8075 0.9769
5.5272 -0.5798 -1.8075 0.9769
5.5445 -0.3810 -1.8075 0.9769
5.5546 -0.1817 -1.8075 0.9769
5.5532 0.2173 -1.8074 0.9769
5.4646 1.0098 -1.8073 0.9769
5.1956 1.9689 -1.8070 0.9769
5.1213 2.1541 -1.8069 0.9769
5.0405 2.3364 -1.8068 0.9769
4.6531 3.0331 -1.8064 0.9769
4.5410 3.1980 -1.8063 0.9769
4.4230 3.3587 -1.8062 0.9769
4.2992 3.5150 -1.8061 0.9769
4.0330 3.8117 -1.8048 0.9769
3.8883 3.9486 -1.8023 0.9770
3.3344 4.2088 -1.7463 0.9777
3.1011 4.2169 -1.7024 0.9782
2.8787 4.2242 -1.6625 0.9787
2.5520 4.3920 -1.6520 0.9789
2.3925 4.4803 -1.6518 0.9789
2.2299 4.5629 -1.6517 0.9789
2.0645 4.6395 -1.6515 0.9789
1.8964 4.7102 -1.6514 0.9789
1.7259 4.7748 -1.6512 0.9789
1.5533 4.8332 -1.6510 0.9789
1.3786 4.8853 -1.6509 0.9789
1.2023 4.9311 -1.6507 0.9789
0.1203 5.0710 -1.6497 0.9789
-0.0618 5.0716 -1.6495 0.9789
-0.2438 5.0656 -1.6494 0.9789
-0.6065 5.0340 -1.6490 0.9789
-0.9659 4.9765 -1.6487 0.9789
-1.6675 4.7852 -1.6481 0.9789
-1.8381 4.7218 -1.6479 0.9789
-2.6504 4.3158 -1.6472 0.9789
-2.8168 4.2376 -1.6549 0.9788
-3.5257 4.2341 -1.7919 0.9771
-3.6802 4.1102 -1.7943 0.9771
-3.8305 3.9808 -1.7967 0.9770
-3.9747 3.8443 -1.7984 0.9770
-4.2397 3.5488 -1.7981 0.9770
-4.4829 3.2351 -1.7979 0.9770
-1.0413 0.6432 -0.3981 0.9949
-1.0492 0.5971 -0.3926 0.9949
-1.0556 0.5516 -0.3874 0.9950
-1.0607 0.5066 -0.3823 0.9951
-1.0657 0.4628 -0.3779 0.9951
-1.0700 0.4197 -0.3738 0.9952
-1.0750 0.3349 -0.3662 0.9953
-1.0834 0.2539 -0.3619 0.9953
-1.0931 0.1746 -0.3600 0.9954
-1.0994 0.0557 -0.3580 0.9954
-1.0994 -0.0233 -0.3576 0.9954
-1.0981 -0.1024 -0.3587 0.9954
-1.0924 -0.1817 -0.3602 0.9954
-1.0758 -0.3006 -0.3633 0.9953
-1.0747 -0.3424 -0.3668 0.9953
-1.0693 -0.4274 -0.3745 0.9952
-1.0649 -0.4706 -0.3786 0.9951
-1.0546 -0.5597 -0.3883 0.9950
-1.0479 -0.6053 -0.3936 0.9949
-1.0398 -0.6515 -0.3990 0.9949
-4.5771 -3.1020 -1.7982 0.9770
-4.3433 -3.4228 -1.7985 0.9770
-4.2179 -3.5768 -1.7986 0.9770
-3.8098 -4.0104 -1.7990 0.9770
-3.6637 -4.1449 -1.7991 0.9770
-3.5128 -4.2741 -1.7993 0.9770
-3.3574 -4.3978 -1.7994 0.9770
-3.0338 -4.6282 -1.7998 0.9770
-2.6944 -4.8348 -1.8001 0.9770
-2.3410 -5.0166 -1.8004 0.9770
-1.9755 -5.1726 -1.8008 0.9770
-1.4084 -5.3566 -1.8013 0.9770
-1.2153 -5.4042 -1.8015 0.9770
-1.0206 -5.4450 -1.8017 0.9770
-0.6275 -5.5053 -1.8020 0.9770
-0.2195 -5.2632 -1.8024 0.9780
0.3477 -5.2578 -1.8029 0.9780
0.7242 -5.2203 -1.8033 0.9780
1.0971 -5.1559 -1.8036 0.9780
1.2815 -5.1137 -1.8038 0.9780
1.4644 -5.0648 -1.8040 0.9780
1.6454 -5.0094 -1.8041 0.9780
1.8243 -4.9476 -1.8043 0.9780
2.3463 -4.7240 -1.8048 0.9779
2.5145 -4.6372 -1.8049 0.9779
2.8412 -4.4455 -1.8052 0.9779
3.1533 -4.2309 -1.8055 0.9779
3.3034 -4.1152 -1.8056 0.9779
3.4492 -3.9943 -1.8057 0.9779
3.5907 -3.8682 -1.8059 0.9779
3.9865 -3.4604 -1.8062 0.9779
4.1083 -3.3153 -1.8063 0.9779
4.5414 -2.6937 -1.8067 0.9779
4.7234 -2.3611 -1.8068 0.9779
4.8053 -2.1901 -1.8069 0.9779
4.8810 -2.0163 -1.8070 0.9779
4.9503 -1.8398 -1.8070 0.9779
5.0133 -1.6610 -1.8071 0.9779
5.0698 -1.4800 -1.8071 0.9779
5.1631 -1.1125 -1.8072 0.9779
5.1998 -0.9264 -1.8072 0.9779
5.2693 -0.3621 -1.8072 0.9779
5.2789 -0.1727 -1.8072 0.9779
5.2668 0.3958 -1.8072 0.9779
5.2246 0.7726 -1.8071 0.9779
5.0020 1.6929 -1.8068 0.9779
4.9378 1.8712 -1.8068 0.9779
4.8672 2.0472 -1.8067 0.9779
4.6183 2.5582 -1.8064 0.9779
4.4223 2.8827 -1.8062 0.9779
4.2036 3.1921 -1.8060 0.9779
4.0860 3.3408 -1.8059 0.9779
3.9632 3.4850 -1.8058 0.9779
3.4144 4.0055 -1.8009 0.9780
3.2646 4.1207 -1.7988 0.9780
3.0899 4.2017 -1.7845 0.9782
2.8686 4.2093 -1.7429 0.9787
2.6568 4.2163 -1.7052 0.9792
2.2739 4.2583 -1.6518 0.9798
1.9622 4.4097 -1.6515 0.9798
1.8025 4.4769 -1.6513 0.9798
1.3104 4.6434 -1.6508 0.9798
0.9737 4.7245 -1.6505 0.9798
0.8034 4.7560 -1.6504 0.9798
0.4600 4.8004 -1.6500 0.9798
-0.0587 4.8206 -1.6496 0.9798
-0.2317 4.8149 -1.6494 0.9798
-0.5765 4.7850 -1.6491 0.9798
-0.9181 4.7304 -1.6488 0.9798
-1.2549 4.6515 -1.6484 0.9798
-1.5851 4.5486 -1.6481 0.9798
-1.7472 4.4884 -1.6480 0.9798
-1.9070 4.4224 -1.6479 0.9798
-2.2190 4.2735 -1.6476 0.9798
-2.3894 4.2237 -1.6604 0.9797
-2.5936 4.2232 -1.6958 0.9793
-3.5039 3.9133 -1.7973 0.9780
-3.6450 3.7880 -1.7987 0.9780
-4.0303 3.3735 -1.7983 0.9780
-4.1486 3.2265 -1.7982 0.9780
-4.2615 3.0753 -1.7982 0.9780
-0.9850 0.6584 -0.4054 0.9950
-1.0097 0.5276 -0.3898 0.9952
-1.0269 0.4028 -0.3774 0.9953
-1.0303 0.3620 -0.3736 0.9954
-1.0325 0.3216 -0.3700 0.9954
-1.0435 0.2445 -0.3667 0.9955
-1.0487 0.2063 -0.3657 0.9955
-1.0529 0.1682 -0.3648 0.9955
-1.0591 0.0156 -0.3624 0.9955
-1.0592 -0.0224 -0.3625 0.9955
-1.0578 -0.0986 -0.3635 0.9955
-1.0556 -0.1368 -0.3642 0.9955
-1.0523 -0.1750 -0.3650 0.9955
-1.0479 -0.2131 -0.3659 0.9955
-1.0262 -0.4101 -0.3781 0.9953
-1.0215 -0.4514 -0.3821 0.9953
-1.0155 -0.4931 -0.3863 0.9952
-1.0013 -0.5784 -0.3956 0.9951
-0.9929 -0.6221 -0.4009 0.9951
-4.0096 -3.4001 -1.7988 0.9780
-3.8852 -3.5421 -1.7989 0.9780
-3.6216 -3.8123 -1.7992 0.9780
-3.4827 -3.9401 -1.7993 0.9780
-3.3392 -4.0629 -1.7994 0.9780
-3.1915 -4.1805 -1.7996 0.9780
-3.0396 -4.2927 -1.7997 0.9780
-2.5612 -4.5958 -1.8002 0.9780
-2.2253 -4.7686 -1.8005 0.9780
-2.0529 -4.8458 -1.8007 0.9780
-1.7002 -4.9815 -1.8010 0.9780
-1.5204 -5.0398 -1.8012 0.9780
-1.3387 -5.0916 -1.8014 0.9780
-0.9701 -5.1756 -1.8017 0.9780
-0.0290 -5.0172 -1.8026 0.9789
0.3311 -5.0073 -1.8029 0.9789
0.5107 -4.9926 -1.8031 0.9789
0.6897 -4.9716 -1.8032 0.9789
0.8678 -4.9440 -1.8034 0.9789
1.0448 -4.9102 -1.8036 0.9789
1.2204 -4.8699 -1.8037 0.9789
1.3946 -4.8234 -1.8039 0.9789
1.5670 -4.7706 -1.8040 0.9789
1.7374 -4.7117 -1.8042 0.9789
2.0713 -4.5757 -1.8045 0.9789
2.3946 -4.4160 -1.8048 0.9789
2.5518 -4.3275 -1.8049 0.9789
2.7057 -4.2335 -1.8051 0.9789
3.0029 -4.0290 -1.8053 0.9789
3.1458 -3.9189 -1.8055 0.9789
3.5496 -3.5587 -1.8058 0.9789
3.6752 -3.4292 -1.8059 0.9789
3.7962 -3.2953 -1.8060 0.9789
4.0233 -3.0147 -1.8062 0.9789
4.2296 -2.7186 -1.8064 0.9789
4.4141 -2.4083 -1.8065 0.9789
4.4979 -2.2484 -1.8066 0.9789
4.5758 -2.0855 -1.8067 0.9789
4.6479 -1.9200 -1.8067 0.9789
4.7140 -1.7520 -1.8068 0.9789
4.7739 -1.5817 -1.8068 0.9789
4.8753 -1.2351 -1.8069 0.9789
4.9515 -0.8822 -1.8069 0.9788
5.0177 -0.3448 -1.8070 0.9788
4.9985 0.5567 -1.8069 0.9789
4.9751 0.7357 -1.8069 0.9789
4.9454 0.9138 -1.8068 0.9789
4.9093 1.0908 -1.8068 0.9789
4.8181 1.4401 -1.8067 0.9789
4.7021 1.7819 -1.8066 0.9789
4.5617 2.1145 -1.8064 0.9789
4.3979 2.4361 -1.8062 0.9789
4.3073 2.5923 -1.8061 0.9789
4.2113 2.7451 -1.8060 0.9789
4.1098 2.8943 -1.8059 0.9789
3.8911 3.1813 -1.8057 0.9789
3.6523 3.4519 -1.8055 0.9789
3.2572 3.8211 -1.8039 0.9789
2.9682 4.0361 -1.8000 0.9789
2.2503 4.2141 -1.7164 0.9799
2.0621 4.2195 -1.6873 0.9802
1.5623 4.3220 -1.6511 0.9807
1.4083 4.3820 -1.6536 0.9806
1.2479 4.4221 -1.6508 0.9807
0.9273 4.4994 -1.6505 0.9807
0.7651 4.5294 -1.6503 0.9807
-0.2207 4.5857 -1.6494 0.9807
-0.7122 4.5342 -1.6490 0.9807
-0.8744 4.5053 -1.6488 0.9807
-1.5096 4.3322 -1.6482 0.9807
-2.1888 4.2152 -1.7064 0.9800
-2.5845 4.2084 -1.7743 0.9792
-2.7624 4.1557 -1.7928 0.9790
-2.9124 4.0576 -1.7944 0.9790
-3.0593 3.9545 -1.7962 0.9790
-3.2027 3.8462 -1.7982 0.9790
-3.4717 3.6079 -1.7989 0.9789
-3.7212 3.3491 -1.7986 0.9789
-3.9514 3.0732 -1.7984 0.9789
-0.9306 0.6716 -0.4123 0.9951
-0.9417 0.6294 -0.4069 0.9952
-0.9607 0.5467 -0.3971 0.9953
-0.9690 0.5063 -0.3928 0.9954
-0.9761 0.4662 -0.3886 0.9954
-0.9868 0.3871 -0.3808 0.9955
-0.9904 0.3480 -0.3771 0.9955
-0.9998 0.2725 -0.3723 0.9956
-1.0111 0.1989 -0.3702 0.9956
-1.0152 0.1621 -0.3694 0.9956
-1.0202 0.0885 -0.3679 0.9957
-1.0214 -0.0216 -0.3670 0.9957
-1.0146 -0.1687 -0.3695 0.9956
-1.0103 -0.2055 -0.3704 0.9956
-1.0049 -0.2423 -0.3714 0.9956
-0.9986 -0.2790 -0.3725 0.9956
-0.9750 -0.4734 -0.3894 0.9954
-0.9676 -0.5135 -0.3936 0.9954
-0.9591 -0.5540 -0.3979 0.9953
-0.9497 -0.5950 -0.4026 0.9952
-4.0410 -2.9558 -1.7987 0.9789
-3.8190 -3.2385 -1.7989 0.9789
-3.7005 -3.3737 -1.7991 0.9789
-3.4494 -3.6310 -1.7993 0.9789
-3.3171 -3.7528 -1.7994 0.9789
-3.0397 -3.9817 -1.7997 0.9789
-2.8951 -4.0885 -1.7999 0.9789
-2.4393 -4.3771 -1.8003 0.9789
-2.1194 -4.5416 -1.8006 0.9789
-1.7884 -4.6828 -1.8009 0.9789
-1.6193 -4.7444 -1.8011 0.9789
-1.1002 -4.8923 -1.8016 0.9789
-0.9239 -4.9291 -1.8017 0.9789
-0.3709 -4.7715 -1.8022 0.9798
0.3159 -4.7772 -1.8029 0.9797
0.6580 -4.7430 -1.8032 0.9797
0.9967 -4.6844 -1.8035 0.9797
1.1643 -4.6460 -1.8037 0.9797
1.9760 -4.3652 -1.8044 0.9797
2.1316 -4.2918 -1.8045 0.9797
2.5812 -4.0387 -1.8049 0.9797
2.7247 -3.9437 -1.8051 0.9797
2.8647 -3.8436 -1.8052 0.9797
3.6214 -3.1436 -1.8059 0.9797
3.8380 -2.8759 -1.8060 0.9797
3.9390 -2.7364 -1.8061 0.9797
4.0349 -2.5934 -1.8062 0.9797
4.2109 -2.2974 -1.8063 0.9797
4.3651 -1.9895 -1.8065 0.9797
4.4969 -1.6713 -1.8066 0.9797
4.5541 -1.5088 -1.8066 0.9797
4.6054 -1.3444 -1.8067 0.9797
4.6508 -1.1783 -1.8067 0.9797
4.6901 -1.0106 -1.8067 0.9797
4.7235 -0.8416 -1.8067 0.9797
4.7866 -0.3289 -1.8068 0.9797
4.7953 -0.1569 -1.8068 0.9797
4.7979 0.0154 -1.8068 0.9797
4.7942 0.1876 -1.8067 0.9797
4.7683 0.5311 -1.8067 0.9797
4.7460 0.7019 -1.8067 0.9797
4.7177 0.8718 -1.8066 0.9797
4.5439 1.5378 -1.8064 0.9797
4.4856 1.6999 -1.8064 0.9797
4.1954 2.3240 -1.8061 0.9797
4.1090 2.4729 -1.8060 0.9797
3.7120 3.0349 -1.8056 0.9797
3.2386 3.5340 -1.8051 0.9797
2.9761 3.7565 -1.8047 0.9797
2.8364 3.8570 -1.8029 0.9797
2.5475 4.0428 -1.7995 0.9798
2.3986 4.1280 -1.7979 0.9798
1.8736 4.2105 -1.7355 0.9805
1.3570 4.2225 -1.6702 0.9812
1.1933 4.2285 -1.6545 0.9814
1.0383 4.2585 -1.6506 0.9814
0.2616 4.3816 -1.6529 0.9814
0.1039 4.3797 -1.6497 0.9814
-0.0533 4.3802 -1.6496 0.9815
-0.2105 4.3751 -1.6494 0.9815
-0.3674 4.3643 -1.6493 0.9815
-0.8343 4.2984 -1.6489 0.9815
-0.9879 4.2653 -1.6487 0.9815
-1.1414 4.2307 -1.6501 0.9814
-1.4705 4.2197 -1.6827 0.9811
-1.8160 4.2114 -1.7271 0.9806
-1.9959 4.2065 -1.7533 0.9803
-2.1814 4.2011 -1.7826 0.9800
-2.9234 3.7789 -1.7991 0.9798
-3.0574 3.6717 -1.7992 0.9798
-3.6628 3.0659 -1.7987 0.9798
-0.8905 0.6426 -0.4135 0.9953
-0.9022 0.6030 -0.4086 0.9954
-0.9383 0.4481 -0.3916 0.9956
-0.9493 0.3723 -0.3840 0.9957
-0.9531 0.3349 -0.3804 0.9957
-0.9575 0.2983 -0.3777 0.9957
-0.9646 0.2629 -0.3765 0.9957
-0.9757 0.1920 -0.3745 0.9958
-0.9857 0.0500 -0.3717 0.9958
-0.9858 0.0145 -0.3713 0.9958
-0.9858 -0.0209 -0.3713 0.9958
-0.9856 -0.0563 -0.3717 0.9958
-0.9844 -0.0918 -0.3723 0.9958
-0.9790 -0.1628 -0.3737 0.9958
-0.9749 -0.1983 -0.3746 0.9958
-0.9697 -0.2338 -0.3756 0.9957
-0.9525 -0.3415 -0.3810 0.9957
-0.9433 -0.4169 -0.3884 0.9956
-0.9371 -0.4550 -0.3923 0.9956
-0.9296 -0.4934 -0.3963 0.9955
-0.9210 -0.5320 -0.4005 0.9955
-0.9112 -0.5709 -0.4049 0.9954
-0.9001 -0.6100 -0.4095 0.9954
-0.8883 -0.6498 -0.4145 0.9953
-3.6438 -3.0900 -1.7991 0.9798
-3.4132 -3.3438 -1.7993 0.9798
-2.6206 -3.9979 -1.8001 0.9798
-2.3274 -4.1762 -1.8004 0.9798
-2.0221 -4.3332 -1.8007 0.9798
-1.8654 -4.4034 -1.8008 0.9798
-0.8815 -4.7028 -1.8018 0.9798
-0.7122 -4.7318 -1.8019 0.9798
-0.3545 -4.5597 -1.8022 0.9805
-0.0264 -4.5741 -1.8025 0.9805
0.3019 -4.5650 -1.8029 0.9805
0.6287 -4.5323 -1.8032 0.9805
1.4285 -4.3490 -1.8039 0.9805
1.5838 -4.2952 -1.8040 0.9805
1.7371 -4.2359 -1.8042 0.9805
1.8882 -4.1712 -1.8043 0.9805
2.0368 -4.1010 -1.8044 0.9805
2.1829 -4.0255 -1.8046 0.9805
2.3262 -3.9449 -1.8047 0.9805
2.7373 -3.6727 -1.8051 0.9805
2.9941 -3.4673 -1.8053 0.9805
3.1168 -3.3578 -1.8054 0.9805
3.2356 -3.2439 -1.8055 0.9805
3.4603 -3.0037 -1.8057 0.9805
3.5661 -2.8777 -1.8058 0.9805
3.6673 -2.7480 -1.8059 0.9805
3.7637 -2.6147 -1.8060 0.9805
3.8553 -2.4780 -1.8060 0.9805
4.0235 -2.1952 -1.8062 0.9805
4.0998 -2.0494 -1.8062 0.9805
4.2967 -1.5969 -1.8064 0.9805
4.5132 -0.8041 -1.8065 0.9805
4.5392 -0.6416 -1.8066 0.9805
4.5593 -0.4782 -1.8066 0.9805
4.5819 -0.1499 -1.8066 0.9805
4.5808 0.1792 -1.8065 0.9805
4.5713 0.3435 -1.8065 0.9805
4.5560 0.5074 -1.8065 0.9805
4.5077 0.8329 -1.8064 0.9805
4.4748 0.9942 -1.8064 0.9805
4.4361 1.1542 -1.8063 0.9805
4.3917 1.3126 -1.8063 0.9805
4.1581 1.9274 -1.8060 0.9805
4.0087 2.2205 -1.8059 0.9805
3.9262 2.3629 -1.8058 0.9805
3.8387 2.5022 -1.8057 0.9805
3.7462 2.6382 -1.8056 0.9805
3.6489 2.7709 -1.8055 0.9805
3.5469 2.8999 -1.8054 0.9805
3.2140 3.2638 -1.8051 0.9805
3.0945 3.3768 -1.8050 0.9805
2.8439 3.5897 -1.8047 0.9805
2.5779 3.7827 -1.8039 0.9805
2.4382 3.8694 -1.8023 0.9805
2.0033 4.0993 -1.7980 0.9806
1.8536 4.1656 -1.7967 0.9806
1.6916 4.2014 -1.7848 0.9807
1.1887 4.2124 -1.7248 0.9814
1.0277 4.2151 -1.7097 0.9815
0.8692 4.2175 -1.6969 0.9817
0.4046 4.2221 -1.6714 0.9819
0.1002 4.2233 -1.6647 0.9820
-0.0514 4.2233 -1.6644 0.9820
-0.6628 4.2197 -1.6833 0.9818
-0.8186 4.2179 -1.6932 0.9817
-0.9764 4.2156 -1.7052 0.9816
-1.1366 4.2129 -1.7195 0.9814
-1.2996 4.2098 -1.7362 0.9812
-1.4658 4.2062 -1.7553 0.9810
-1.6358 4.2022 -1.7770 0.9808
-1.8018 4.1783 -1.7931 0.9806
-2.5270 3.8017 -1.7989 0.9806
-2.6629 3.7100 -1.7996 0.9806
-2.9218 3.5089 -1.7994 0.9806
-3.0457 3.4016 -1.7993 0.9806
-3.2815 3.1739 -1.7991 0.9806
-3.3932 3.0539 -1.7990 0.9806
-3.5004 2.9300 -1.7989 0.9806
-0.8547 0.6168 -0.4153 0.9955
-0.8956 0.4679 -0.3982 0.9957
-0.9090 0.3947 -0.3905 0.9957
-0.9141 0.3585 -0.3869 0.9958
-0.9246 0.2880 -0.3816 0.9958
-0.9315 0.2538 -0.3804 0.9959
-0.9374 0.2196 -0.3794 0.9959
-0.9423 0.1854 -0.3784 0.9959
-0.9462 0.1511 -0.3776 0.9959
-0.9491 0.1168 -0.3768 0.9959
-0.9511 0.0825 -0.3762 0.9959
-0.9523 0.0140 -0.3753 0.9959
-0.9455 -0.1572 -0.3777 0.9959
-0.9415 -0.1915 -0.3786 0.9959
-0.9364 -0.2258 -0.3796 0.9959
-0.9232 -0.2941 -0.3818 0.9958
-0.9175 -0.3290 -0.3841 0.9958
-0.9133 -0.3650 -0.3876 0.9958
-0.9080 -0.4013 -0.3912 0.9957
-0.8942 -0.4746 -0.3989 0.9957
-0.8855 -0.5115 -0.4030 0.9956
-0.8388 -0.6611 -0.4209 0.9954
-3.4823 -2.9530 -1.7992 0.9806
-3.3742 -3.0762 -1.7993 0.9806
-3.2619 -3.1956 -1.7995 0.9806
-3.1452 -3.3108 -1.7996 0.9806
-2.7717 -3.6305 -1.7999 0.9806
-2.6397 -3.7279 -1.8001 0.9806
-2.5044 -3.8206 -1.8002 0.9806
-2.2242 -3.9910 -1.8005 0.9805
-2.0796 -4.0686 -1.8006 0.9805
-1.7826 -4.2080 -1.8009 0.9805
-1.4764 -4.3257 -1.8012 0.9805
-1.1624 -4.4212 -1.8015 0.9805
-1.0030 -4.4605 -1.8016 0.9805
-0.8424 -4.4940 -1.8018 0.9805
-0.6806 -4.5217 -1.8019 0.9805
-0.5179 -4.5436 -1.8021 0.9805
-0.3392 -4.3635 -1.8022 0.9812
-0.1824 -4.3733 -1.8024 0.9812
0.1319 -4.3758 -1.8027 0.9812
0.7570 -4.3132 -1.8033 0.9812
0.9115 -4.2836 -1.8034 0.9812
1.2166 -4.2078 -1.8037 0.9812
1.3670 -4.1618 -1.8038 0.9812
1.5156 -4.1103 -1.8040 0.9812
1.9491 -3.9244 -1.8043 0.9812
2.0889 -3.8522 -1.8045 0.9812
2.3602 -3.6929 -1.8047 0.9812
2.7440 -3.4184 -1.8051 0.9812
2.8651 -3.3179 -1.8052 0.9812
2.9826 -3.2131 -1.8053 0.9812
3.0962 -3.1041 -1.8054 0.9812
3.2058 -2.9912 -1.8055 0.9812
3.4124 -2.7537 -1.8056 0.9812
3.5092 -2.6296 -1.8057 0.9812
3.6015 -2.5020 -1.8058 0.9812
3.6892 -2.3712 -1.8059 0.9812
3.7720 -2.2373 -1.8059 0.9812
3.9231 -1.9611 -1.8061 0.9812
4.0539 -1.6747 -1.8062 0.9812
4.1115 -1.5281 -1.8062 0.9812
4.3435 -0.6139 -1.8064 0.9812
4.3628 -0.4576 -1.8064 0.9812
4.3764 -0.3007 -1.8064 0.9812
4.3844 -0.1434 -1.8064 0.9812
4.3867 0.0141 -1.8064 0.9812
4.3833 0.1715 -1.8064 0.9812
4.3743 0.3287 -1.8063 0.9812
4.3596 0.4855 -1.8063 0.9812
4.3393 0.6417 -1.8063 0.9812
4.2819 0.9514 -1.8062 0.9812
4.2024 1.2561 -1.8061 0.9812
3.9789 1.8443 -1.8059 0.9812
3.8360 2.1249 -1.8057 0.9812
3.7570 2.2611 -1.8057 0.9812
3.5848 2.5246 -1.8055 0.9812
3.3941 2.7750 -1.8053 0.9812
2.9612 3.2314 -1.8049 0.9812
2.8432 3.3354 -1.8047 0.9812
2.0615 3.8604 -1.8021 0.9812
1.9202 3.9291 -1.8008 0.9813
1.7767 3.9928 -1.7996 0.9813
1.6312 4.0514 -1.7985 0.9813
1.4838 4.1050 -1.7974 0.9813
0.7105 4.2064 -1.7567 0.9817
0.4033 4.2092 -1.7412 0.9819
0.2513 4.2100 -1.7367 0.9819
-0.2026 4.2101 -1.7357 0.9819
-0.3544 4.2094 -1.7395 0.9819
-0.6608 4.2067 -1.7535 0.9817
-1.2849 4.1625 -1.7939 0.9813
-1.4341 4.1152 -1.7945 0.9813
-2.5485 3.5506 -1.7997 0.9813
-2.6742 3.4566 -1.7996 0.9813
-2.9149 3.2556 -1.7994 0.9813
-3.2475 2.9228 -1.7991 0.9813
-0.8005 0.6700 -0.4298 0.9955
-0.8089 0.6291 -0.4220 0.9956
-0.8443 0.5215 -0.4086 0.9957
-0.8623 0.4506 -0.4006 0.9958
-0.8759 0.3804 -0.3932 0.9959
-0.8811 0.3456 -0.3897 0.9959
-0.8857 0.3112 -0.3866 0.9959
-0.9002 0.2453 -0.3842 0.9960
-0.9174 0.1129 -0.3806 0.9960
-0.9194 0.0798 -0.3800 0.9960
-0.9204 0.0467 -0.3795 0.9960
-0.9170 -0.1188 -0.3807 0.9960
-0.9049 -0.2182 -0.3833 0.9960
-0.8990 -0.2512 -0.3844 0.9960
-0.8921 -0.2842 -0.3855 0.9960
-0.8846 -0.3172 -0.3870 0.9959
-0.8802 -0.3518 -0.3903 0.9959
-0.8749 -0.3866 -0.3939 0.9959
-0.7988 -0.6774 -0.4313 0.9955
-3.2293 -2.9442 -1.7995 0.9813
-3.1218 -3.0584 -1.7996 0.9813
-3.0102 -3.1686 -1.7997 0.9813
-2.5263 -3.5678 -1.8002 0.9813
-2.3968 -3.6564 -1.8003 0.9813
-2.1286 -3.8195 -1.8005 0.9813
-1.7060 -4.0271 -1.8010 0.9813
-1.5605 -4.0861 -1.8011 0.9813
-1.4129 -4.1398 -1.8012 0.9813
-1.2635 -4.1882 -1.8014 0.9813
-0.8061 -4.3007 -1.8018 0.9812
-0.6513 -4.3273 -1.8020 0.9812
-0.4956 -4.3482 -1.8021 0.9812
-0.3251 -4.1814 -1.8022 0.9819
-0.1748 -4.1907 -1.8024 0.9819
0.2768 -4.1862 -1.8028 0.9819
0.5766 -4.1562 -1.8031 0.9819
0.7254 -4.1331 -1.8032 0.9819
1.1658 -4.0321 -1.8036 0.9819
1.4523 -3.9386 -1.8039 0.9819
1.5929 -3.8842 -1.8040 0.9819
2.0016 -3.6912 -1.8044 0.9819
2.2616 -3.5386 -1.8046 0.9819
2.3873 -3.4553 -1.8047 0.9819
2.8579 -3.0788 -1.8051 0.9819
3.1728 -2.7541 -1.8054 0.9819
3.4509 -2.3974 -1.8056 0.9819
3.5349 -2.2721 -1.8057 0.9819
3.6891 -2.0127 -1.8058 0.9819
3.8242 -1.7430 -1.8060 0.9819
3.8844 -1.6046 -1.8060 0.9819
3.9396 -1.4642 -1.8060 0.9819
3.9897 -1.3218 -1.8061 0.9819
4.1380 -0.7373 -1.8062 0.9819
4.1618 -0.5883 -1.8062 0.9819
4.1913 0.3150 -1.8062 0.9819
4.1773 0.4653 -1.8061 0.9819
4.1578 0.6149 -1.8061 0.9819
4.1330 0.7637 -1.8061 0.9819
4.1028 0.9116 -1.8061 0.9819
4.0267 1.2035 -1.8060 0.9819
3.9297 1.4892 -1.8059 0.9819
3.8125 1.7672 -1.8057 0.9819
3.7465 1.9029 -1.8057 0.9819
3.6756 2.0360 -1.8056 0.9819
3.5197 2.2943 -1.8054 0.9819
3.3457 2.5406 -1.8053 0.9819
3.0527 2.8851 -1.8050 0.9819
2.6077 3.2915 -1.8045 0.9819
2.4877 3.3828 -1.8044 0.9819
2.3645 3.4697 -1.8043 0.9819
2.2383 3.5521 -1.8042 0.9819
2.1092 3.6299 -1.8040 0.9819
1.8427 3.7706 -1.8034 0.9819
1.7051 3.8318 -1.8023 0.9819
1.5655 3.8882 -1.8012 0.9819
1.4241 3.9397 -1.8002 0.9819
1.2811 3.9862 -1.7992 0.9819
0.9909 4.0643 -1.7976 0.9820
0.8441 4.0957 -1.7970 0.9820
0.6963 4.1220 -1.7964 0.9820
0.5477 4.1432 -1.7959 0.9820
0.3985 4.1592 -1.7955 0.9820
0.0991 4.1758 -1.7949 0.9820
-0.3504 4.1618 -1.7947 0.9820
-0.4996 4.1468 -1.7949 0.9820
-0.7960 4.1014 -1.7953 0.9820
-1.0888 4.0357 -1.7962 0.9820
-1.6577 3.8441 -1.7989 0.9819
-1.9306 3.7181 -1.8003 0.9819
-2.0627 3.6462 -1.8002 0.9819
-2.1921 3.5695 -1.8000 0.9819
-2.4423 3.4026 -1.7998 0.9819
-2.5627 3.3126 -1.7997 0.9819
-2.7934 3.1198 -1.7995 0.9819
-2.9035 3.0174 -1.7994 0.9819
-0.7771 0.6505 -0.4355 0.9956
-0.7934 0.5725 -0.4204 0.9957
-0.8226 0.4682 -0.4067 0.9959
-0.8311 0.4342 -0.4029 0.9959
-0.8447 0.3668 -0.3957 0.9960
-0.8563 0.3009 -0.3900 0.9961
-0.8639 0.2691 -0.3888 0.9961
-0.8845 0.1412 -0.3849 0.9961
-0.8874 0.1092 -0.3842 0.9961
-0.8906 0.0131 -0.3827 0.9961
-0.8906 -0.0188 -0.3828 0.9961
-0.8891 -0.0829 -0.3837 0.9961
-0.8870 -0.1149 -0.3843 0.9961
-0.8694 -0.2429 -0.3879 0.9961
-0.8626 -0.2748 -0.3890 0.9961
-0.8549 -0.3065 -0.3903 0.9961
-0.8437 -0.3728 -0.3964 0.9960
-0.8372 -0.4065 -0.3999 0.9960
-0.8296 -0.4403 -0.4036 0.9959
-0.8004 -0.5425 -0.4155 0.9958
-0.7755 -0.6576 -0.4369 0.9956
-3.0948 -2.8215 -1.7996 0.9819
-2.8847 -3.0366 -1.7998 0.9819
-2.6597 -3.2361 -1.8000 0.9819
-2.2969 -3.5040 -1.8004 0.9819
-2.0398 -3.6603 -1.8006 0.9819
-1.9073 -3.7314 -1.8007 0.9819
-1.4954 -3.9156 -1.8011 0.9819
-1.2108 -4.0134 -1.8014 0.9819
-1.0660 -4.0546 -1.8016 0.9819
-0.9199 -4.0906 -1.8017 0.9819
-0.6241 -4.1467 -1.8020 0.9819
-0.4749 -4.1667 -1.8021 0.9819
-0.0232 -4.0244 -1.8025 0.9825
0.1212 -4.0230 -1.8027 0.9825
0.2656 -4.0163 -1.8028 0.9825
0.5532 -3.9875 -1.8031 0.9825
0.6960 -3.9654 -1.8032 0.9825
1.3933 -3.7787 -1.8038 0.9825
1.6611 -3.6695 -1.8041 0.9825
1.7918 -3.6077 -1.8042 0.9825
2.1697 -3.3948 -1.8045 0.9825
2.2903 -3.3150 -1.8046 0.9825
2.4080 -3.2308 -1.8047 0.9825
2.7418 -2.9537 -1.8050 0.9825
2.8462 -2.8535 -1.8051 0.9825
2.9469 -2.7496 -1.8052 0.9825
3.3107 -2.2999 -1.8055 0.9825
3.3912 -2.1797 -1.8056 0.9825
3.6062 -1.8027 -1.8058 0.9825
3.7265 -1.5394 -1.8059 0.9825
3.7794 -1.4047 -1.8059 0.9825
3.8275 -1.2681 -1.8059 0.9825
3.9087 -0.9903 -1.8060 0.9825
3.9698 -0.7073 -1.8060 0.9825
4.0104 -0.4206 -1.8060 0.9825
4.0229 -0.2764 -1.8061 0.9825
4.0302 -0.1318 -1.8060 0.9825
4.0292 0.1577 -1.8060 0.9825
3.9888 0.5899 -1.8060 0.9825
3.9650 0.7327 -1.8059 0.9825
3.9361 0.8745 -1.8059 0.9825
3.8630 1.1546 -1.8058 0.9825
3.8190 1.2925 -1.8058 0.9825
3.4537 2.0785 -1.8054 0.9825
3.2097 2.4374 -1.8051 0.9825
3.1200 2.5509 -1.8050 0.9825
3.0263 2.6611 -1.8049 0.9825
2.8273 2.8711 -1.8047 0.9825
2.7222 2.9706 -1.8046 0.9825
2.5018 3.1578 -1.8044 0.9825
2.0236 3.4825 -1.8040 0.9825
1.8971 3.5526 -1.8038 0.9825
1.3682 3.7853 -1.8027 0.9825
1.0921 3.8700 -1.8010 0.9825
0.9521 3.9052 -1.8003 0.9825
0.8110 3.9354 -1.7997 0.9825
0.5263 3.9812 -1.7986 0.9826
0.3830 3.9966 -1.7982 0.9826
0.0952 4.0126 -1.7977 0.9826
-0.3367 3.9992 -1.7975 0.9826
-0.4801 3.9848 -1.7976 0.9826
-0.9061 3.9119 -1.7985 0.9826
-1.3225 3.7952 -1.8001 0.9825
-1.4584 3.7466 -1.8007 0.9825
-1.5919 3.6916 -1.8006 0.9825
-2.1033 3.4249 -1.8001 0.9825
-2.2248 3.3470 -1.8000 0.9825
-2.3433 3.2648 -1.7999 0.9825
-2.7859 2.8952 -1.7995 0.9825
-2.8879 2.7931 -1.7994 0.9825
-0.7548 0.6318 -0.4409 0.9957
-0.7714 0.5567 -0.4261 0.9958
-0.7783 0.5202 -0.4193 0.9959
-0.7932 0.4514 -0.4088 0.9960
-0.8016 0.4189 -0.4051 0.9960
-0.8153 0.3541 -0.3981 0.9961
-0.8359 0.2604 -0.3921 0.9962
-0.8423 0.2296 -0.3910 0.9962
-0.8478 0.1986 -0.3900 0.9962
-0.8524 0.1677 -0.3891 0.9962
-0.8609 0.0747 -0.3870 0.9962
-0.8621 0.0127 -0.3862 0.9962
-0.8621 -0.0182 -0.3862 0.9962
-0.8618 -0.0492 -0.3866 0.9962
-0.8606 -0.0803 -0.3871 0.9962
-0.8555 -0.1423 -0.3884 0.9962
-0.8469 -0.2042 -0.3902 0.9962
-0.8412 -0.2351 -0.3912 0.9962
-0.8198 -0.3276 -0.3954 0.9961
-0.8143 -0.3598 -0.3987 0.9961
-0.8002 -0.4247 -0.4057 0.9960
-0.7833 -0.4907 -0.4140 0.9960
-0.7701 -0.5633 -0.4273 0.9958
-0.7621 -0.6006 -0.4346 0.9958
-0.7432 -0.6776 -0.4505 0.9956
-2.4390 -3.1948 -1.8002 0.9825
-2.0818 -3.4391 -1.8006 0.9825
-1.9572 -3.5119 -1.8007 0.9825
-1.8300 -3.5801 -1.8008 0.9825
-1.5686 -3.7027 -1.8011 0.9825
-1.4348 -3.7569 -1.8012 0.9825
-0.5988 -3.9785 -1.8020 0.9825
-0.2996 -3.8533 -1.8023 0.9831
-0.1611 -3.8619 -1.8024 0.9831
0.2551 -3.8576 -1.8028 0.9831
0.5313 -3.8299 -1.8030 0.9831
0.6685 -3.8086 -1.8031 0.9831
0.8048 -3.7825 -1.8033 0.9831
0.9401 -3.7514 -1.8034 0.9831
1.2070 -3.6748 -1.8036 0.9831
1.3382 -3.6293 -1.8038 0.9831
1.4678 -3.5791 -1.8039 0.9831
1.5954 -3.5244 -1.8040 0.9831
1.7210 -3.4651 -1.8041 0.9831
1.8444 -3.4013 -1.8042 0.9831
1.9654 -3.3331 -1.8043 0.9831
2.0839 -3.2605 -1.8044 0.9831
2.1997 -3.1838 -1.8045 0.9831
2.4227 -3.0181 -1.8047 0.9831
2.6333 -2.8368 -1.8049 0.9831
2.8303 -2.6408 -1.8051 0.9831
2.9234 -2.5377 -1.8052 0.9831
3.0982 -2.3216 -1.8053 0.9831
3.1797 -2.2089 -1.8054 0.9831
3.2570 -2.0934 -1.8054 0.9831
3.3302 -1.9753 -1.8055 0.9831
3.3991 -1.8545 -1.8056 0.9831
3.4635 -1.7313 -1.8056 0.9831
3.5235 -1.6059 -1.8057 0.9831
3.6760 -1.2179 -1.8058 0.9831
3.7540 -0.9511 -1.8058 0.9831
3.7858 -0.8157 -1.8059 0.9831
3.8127 -0.6793 -1.8059 0.9831
3.8346 -0.5420 -1.8059 0.9831
3.8516 -0.4040 -1.8059 0.9831
3.8637 -0.2655 -1.8059 0.9831
3.8707 -0.1266 -1.8059 0.9831
3.8727 0.0124 -1.8059 0.9831
3.8698 0.1514 -1.8059 0.9831
3.8618 0.2902 -1.8059 0.9831
3.8309 0.5665 -1.8058 0.9831
3.8081 0.7037 -1.8058 0.9831
3.7803 0.8399 -1.8058 0.9831
3.7101 1.1089 -1.8057 0.9831
3.4519 1.7533 -1.8054 0.9831
3.3170 1.9963 -1.8053 0.9831
3.0828 2.3410 -1.8050 0.9831
2.9966 2.4500 -1.8049 0.9831
2.8128 2.6584 -1.8047 0.9831
2.7154 2.7575 -1.8047 0.9831
2.6146 2.8531 -1.8046 0.9831
2.2923 3.1171 -1.8042 0.9831
2.0625 3.2731 -1.8040 0.9831
1.8221 3.4122 -1.8038 0.9831
1.6983 3.4752 -1.8037 0.9831
1.3146 3.6369 -1.8033 0.9831
0.6435 3.8097 -1.8016 0.9831
0.5062 3.8293 -1.8012 0.9831
0.0916 3.8596 -1.8003 0.9831
-0.1855 3.8558 -1.8001 0.9831
-0.3238 3.8468 -1.8001 0.9831
-0.4618 3.8329 -1.8002 0.9831
-0.5991 3.8142 -1.8004 0.9831
-0.8715 3.7627 -1.8010 0.9831
-1.2709 3.6469 -1.8009 0.9831
-1.6552 3.4885 -1.8005 0.9831
-1.7793 3.4266 -1.8004 0.9831
-1.9010 3.3604 -1.8003 0.9831
-2.1370 3.2149 -1.8001 0.9831
-2.2509 3.1360 -1.8000 0.9831
-2.4698 2.9661 -1.7998 0.9831
-0.7503 0.5415 -0.4315 0.9959
-0.7573 0.5062 -0.4248 0.9960
-0.7635 0.4716 -0.4184 0.9960
-0.7812 0.3731 -0.4037 0.9962
-0.7875 0.3420 -0.4004 0.9962
-0.7941 0.3114 -0.3977 0.9962
