ply
format ascii 1.0
element vertex 1547
property float32 x
property float32 y
property float32 z
property float32 I
end_header
4.2064 11.6368 1.3942 0.9514
3.7407 11.6396 1.3775 0.9520
3.2855 11.6423 1.3630 0.9525
1.9679 11.6503 1.3313 0.9536
1.5405 11.6529 1.3244 0.9538
1.1169 11.6554 1.3193 0.9540
0.6960 11.6580 1.3159 0.9541
0.2767 11.6605 1.3142 0.9541
-0.5614 11.6655 1.3159 0.9541
-0.9823 11.6681 1.3193 0.9540
-1.4060 11.6706 1.3245 0.9538
-1.8335 11.6732 1.3314 0.9535
-2.2661 11.6758 1.3401 0.9533
-2.7050 11.6785 1.3507 0.9529
-3.6067 11.6839 1.3778 0.9520
-51.8731 84.4667 11.1685 0.6710
-46.3059 51.7162 7.8215 0.7562
-46.0477 47.8541 7.4827 0.7654
-46.0865 41.4787 6.9861 0.7791
-46.1041 38.5909 6.7743 0.7850
-45.8655 35.6713 6.5468 0.7915
-49.5860 35.7841 6.8899 0.7818
-53.5720 35.8081 7.2604 0.7715
-67.9851 35.5232 8.6427 0.7344
-71.6377 31.1095 8.7999 0.7302
-72.8946 28.5911 8.8224 0.7297
-79.6083 27.9708 9.5073 0.7120
-70.7189 11.2938 8.0691 0.7496
-77.7833 -41.2799 9.9218 0.7016
-74.4353 -42.9964 9.6855 0.7075
-67.7555 -42.4525 9.0089 0.7248
-62.2095 -42.1610 8.4674 0.7390
-56.8874 -41.6103 7.9413 0.7530
-50.7030 -42.9961 7.4904 0.7652
-33.9040 -33.2154 5.3478 0.8261
-26.1883 -31.8636 4.6471 0.8470
-25.6456 -36.2178 5.0002 0.8364
-25.9485 -39.5856 5.3331 0.8265
-25.5531 -42.2134 5.5598 0.8199
-16.3173 -31.9232 4.0395 0.8656
-14.3753 -42.1188 5.0145 0.8360
-12.7057 -42.1156 4.9565 0.8377
-8.5104 -32.3692 3.7711 0.8740
-6.5307 -34.8414 3.9941 0.8670
-6.5243 -43.3484 4.9392 0.8382
-5.0616 -44.4107 5.0363 0.8353
-0.2522 -43.6906 4.2498 0.8390
1.3049 -43.2940 4.2130 0.8402
2.7730 -41.9319 4.0875 0.8446
4.2976 -42.0120 4.1077 0.8439
7.5737 -43.1507 4.2613 0.8386
8.8740 -41.7052 4.1474 0.8425
11.1544 -44.5085 4.4631 0.8316
13.7044 -41.7225 4.2716 0.8382
15.4031 -41.7729 4.3306 0.8362
18.2699 -44.5515 4.6836 0.8241
20.9198 -42.1202 4.5744 0.8278
30.8426 -44.6409 5.2777 0.8041
58.7882 -68.0775 8.7490 0.6966
59.3062 -59.4586 8.1685 0.7135
59.2811 -51.4582 7.6355 0.7294
58.9313 -44.1585 7.1628 0.7438
66.3108 -36.1784 7.3474 0.7382
41.4180 10.7759 4.1627 0.8420
39.1158 11.6912 3.9710 0.8487
39.1349 14.8308 4.0707 0.8452
39.3183 16.5377 4.1489 0.8425
39.1045 18.1262 4.1924 0.8410
39.0973 19.8579 4.2653 0.8384
38.5691 21.3648 4.2886 0.8376
37.9028 22.8110 4.3029 0.8371
39.2122 27.6152 4.6650 0.8247
39.3834 32.1997 4.9481 0.8151
39.3982 34.6445 5.1030 0.8099
39.4912 40.1036 5.4746 0.7976
10.6284 11.5980 1.5302 0.9387
9.8902 11.6025 1.4829 0.9406
9.1953 11.6067 1.4403 0.9422
8.5384 11.6107 1.4018 0.9437
3.1095 4.5629 0.5371 0.9781
7.3209 11.6180 1.3357 0.9463
6.7528 11.6214 1.3074 0.9474
6.2656 11.7334 1.2938 0.9479
5.7484 11.7625 1.2734 0.9487
3.7925 11.8008 1.2057 0.9514
3.3325 11.8090 1.1935 0.9519
2.8798 11.8117 1.1826 0.9523
1.5625 11.8197 1.1597 0.9532
0.7059 11.8248 1.1522 0.9535
0.2806 11.8274 1.1507 0.9536
-3.9825 12.9010 1.3133 0.9472
-44.9488 62.6235 7.4979 0.7336
-44.1449 57.0622 7.0174 0.7483
-49.8267 55.6484 7.2655 0.7407
-45.7174 41.1465 5.9827 0.7810
-45.7348 38.2818 5.8012 0.7869
-45.7513 35.5824 5.6376 0.7922
-49.0665 35.4092 5.8856 0.7841
-53.0107 35.4330 6.2020 0.7739
-84.6970 44.2555 9.2951 0.6811
-64.0487 27.8139 6.7919 0.7553
-63.6271 22.3558 6.5598 0.7626
-64.2017 19.9991 6.5407 0.7632
-65.2339 17.7786 6.5766 0.7621
-66.8254 15.6587 6.6760 0.7589
-70.7520 11.2991 6.9691 0.7498
-81.7639 10.0631 8.0130 0.7181
-77.8380 -41.3089 8.5713 0.7018
-74.4352 -42.9963 8.3612 0.7079
-67.7429 -42.4446 7.7757 0.7252
-62.1999 -42.1545 7.3086 0.7394
-51.0744 -43.3111 6.5136 0.7640
-34.7722 -31.7015 4.5768 0.8277
-33.9040 -33.2153 4.6166 0.8263
-34.9574 -39.5490 5.1342 0.8089
-26.1883 -31.8636 4.0118 0.8473
-24.7904 -32.4724 3.9737 0.8486
-25.7037 -36.2998 4.3263 0.8363
-25.5530 -42.2134 4.7997 0.8201
-17.7856 -31.9143 3.5537 0.8634
-16.3173 -31.9231 3.4872 0.8658
-14.9576 -32.0528 3.4404 0.8675
-14.3728 -42.1115 4.3281 0.8363
-12.7037 -42.1092 4.2782 0.8380
-6.5311 -34.8436 3.4482 0.8672
-6.5591 -43.5796 4.2866 0.8377
-5.0616 -44.4107 4.3477 0.8356
2.7717 -41.9112 3.4404 0.8449
6.0510 -43.6191 3.6070 0.8380
11.1544 -44.5085 3.7584 0.8318
13.6872 -41.6702 3.5925 0.8386
15.4046 -41.7770 3.6471 0.8364
18.2699 -44.5515 3.9440 0.8243
19.0342 -42.0484 3.7806 0.8309
20.9182 -42.1171 3.8518 0.8280
30.8426 -44.6409 4.4443 0.8043
33.7309 -42.0204 4.4135 0.8055
60.9442 -65.6542 7.3374 0.6980
59.3061 -59.4585 6.8786 0.7139
59.2810 -51.4582 6.4298 0.7298
61.0424 -49.2587 6.4248 0.7299
58.9055 -44.1391 6.0291 0.7442
58.9499 -40.9527 5.8793 0.7497
58.9432 -37.8855 5.7392 0.7549
60.8231 -36.0762 5.7923 0.7529
46.9987 10.4422 3.9434 0.8243
39.9506 10.3942 3.3812 0.8473
39.1040 18.1260 3.5303 0.8412
38.3928 21.2671 3.5949 0.8385
37.9045 22.8120 3.6236 0.8373
39.2201 25.5652 3.8347 0.8287
39.2117 27.6147 3.9283 0.8249
39.2250 29.7865 4.0342 0.8206
38.5455 36.4298 4.3441 0.8083
39.4906 40.1030 4.6100 0.7978
8.6183 11.7192 1.1915 0.9433
6.8344 11.7619 1.1142 0.9469
6.2826 11.7652 1.0925 0.9479
5.7639 11.7943 1.0752 0.9487
4.7511 11.8005 1.0420 0.9502
3.7943 11.8062 1.0157 0.9514
3.3325 11.8090 1.0050 0.9519
2.8798 11.8117 0.9958 0.9524
1.5625 11.8197 0.9766 0.9533
0.7059 11.8249 0.9703 0.9536
0.2806 11.8274 0.9690 0.9536
-0.5694 11.8325 0.9703 0.9536
-1.4261 11.8377 0.9766 0.9533
-2.7010 13.9166 1.1612 0.9447
-3.2241 13.9197 1.1703 0.9443
-44.4992 72.4597 6.9649 0.7109
-44.4839 66.9225 6.5820 0.7243
-45.6351 54.8047 5.8414 0.7511
-45.6797 47.4717 5.3961 0.7677
-45.7181 41.1471 5.0380 0.7813
-45.7519 35.5829 4.7474 0.7925
-49.0665 35.4092 4.9562 0.7844
-53.0108 35.4330 5.2227 0.7742
-62.3589 35.4894 5.8770 0.7498
-67.9853 35.5234 6.2829 0.7350
-66.1581 25.9489 5.8208 0.7519
-66.9933 23.5385 5.8162 0.7520
-90.5075 -36.1704 7.9834 0.6763
-77.7435 -41.2588 7.2090 0.7024
-73.6174 -42.5239 6.9636 0.7109
-67.7303 -42.4367 6.5466 0.7256
-62.1902 -42.1479 6.1535 0.7397
-56.8747 -41.6011 5.7717 0.7537
-52.8232 -41.6286 5.5087 0.7634
-33.3032 -35.0567 3.9606 0.8236
-34.9635 -39.5559 4.3242 0.8091
-24.7909 -32.4730 3.3463 0.8488
-25.7042 -36.3005 3.6432 0.8365
-25.9646 -39.6102 3.8793 0.8269
-16.3172 -31.9231 2.9365 0.8660
-14.7172 -34.7403 3.0903 0.8595
-14.3703 -42.1042 3.6440 0.8365
-12.7018 -42.1028 3.6021 0.8382
-8.5060 -32.3522 2.7399 0.8744
-7.1048 -31.5947 2.6525 0.8781
-6.5591 -43.5796 3.6097 0.8379
-5.0616 -44.4107 3.6611 0.8358
-1.7970 -43.0941 2.8720 0.8412
1.3398 -44.4493 2.9611 0.8367
2.7763 -41.9808 2.8015 0.8448
4.2946 -41.9822 2.8101 0.8444
7.5737 -43.1507 2.9172 0.8389
8.8811 -41.7387 2.8415 0.8428
11.1544 -44.5085 3.0553 0.8320
12.7385 -44.0572 3.0538 0.8321
13.7095 -41.7381 2.9253 0.8385
15.3944 -41.7492 2.9629 0.8366
18.2699 -44.5514 3.2063 0.8245
23.8306 -43.9466 3.3288 0.8184
25.2992 -42.9043 3.3166 0.8190
26.8173 -41.9595 3.3158 0.8190
33.6416 -41.9090 3.5785 0.8062
58.7613 -68.0464 5.9866 0.6974
59.3061 -59.4584 5.5919 0.7142
58.7166 -54.7856 5.3473 0.7247
58.8393 -51.0748 5.1881 0.7317
58.9094 -47.5375 5.0405 0.7383
58.9663 -37.9004 4.6675 0.7550
66.3428 -36.1959 5.0323 0.7386
87.3571 -36.0862 6.2936 0.6846
47.0008 10.4426 3.2059 0.8245
40.2912 10.4828 2.7722 0.8463
39.1243 13.2412 2.7503 0.8474
39.1339 14.8304 2.7867 0.8455
39.0937 16.4432 2.8240 0.8436
39.1039 18.1260 2.8699 0.8413
39.1144 19.8666 2.9212 0.8387
39.2079 23.5965 3.0471 0.8324
39.2198 25.5650 3.1174 0.8289
39.1786 29.7512 3.2757 0.8210
39.1095 31.9758 3.3638 0.8167
39.2026 34.4724 3.4761 0.8112
39.3177 39.9273 3.7313 0.7988
10.6891 11.6643 1.0535 0.9385
37.9969 47.9611 4.0743 0.7825
8.6183 11.7192 0.9686 0.9434
7.4094 11.7585 0.9254 0.9458
6.2826 11.7652 0.8881 0.9479
4.2666 11.8034 0.8357 0.9509
1.9961 11.8171 0.7980 0.9531
1.1298 11.7904 0.7887 0.9536
0.7059 11.8249 0.7888 0.9536
-0.1441 11.8300 0.7878 0.9537
-0.5694 11.8325 0.7888 0.9536
-1.4261 11.8377 0.7939 0.9533
-2.7010 13.9166 0.9440 0.9448
-3.2241 13.9197 0.9514 0.9443
-3.7361 13.8484 0.9551 0.9441
-44.4144 78.5087 6.0062 0.6966
-44.3815 66.7686 5.3385 0.7251
-45.6804 47.4724 4.3868 0.7679
-46.3248 44.8055 4.2914 0.7723
-46.0886 41.4806 4.1288 0.7799
-46.1061 38.5926 4.0036 0.7858
-53.5722 35.8082 4.2907 0.7723
-67.9854 35.5234 5.1077 0.7353
-71.0786 33.9494 5.2450 0.7292
-79.6105 27.9716 5.6187 0.7130
-81.1302 25.2724 5.6582 0.7113
-90.4381 -36.1426 6.4851 0.6768
-77.7694 -41.2725 5.8625 0.7026
-67.7178 -42.4289 5.3211 0.7259
-52.7678 -41.5850 4.4736 0.7639
-34.7733 -31.7024 3.1333 0.8281
-33.9039 -33.2153 3.1604 0.8267
-34.9635 -39.5558 3.5153 0.8093
-26.1882 -31.8635 2.7463 0.8476
-24.7913 -32.4736 2.7204 0.8489
-17.7856 -31.9142 2.4328 0.8638
-16.3172 -31.9231 2.3873 0.8661
-14.9537 -32.0445 2.3545 0.8678
-14.7176 -34.7413 2.5123 0.8596
-8.1052 -23.7477 1.6708 0.9043
-7.1534 -23.7114 1.6492 0.9055
-8.4221 -32.0333 2.2055 0.8757
-7.1048 -31.5947 2.1563 0.8783
-6.5319 -34.8479 2.3608 0.8675
-6.5591 -43.5795 2.9345 0.8381
-5.0616 -44.4106 2.9763 0.8359
-3.2769 -42.1541 2.1689 0.8442
-0.2565 -44.4396 2.2796 0.8369
1.3398 -44.4492 2.2811 0.8368
7.5737 -43.1506 2.2473 0.8391
11.1544 -44.5084 2.3537 0.8321
16.4236 -44.5403 2.4351 0.8268
18.2699 -44.5514 2.4700 0.8246
8.9048 -15.1014 0.8993 0.9322
9.6163 -15.0460 0.9160 0.9310
12.0831 -16.2120 1.0372 0.9222
31.9748 -39.8327 2.6202 0.8150
58.7853 -68.0741 4.6138 0.6975
58.9035 -63.4558 4.4413 0.7070
60.8656 -36.1014 3.6301 0.7532
66.3420 -36.1954 3.8767 0.7388
72.3598 -36.1707 4.1497 0.7232
79.4534 -36.2125 4.4791 0.7049
87.3569 -36.0861 4.8484 0.6848
47.0010 10.4427 2.4698 0.8246
40.1642 10.4497 2.1289 0.8469
39.1034 18.1257 2.2109 0.8415
39.1139 19.8664 2.2504 0.8389
39.2193 25.5647 2.4015 0.8290
39.2240 29.7857 2.5264 0.8210
39.1876 32.0397 2.5966 0.8165
39.2024 34.4723 2.6778 0.8113
39.2970 37.1400 2.7736 0.8053
39.3173 39.9270 2.8745 0.7990
39.2210 46.0114 3.1014 0.7849
39.3332 49.6478 3.2491 0.7759
3.1084 4.5612 0.2831 0.9781
6.8344 11.7619 0.6978 0.9470
6.2826 11.7653 0.6842 0.9480
5.7639 11.7944 0.6734 0.9488
5.2354 11.7656 0.6606 0.9497
4.7383 11.7686 0.6508 0.9505
4.2551 11.7715 0.6421 0.9511
1.5583 11.7878 0.6099 0.9535
-3.2241 13.9197 0.7329 0.9444
-3.7361 13.8484 0.7358 0.9442
-44.7906 86.2595 4.9858 0.6775
-44.4953 78.6518 4.6354 0.6963
-44.5657 67.0457 4.1296 0.7244
-44.5955 62.1313 3.9232 0.7362
-45.7513 54.9443 3.6676 0.7510
-46.0291 51.4071 3.5396 0.7585
-46.1068 38.5931 3.0843 0.7860
-45.8681 35.6733 2.9807 0.7924
-84.6515 52.2861 5.1039 0.6713
-84.6763 48.1907 4.9978 0.6769
-76.3723 36.4778 4.3416 0.7125
-64.0512 27.8150 3.5820 0.7560
-63.5279 24.9172 3.5005 0.7609
-65.2359 17.7792 3.4684 0.7628
-66.8274 15.6592 3.5209 0.7596
-39.9616 6.3819 2.0762 0.8504
-67.7053 -42.4210 4.0984 0.7261
-62.1710 -42.1349 3.8526 0.7402
-56.9458 -41.6530 3.6192 0.7538
-33.3043 -35.0578 2.4805 0.8239
-15.7251 -23.9894 1.4714 0.8915
-25.5530 -42.2133 2.5312 0.8207
-14.8651 -31.8547 1.8032 0.8687
-14.7180 -34.7423 1.9355 0.8597
-15.4195 -40.3753 2.2170 0.8410
-14.3654 -42.0897 2.2813 0.8368
-8.4212 -32.0301 1.6989 0.8758
-7.1048 -31.5946 1.6612 0.8784
-6.5591 -43.5795 2.2607 0.8382
-1.6567 -39.7284 1.4327 0.8529
-0.2294 -39.7426 1.4320 0.8529
1.1982 -39.7542 1.4330 0.8528
1.3318 -20.1391 0.7272 0.9224
6.9872 -39.8091 1.4563 0.8506
9.9835 -39.8362 1.4797 0.8484
13.0941 -39.8645 1.5118 0.8454
16.3371 -39.8382 1.5514 0.8417
23.8295 -43.9446 1.8011 0.8187
30.8425 -44.6408 1.9550 0.8048
12.2496 -16.4354 0.7386 0.9212
12.2567 -15.2688 0.7055 0.9246
58.7843 -68.0729 3.2406 0.6977
58.8389 -58.9900 3.0020 0.7164
58.9071 -54.9633 2.9028 0.7244
58.8560 -51.0893 2.8081 0.7320
53.6482 -43.2918 2.4838 0.7589
58.9281 -44.1560 2.6531 0.7447
72.3596 -36.1706 2.9147 0.7234
79.4533 -36.2124 3.1460 0.7050
45.6572 10.1441 1.6851 0.8293
39.1234 13.2409 1.4882 0.8476
39.0928 16.4428 1.5280 0.8439
39.1029 18.1255 1.5529 0.8415
39.3892 21.8191 1.6224 0.8351
39.2188 25.5644 1.6868 0.8291
10.6889 11.6641 0.5700 0.9386
39.7914 50.2263 2.3088 0.7738
8.6183 11.7192 0.5241 0.9434
3.1080 4.5607 0.1989 0.9782
7.3893 11.7266 0.4994 0.9460
6.8159 11.7301 0.4888 0.9471
5.7484 11.7625 0.4717 0.9489
5.2495 11.7975 0.4652 0.9496
4.7511 11.8005 0.4583 0.9504
3.3325 11.8090 0.4421 0.9521
2.4348 11.8144 0.4346 0.9529
1.9961 11.8171 0.4318 0.9532
1.1298 11.7904 0.4268 0.9537
0.7059 11.8249 0.4268 0.9537
0.2806 11.8274 0.4263 0.9537
-0.1441 11.8300 0.4263 0.9537
-2.1737 13.8391 0.5047 0.9455
-2.6866 13.8421 0.5080 0.9451
-3.7361 13.8485 0.5168 0.9442
-44.6193 72.6552 3.0720 0.7109
-44.5666 67.0471 2.9007 0.7245
-51.2619 66.2618 3.0185 0.7151
-45.6374 54.8076 2.5697 0.7517
-45.6818 47.4739 2.3738 0.7682
-45.7375 38.2840 2.1490 0.7876
-45.7538 35.5843 2.0884 0.7929
-49.0667 35.4093 2.1802 0.7849
-57.4094 35.4597 2.4312 0.7633
-65.8991 31.4755 2.6313 0.7465
-63.5286 24.9175 2.4587 0.7610
-70.6753 22.0157 2.6671 0.7436
-80.1910 21.8550 2.9947 0.7170
-39.9575 6.3812 1.4579 0.8505
-67.6927 -42.4132 2.8782 0.7263
-57.1761 -41.8215 2.5523 0.7531
-53.0991 -41.8461 2.4359 0.7629
-51.0742 -43.3109 2.4128 0.7649
-25.7878 -23.5104 1.2573 0.8696
-33.3171 -32.6403 1.6805 0.8297
-28.0681 -31.7547 1.5270 0.8440
-24.7922 -32.4748 1.4721 0.8491
-15.7254 -23.9899 1.0335 0.8915
-25.5529 -42.2132 1.7779 0.8208
-17.5282 -31.4523 1.2973 0.8658
-14.6784 -31.4545 1.2506 0.8703
-14.7185 -34.7433 1.3595 0.8598
-15.4200 -40.3765 1.5573 0.8411
-14.2814 -41.8438 1.5930 0.8378
-8.2801 -31.4931 1.1733 0.8778
-7.0836 -31.5003 1.1633 0.8788
-5.0616 -44.4105 1.6105 0.8362
-3.0964 -39.8315 0.8302 0.8523
-1.6623 -39.8627 0.8291 0.8525
-0.2301 -39.8599 0.8283 0.8526
0.9506 -31.5386 0.6557 0.8814
2.6388 -39.9030 0.8310 0.8521
4.0635 -39.7242 0.8298 0.8523
6.0112 -43.3323 0.9091 0.8394
7.0120 -39.9503 0.8429 0.8502
8.4612 -39.7652 0.8448 0.8499
13.1328 -39.9822 0.8745 0.8450
15.4955 -42.0234 0.9308 0.8359
16.3371 -39.8382 0.8948 0.8418
19.8324 -39.9309 0.9265 0.8366
21.7645 -40.1367 0.9488 0.8330
8.9573 -15.1904 0.3665 0.9319
10.4636 -16.3717 0.4038 0.9252
12.2100 -16.3823 0.4246 0.9215
59.0022 -55.0520 1.6769 0.7241
58.8559 -51.0892 1.6196 0.7321
58.9069 -47.5355 1.5730 0.7387
58.9640 -37.8989 1.4566 0.7555
60.8654 -36.1013 1.4706 0.7534
72.3596 -36.1706 1.6811 0.7235
79.4531 -36.2124 1.8145 0.7052
95.5624 -27.8965 2.0687 0.6715
45.6573 10.1441 0.9719 0.8293
39.9921 10.4050 0.8587 0.8476
39.1136 11.6906 0.8483 0.8493
39.0923 16.4426 0.8813 0.8439
39.1025 18.1253 0.8956 0.8416
39.1130 19.8658 0.9116 0.8390
39.2062 23.5955 0.9509 0.8327
39.1575 27.5766 0.9953 0.8256
39.2229 29.7849 1.0234 0.8212
10.6888 11.6639 0.3288 0.9387
39.3100 46.1158 1.2592 0.7847
6.8344 11.7620 0.2827 0.9470
5.7640 11.7944 0.2728 0.9488
4.7511 11.8005 0.2644 0.9504
3.7943 11.8063 0.2577 0.9516
2.4348 11.8145 0.2507 0.9529
1.9961 11.8171 0.2490 0.9532
1.1298 11.7904 0.2461 0.9537
-0.5694 11.8326 0.2462 0.9537
-1.4261 11.8377 0.2478 0.9534
-2.1787 13.8710 0.2918 0.9454
-3.2068 13.8453 0.2953 0.9447
-3.7361 13.8485 0.2981 0.9442
-44.7267 86.1365 2.0169 0.6782
-44.6193 72.6553 1.7718 0.7110
-51.4013 66.4420 1.7457 0.7146
-45.6382 54.8085 1.4821 0.7518
-45.6826 47.4747 1.3691 0.7683
-49.0667 35.4093 1.2574 0.7850
-57.4094 35.4597 1.4022 0.7634
-67.9856 35.5235 1.5940 0.7357
-72.2477 34.5078 1.6638 0.7259
-73.2402 31.8054 1.6593 0.7265
-73.1558 28.6935 1.6331 0.7302
-79.6127 27.9724 1.7536 0.7135
-80.1920 21.8553 1.7272 0.7171
-53.8310 -39.3748 1.3859 0.7658
-50.2128 -39.5715 1.3285 0.7743
-25.9108 -23.6226 0.7286 0.8691
-33.1833 -32.5094 0.9653 0.8304
-24.6726 -32.3181 0.8449 0.8499
-25.9645 -39.6100 0.9842 0.8274
-17.5198 -31.4373 0.7479 0.8659
-16.0734 -31.4461 0.7339 0.8682
-14.6110 -34.4896 0.7784 0.8608
-15.4205 -40.3778 0.8982 0.8412
-9.4988 -31.4857 0.6834 0.8767
-8.2801 -31.4931 0.6767 0.8778
-6.4884 -43.1102 0.9059 0.8399
-5.0616 -44.4105 0.9289 0.8362
-3.2579 -41.9102 0.2329 0.8452
4.4648 -43.6460 0.2431 0.8390
6.0112 -43.3322 0.2424 0.8395
7.5737 -43.1505 0.2427 0.8393
8.9333 -41.9838 0.2378 0.8422
11.1544 -44.5084 0.2542 0.8323
12.7365 -44.0504 0.2541 0.8324
15.4955 -42.0234 0.2482 0.8360
19.0325 -42.0447 0.2557 0.8314
20.8946 -42.0695 0.2603 0.8287
23.8284 -43.9426 0.2770 0.8188
10.4636 -16.3717 0.1077 0.9252
12.2100 -16.3823 0.1132 0.9215
58.7823 -68.0707 0.4983 0.6978
58.9034 -63.4556 0.4797 0.7073
58.8808 -59.0321 0.4620 0.7164
59.0013 -55.0512 0.4471 0.7241
59.0280 -41.0069 0.3982 0.7501
60.8653 -36.1012 0.3921 0.7535
66.3395 -36.1941 0.4187 0.7391
67.6368 -33.8098 0.4190 0.7390
95.2844 -27.8154 0.5500 0.6723
53.0556 9.8039 0.2990 0.8059
39.9916 10.4048 0.2290 0.8476
39.1131 11.6905 0.2262 0.8493
39.1225 13.2406 0.2288 0.8477
39.1321 14.8297 0.2319 0.8459
39.0918 16.4425 0.2350 0.8440
39.1941 21.7110 0.2483 0.8359
39.2057 23.5951 0.2535 0.8327
38.7794 25.2779 0.2565 0.8310
39.2223 29.7845 0.2729 0.8212
39.1860 32.0383 0.2804 0.8167
39.2983 37.1412 0.2996 0.8055
38.3744 38.9694 0.3030 0.8035
10.6887 11.6638 0.0877 0.9387
39.3094 46.1150 0.3357 0.7848
21.9740 27.7365 0.1961 0.8680
8.6183 11.7193 0.0806 0.9435
6.2826 11.7653 0.0739 0.9480
5.7639 11.7944 0.0727 0.9488
4.2551 11.7716 0.0694 0.9512
3.7943 11.8063 0.0687 0.9516
3.3325 11.8090 0.0680 0.9521
2.8799 11.8118 0.0674 0.9525
2.4348 11.8145 0.0668 0.9529
1.1298 11.7904 0.0656 0.9537
0.2806 11.8275 0.0656 0.9538
-0.5694 11.8326 0.0656 0.9537
-2.1787 13.8710 0.0778 0.9454
-3.2068 13.8453 0.0787 0.9447
-3.7361 13.8485 0.0795 0.9442
-36.9904 71.2377 0.4447 0.7254
-44.6194 72.6553 0.4724 0.7110
-49.8574 55.6826 0.4141 0.7416
-60.6147 62.9926 0.4845 0.7049
-45.8363 41.2535 0.3417 0.7814
-45.8700 35.6747 0.3220 0.7926
-49.5864 35.7843 0.3388 0.7830
-85.4374 40.8076 0.5246 0.6847
-80.1931 21.8556 0.4606 0.7171
-39.9472 6.3796 0.2241 0.8506
-74.1550 -39.3544 0.4652 0.7148
-67.8459 -39.1901 0.4341 0.7310
-54.2089 -39.6512 0.3721 0.7644
-50.2184 -39.5759 0.3543 0.7743
-36.7125 -31.1322 0.2667 0.8249
-26.0243 -23.7261 0.1951 0.8686
-31.8079 -31.1618 0.2467 0.8368
-27.5666 -31.1874 0.2306 0.8466
-25.6421 -31.1990 0.2238 0.8508
-22.1069 -31.2204 0.2120 0.8581
-20.4715 -31.2302 0.2069 0.8613
-16.2367 -26.8228 0.1737 0.8821
-15.9769 -31.2573 0.1945 0.8690
-13.2487 -31.2738 0.1882 0.8730
-11.9466 -31.2817 0.1855 0.8746
-7.2871 -24.1546 0.1398 0.9040
-8.2304 -31.3041 0.1793 0.8786
0.8360 -27.7366 -0.2691 0.8949
9.1342 -31.5914 -0.3189 0.8767
12.9693 -31.6259 -0.3314 0.8722
40.7285 -82.0034 -0.8878 0.6933
17.1701 -31.6639 -0.3493 0.8658
8.9573 -15.1904 -0.1710 0.9319
11.3148 -16.3769 -0.1930 0.9235
8.1638 -10.9535 -0.1325 0.9468
9.2404 -9.9545 -0.1317 0.9471
9.9174 -9.9429 -0.1362 0.9454
21.8007 -20.3412 -0.2891 0.8876
36.6798 -31.8395 -0.4710 0.8234
25.6880 -20.7292 -0.3201 0.8763
21.8353 -10.9149 -0.2367 0.9070
23.1048 -9.5443 -0.2424 0.9048
25.5939 -9.5121 -0.2648 0.8965
95.3055 -24.1450 -0.9533 0.6748
46.7481 -6.6075 -0.4578 0.8279
73.0258 -7.6596 -0.7120 0.7455
38.5224 0.1234 -0.3735 0.8572
44.3623 9.8564 -0.4407 0.8338
39.2814 13.2944 -0.4021 0.8471
39.3231 14.9021 -0.4077 0.8452
39.1015 18.1249 -0.4179 0.8416
39.2050 23.5947 -0.4437 0.8327
38.3112 24.9728 -0.4434 0.8328
39.2087 27.6126 -0.4650 0.8254
39.4137 29.9298 -0.4799 0.8204
39.1854 32.0379 -0.4908 0.8167
39.2980 37.1410 -0.5243 0.8055
38.2309 38.8237 -0.5283 0.8042
10.6886 11.6637 -0.1534 0.9387
7.4094 11.7585 -0.1348 0.9459
6.8344 11.7620 -0.1319 0.9470
6.2826 11.7653 -0.1293 0.9480
5.7640 11.7944 -0.1273 0.9488
5.2496 11.7975 -0.1252 0.9497
4.7511 11.8005 -0.1233 0.9504
4.2551 11.7716 -0.1214 0.9512
3.7943 11.8063 -0.1202 0.9516
3.3325 11.8091 -0.1190 0.9521
2.4348 11.8145 -0.1170 0.9529
1.9961 11.8171 -0.1162 0.9532
1.1298 11.7904 -0.1148 0.9537
-0.5694 11.8326 -0.1149 0.9537
-0.9964 11.8352 -0.1152 0.9536
-1.4261 11.8378 -0.1156 0.9534
-2.1787 13.8711 -0.1362 0.9454
-3.2068 13.8453 -0.1378 0.9447
-44.6194 72.6554 -0.8268 0.7110
-44.5692 67.0510 -0.7807 0.7247
-29.7811 35.7651 -0.4513 0.8301
-48.9659 50.8869 -0.6848 0.7539
-45.8706 35.6752 -0.5635 0.7926
-49.5864 35.7844 -0.5929 0.7830
-62.3592 35.4897 -0.6957 0.7505
-65.9028 31.4772 -0.7082 0.7467
-71.6437 28.1005 -0.7462 0.7350
-70.1042 24.6315 -0.7205 0.7429
-64.2065 20.0006 -0.6521 0.7641
-67.8336 -6.3244 -0.6606 0.7615
-85.6044 -17.4132 -0.8471 0.7051
-82.6273 -19.9211 -0.8242 0.7118
-55.1532 -19.7764 -0.5681 0.7911
-49.5325 -19.7951 -0.5172 0.8079
-44.8315 -19.8111 -0.4753 0.8220
-43.6016 -21.1698 -0.4700 0.8238
-43.5724 -27.3004 -0.4986 0.8141
-34.5216 -23.3962 -0.4044 0.8464
-33.6711 -24.6288 -0.4045 0.8463
-33.6827 -26.5445 -0.4158 0.8424
-25.7207 -23.4493 -0.3375 0.8700
-25.1765 -24.6651 -0.3418 0.8685
-25.1876 -26.5138 -0.3546 0.8639
-25.6420 -31.1990 -0.3916 0.8508
-16.6431 -23.5041 -0.2793 0.8912
-15.4928 -23.6350 -0.2740 0.8931
-15.5048 -25.6138 -0.2903 0.8871
-15.9769 -31.2573 -0.3404 0.8690
-14.5903 -31.2657 -0.3346 0.8711
-7.1082 -23.5616 -0.2386 0.9062
-6.8520 -26.0614 -0.2613 0.8978
-7.4535 -33.1451 -0.3294 0.8729
-5.5961 -71.9886 -1.8007 0.7491
-3.0128 -72.2505 -1.8034 0.7488
-0.4179 -72.3999 -1.8056 0.7485
0.7141 -23.6914 -0.5911 0.9095
1.3247 -20.0318 -0.5006 0.9228
2.0555 -20.0943 -0.5037 0.9224
2.7885 -20.1009 -0.5061 0.9220
4.2799 -20.1145 -0.5129 0.9210
5.0281 -20.0634 -0.5158 0.9206
7.4267 -20.1411 -0.5353 0.9177
8.2627 -20.1487 -0.5431 0.9166
9.0980 -20.0983 -0.5502 0.9155
8.9572 -15.1904 -0.4398 0.9319
10.4635 -16.3717 -0.4845 0.9252
11.3148 -16.3768 -0.4964 0.9234
7.9646 -10.6861 -0.3324 0.9481
8.0033 -9.9701 -0.3188 0.9501
8.5231 -9.8699 -0.3252 0.9492
9.8435 -9.8688 -0.3476 0.9458
23.9438 -20.7842 -0.7907 0.8809
34.2497 -20.3146 -0.9931 0.8527
20.8760 -11.3897 -0.5931 0.9092
20.8794 -10.4370 -0.5821 0.9108
23.0070 -9.5039 -0.6208 0.9052
26.3105 -9.7784 -0.7000 0.8938
24.1726 -7.0565 -0.6280 0.9042
44.8848 -6.3441 -1.1305 0.8341
74.2440 -5.1014 -1.8559 0.7425
74.3775 -2.4330 -1.8559 0.7425
38.5347 0.1235 -0.9610 0.8571
74.3486 2.9091 -1.8556 0.7425
67.3454 9.9594 -1.6978 0.7616
39.1122 11.6902 -1.0180 0.8493
32.2937 12.2382 -0.8612 0.8709
30.6480 15.5664 -0.8573 0.8715
30.6700 18.4581 -0.8927 0.8666
25.6286 18.0489 -0.7817 0.8821
25.0045 18.9878 -0.7830 0.8819
30.6940 29.0091 -1.0532 0.8445
10.6885 11.6636 -0.3945 0.9387
21.3081 24.9972 -0.8191 0.8768
6.8344 11.7620 -0.3392 0.9470
6.2826 11.7653 -0.3326 0.9480
5.2496 11.7975 -0.3220 0.9496
4.2551 11.7716 -0.3122 0.9511
3.7943 11.8063 -0.3093 0.9516
2.4348 11.8145 -0.3008 0.9529
1.9961 11.8171 -0.2989 0.9532
1.5625 11.8197 -0.2973 0.9534
-0.1441 11.8300 -0.2950 0.9538
-9.7787 28.0613 -0.7411 0.8879
-21.7592 55.8979 -1.4959 0.7866
-28.2383 65.4853 -1.7785 0.7518
-32.8052 63.1776 -1.7753 0.7521
-10.4513 18.4741 -0.5293 0.9186
-24.4480 39.8096 -1.1651 0.8295
-14.8406 22.3265 -0.6686 0.8983
-15.1798 21.1487 -0.6492 0.9011
-19.3340 21.5929 -0.7228 0.8905
-44.9034 46.6649 -1.6150 0.7717
-24.4270 21.9847 -0.8196 0.8768
-24.4990 20.5066 -0.7968 0.8800
-24.5364 19.0828 -0.7752 0.8831
-53.0112 35.4333 -1.5901 0.7748
-54.8749 33.8942 -1.6085 0.7725
-56.0312 31.8882 -1.6078 0.7726
-62.0623 16.9143 -1.6042 0.7731
-64.0512 5.5578 -1.6033 0.7732
-70.1412 3.5557 -1.7515 0.7550
-70.1326 -4.0062 -1.7518 0.7550
-67.4136 -6.2852 -1.6885 0.7627
-68.8926 -14.0138 -1.7533 0.7548
-62.5839 -15.0887 -1.6055 0.7729
-61.3815 -19.5531 -1.6065 0.7728
-45.1334 -19.9445 -1.2306 0.8208
-34.5215 -23.3961 -1.0400 0.8463
-33.6832 -26.5449 -1.0695 0.8423
-25.1880 -26.5142 -0.9120 0.8639
-25.2001 -28.5101 -0.9489 0.8588
-43.7003 -53.1707 -1.7164 0.7593
-41.9223 -54.9131 -1.7229 0.7585
-16.6431 -23.5040 -0.7182 0.8912
-15.4932 -23.6355 -0.7048 0.8931
-15.5186 -27.8464 -0.7950 0.8802
-31.9962 -62.5975 -1.7532 0.7548
-25.3088 -66.2706 -1.7691 0.7529
-10.7092 -71.1535 -1.7944 0.7498
-8.1630 -71.6226 -1.7977 0.7494
-3.3052 -42.5182 -1.7140 0.8431
2.8776 -20.7433 -0.8417 0.9196
4.3050 -20.2321 -0.8314 0.9205
5.8533 -20.2441 -0.8470 0.9191
10.0726 -20.2804 -0.9101 0.9133
11.1906 -20.6368 -0.9435 0.9103
8.9572 -15.1903 -0.7088 0.9318
10.4635 -16.3717 -0.7809 0.9252
11.3148 -16.3768 -0.8000 0.9234
7.7601 -10.4117 -0.5219 0.9493
7.8563 -9.7871 -0.5044 0.9510
9.0638 -9.7642 -0.5355 0.9481
23.6401 -20.5205 -1.2582 0.8822
25.2958 -20.4126 -1.3064 0.8780
29.4344 -20.4482 -1.4405 0.8663
31.9071 -20.5082 -1.5245 0.8591
34.2497 -20.3146 -1.6005 0.8526
20.8751 -11.3892 -0.9558 0.9092
43.2685 -14.3354 -1.8320 0.8332
24.6065 -6.2339 -1.0202 0.9034
44.6268 -9.6154 -1.8348 0.8330
44.9468 -8.0080 -1.8349 0.8330
45.2078 -6.3897 -1.8350 0.8330
45.4095 -4.7630 -1.8351 0.8329
45.6341 -1.4927 -1.8351 0.8330
45.6567 0.1463 -1.8350 0.8330
45.6193 1.7850 -1.8349 0.8330
40.7720 9.0587 -1.6787 0.8460
40.2919 10.4830 -1.6733 0.8465
36.5822 10.9340 -1.5346 0.8583
36.5910 12.3839 -1.5526 0.8567
36.5999 13.8701 -1.5731 0.8550
30.5531 14.1623 -1.3535 0.8739
30.6868 16.9984 -1.4099 0.8690
15.7476 11.0902 -0.7741 0.9258
24.9457 18.9432 -1.2589 0.8821
30.7605 27.0489 -1.6463 0.8488
30.6257 28.9447 -1.6937 0.8448
30.6247 31.0995 -1.7543 0.8397
10.6884 11.6635 -0.6358 0.9386
21.6138 25.3558 -1.3391 0.8751
8.6183 11.7193 -0.5847 0.9434
7.4094 11.7585 -0.5586 0.9459
6.2826 11.7653 -0.5361 0.9480
4.7511 11.8005 -0.5113 0.9503
4.2551 11.7716 -0.5031 0.9511
3.7943 11.8063 -0.4984 0.9516
3.3325 11.8091 -0.4932 0.9521
2.8799 11.8118 -0.4886 0.9525
1.1298 11.7904 -0.4760 0.9537
-0.1441 11.8300 -0.4755 0.9537
-0.9964 11.8352 -0.4774 0.9536
-1.4261 11.8378 -0.4792 0.9534
-2.1787 13.8711 -0.5643 0.9453
-3.7361 13.8485 -0.5765 0.9442
-9.7242 27.9049 -1.1877 0.8884
-16.1414 41.4659 -1.7884 0.8368
-10.4463 18.4652 -0.8527 0.9186
-14.8084 24.1130 -1.1373 0.8929
-15.3025 19.7803 -1.0051 0.9047
-18.5107 22.2301 -1.1627 0.8906
-19.0461 21.2714 -1.1476 0.8920
-31.7924 30.7497 -1.7777 0.8377
-21.9978 18.4130 -1.1530 0.8915
-22.0151 14.7151 -1.0643 0.8994
-35.2156 21.7514 -1.6636 0.8473
-35.7906 18.7011 -1.6230 0.8507
-37.0230 16.0777 -1.6223 0.8508
-38.5162 11.9980 -1.6214 0.8509
-38.9169 10.6063 -1.6212 0.8509
-37.8385 8.8664 -1.5620 0.8559
-40.7650 5.0171 -1.6508 0.8484
-43.8571 3.8055 -1.7693 0.8384
-44.0440 0.6496 -1.7704 0.8383
-43.6976 -5.6626 -1.7710 0.8383
-42.8561 -10.3325 -1.7718 0.8382
-42.0223 -13.3862 -1.7726 0.8382
-36.9579 -16.3318 -1.6240 0.8507
-36.3591 -17.6534 -1.6245 0.8506
-35.7134 -18.9532 -1.6250 0.8506
-35.0222 -20.2300 -1.6256 0.8505
-33.8216 -22.9218 -1.6421 0.8491
-33.0054 -24.1419 -1.6435 0.8490
-31.2450 -26.4958 -1.6465 0.8487
-25.1772 -24.6658 -1.4166 0.8684
-26.3131 -32.0155 -1.6656 0.8471
-15.4935 -23.6360 -1.1359 0.8930
-15.5055 -25.6149 -1.2034 0.8870
-15.5190 -27.8471 -1.2813 0.8802
-19.1031 -37.3740 -1.6870 0.8453
-17.7829 -38.1071 -1.6902 0.8451
-15.0559 -39.4232 -1.6961 0.8446
-8.0397 -23.5559 -1.0004 0.9052
-7.1082 -23.5616 -0.9891 0.9062
-9.3144 -41.4203 -1.7063 0.8437
-7.8318 -41.7809 -1.7085 0.8435
-6.3341 -42.0847 -1.7105 0.8434
-2.3610 -30.3716 -1.6896 0.8851
1.3247 -20.0317 -1.1135 0.9227
2.8618 -20.6295 -1.1552 0.9199
4.3049 -20.2321 -1.1473 0.9205
5.0281 -20.0633 -1.1472 0.9205
5.8533 -20.2440 -1.1688 0.9190
6.6763 -20.3257 -1.1866 0.9179
9.0979 -20.0983 -1.2236 0.9154
10.0726 -20.2804 -1.2559 0.9133
11.0111 -20.3059 -1.2812 0.9116
6.4340 -10.0669 -0.6626 0.9533
6.6725 -9.6577 -0.6511 0.9541
7.2279 -9.6978 -0.6708 0.9527
6.4868 -6.9881 -0.5288 0.9625
6.5794 -6.5963 -0.5167 0.9634
6.8851 -6.4242 -0.5223 0.9630
7.3762 -6.4028 -0.5417 0.9616
7.9794 -6.4391 -0.5687 0.9598
24.7049 -17.1626 -1.6684 0.8865
25.3109 -16.2685 -1.6688 0.8864
25.8843 -15.3529 -1.6692 0.8864
21.2551 -11.5965 -1.3429 0.9076
25.3723 -9.4297 -1.5013 0.8972
24.4811 -6.2021 -1.4007 0.9038
32.5960 -4.6072 -1.8259 0.8764
32.7411 -3.4342 -1.8259 0.8764
32.8932 1.2871 -1.8258 0.8764
32.7116 3.6432 -1.8255 0.8765
32.5567 4.8146 -1.8254 0.8765
31.6883 8.2445 -1.8161 0.8771
31.1500 9.3104 -1.8032 0.8779
30.2525 12.7245 -1.8203 0.8768
28.7366 15.9182 -1.8220 0.8767
28.1392 16.9350 -1.8216 0.8767
27.5055 17.9292 -1.8211 0.8767
15.7745 11.1091 -1.0701 0.9256
26.1326 19.8445 -1.8200 0.8768
25.3953 20.7631 -1.8194 0.8769
24.6256 21.6543 -1.8188 0.8769
23.8243 22.5166 -1.8182 0.8769
16.1839 16.4348 -1.2793 0.9117
10.8942 13.7510 -0.9730 0.9321
8.6183 11.7193 -0.8069 0.9434
3.1057 4.5574 -0.3059 0.9781
7.4094 11.7585 -0.7709 0.9458
6.8344 11.7620 -0.7545 0.9470
5.7484 11.7626 -0.7261 0.9489
5.2354 11.7657 -0.7143 0.9497
4.7383 11.7687 -0.7037 0.9504
4.2551 11.7716 -0.6942 0.9511
3.7841 11.7744 -0.6860 0.9517
3.3236 11.7772 -0.6787 0.9522
2.8721 11.7799 -0.6725 0.9526
2.4283 11.7826 -0.6672 0.9529
1.9907 11.7852 -0.6629 0.9532
0.7059 11.8249 -0.6570 0.9537
-0.1441 11.8300 -0.6562 0.9537
-0.5694 11.8326 -0.6570 0.9537
-1.4233 11.8141 -0.6600 0.9534
-2.6928 13.8742 -0.7839 0.9450
-3.7361 13.8485 -0.7956 0.9442
-8.7323 28.2880 -1.6420 0.8882
-9.6976 27.8286 -1.6345 0.8886
-10.7302 27.5651 -1.6406 0.8883
-12.7894 29.6589 -1.7914 0.8786
-10.3647 18.3211 -1.1675 0.9191
-15.2337 19.6913 -1.3808 0.9051
-21.3589 20.6584 -1.6481 0.8878
-23.3356 18.1489 -1.6396 0.8883
-23.9660 17.2952 -1.6392 0.8883
-28.4584 14.8699 -1.7809 0.8793
-29.4420 12.7855 -1.7803 0.8793
-30.2751 10.6373 -1.7798 0.8794
-30.6340 9.5426 -1.7796 0.8794
-31.2340 7.3188 -1.7793 0.8794
-31.6751 5.0585 -1.7791 0.8794
-31.8351 3.9181 -1.7790 0.8794
-31.9548 2.7728 -1.7790 0.8794
-32.0338 1.6239 -1.7790 0.8794
-32.0720 0.4730 -1.7790 0.8794
-31.9418 -2.9780 -1.7793 0.8794
-31.4459 -6.3966 -1.7798 0.8794
-30.9147 -8.6387 -1.7803 0.8793
-30.5896 -9.7444 -1.7806 0.8793
-28.9033 -14.0334 -1.7821 0.8792
-27.7478 -14.7259 -1.7423 0.8818
-24.9435 -15.6285 -1.6326 0.8888
-24.3733 -16.5184 -1.6330 0.8887
-22.4768 -19.0603 -1.6345 0.8886
-19.8551 -22.4620 -1.6627 0.8868
-19.0493 -23.1775 -1.6640 0.8868
-18.2190 -23.8646 -1.6653 0.8867
-15.4938 -23.6365 -1.5675 0.8930
-15.5864 -25.7485 -1.6694 0.8864
-12.7617 -27.3472 -1.6738 0.8861
-7.1082 -23.5615 -1.3650 0.9061
-6.8529 -26.0648 -1.4948 0.8977
-5.5962 -29.8559 -1.6848 0.8854
-4.5252 -30.0663 -1.6864 0.8853
-0.9955 -23.8724 -1.6907 0.9086
2.1051 -20.5781 -1.4637 0.9204
2.8649 -20.6517 -1.4753 0.9198
4.3049 -20.2320 -1.4637 0.9204
5.8533 -20.2440 -1.4912 0.9190
9.0979 -20.0983 -1.5611 0.9153
6.3539 -10.7754 -0.8852 0.9511
6.6166 -9.5767 -0.8237 0.9544
7.7547 -9.6605 -0.8766 0.9515
6.2554 -7.2439 -0.6773 0.9623
6.2914 -6.7776 -0.6544 0.9636
6.3759 -6.3923 -0.6389 0.9644
6.7747 -6.3211 -0.6557 0.9635
7.2508 -6.2940 -0.6794 0.9622
22.1063 -13.1119 -1.8188 0.9021
22.5663 -12.3119 -1.8190 0.9021
21.4296 -9.7670 -1.6665 0.9099
23.4937 -7.7838 -1.7513 0.9055
25.3301 -4.5129 -1.8206 0.9020
25.6699 -1.7638 -1.8207 0.9020
25.7165 -0.8412 -1.8207 0.9020
25.7296 0.0824 -1.8207 0.9020
25.4474 3.7633 -1.8203 0.9020
24.8879 6.4752 -1.8198 0.9020
23.6914 9.9649 -1.8187 0.9021
23.3144 10.8070 -1.8184 0.9021
22.9072 11.6348 -1.8181 0.9021
22.4704 12.4471 -1.8177 0.9021
22.0046 13.2430 -1.8173 0.9021
21.5103 14.0213 -1.8169 0.9022
15.3342 12.5372 -1.4016 0.9236
15.2926 13.4474 -1.4410 0.9216
16.4674 16.7227 -1.6608 0.9102
15.2164 17.8508 -1.6598 0.9102
10.8942 13.7511 -1.2414 0.9321
8.6184 11.7193 -1.0294 0.9433
6.8345 11.7620 -0.9626 0.9469
6.2827 11.7653 -0.9438 0.9479
5.6826 11.6280 -0.9158 0.9494
3.7408 11.6397 -0.8651 0.9522
2.8392 11.6451 -0.8482 0.9531
2.4005 11.6478 -0.8415 0.9534
1.9680 11.6504 -0.8361 0.9537
0.6960 11.6580 -0.8264 0.9542
0.2767 11.6606 -0.8254 0.9543
-0.5614 11.6656 -0.8264 0.9542
-1.8335 11.6733 -0.8362 0.9537
-3.2069 13.8453 -1.0056 0.9446
-3.7361 13.8485 -1.0150 0.9441
-6.8514 22.1950 -1.6437 0.9111
-7.6411 21.9273 -1.6431 0.9111
-10.6869 20.5813 -1.6410 0.9112
-13.2491 21.5739 -1.7915 0.9035
-14.7542 20.5559 -1.7905 0.9035
-16.8651 18.8356 -1.7890 0.9036
-17.5259 18.2135 -1.7886 0.9036
-18.7788 16.9013 -1.7878 0.9037
-19.3692 16.2127 -1.7874 0.9037
-19.9345 15.5038 -1.7870 0.9037
-21.3592 13.1928 -1.7765 0.9042
-21.6136 9.3860 -1.6674 0.9098
-22.2663 8.7334 -1.6925 0.9085
-23.7937 8.3601 -1.7846 0.9038
-24.7383 4.8672 -1.7841 0.9038
-25.0222 3.0796 -1.7840 0.9038
-25.1163 2.1794 -1.7840 0.9038
-25.1784 1.2764 -1.7840 0.9038
-25.1717 -1.4379 -1.7841 0.9038
-25.1052 -2.3407 -1.7842 0.9038
-25.0066 -3.2405 -1.7843 0.9038
-24.7138 -5.0272 -1.7846 0.9038
-24.2948 -6.7888 -1.7850 0.9038
-23.7515 -8.5167 -1.7855 0.9038
-23.0866 -10.2020 -1.7861 0.9037
-22.7095 -11.0261 -1.7864 0.9037
-21.8683 -12.6319 -1.7871 0.9037
-20.1201 -14.7169 -1.7640 0.9049
-18.6921 -14.7308 -1.6841 0.9090
-17.6527 -14.9695 -1.6378 0.9114
-16.5420 -16.2060 -1.6387 0.9113
-15.9540 -16.7940 -1.6391 0.9113
-13.4020 -18.9269 -1.6411 0.9112
-12.0172 -19.8523 -1.6421 0.9111
-11.3005 -20.2775 -1.6427 0.9111
-10.5689 -20.6770 -1.6432 0.9111
-9.8444 -21.0955 -1.6473 0.9109
-9.1259 -21.5439 -1.6556 0.9104
-8.3789 -21.9611 -1.6635 0.9100
-7.6276 -22.3445 -1.6707 0.9097
-5.2225 -23.2242 -1.6844 0.9090
-1.4850 -19.1038 -1.6497 0.9260
-0.7986 -19.1506 -1.6502 0.9259
0.5778 -19.1700 -1.6512 0.9259
1.2659 -19.1427 -1.6516 0.9259
2.6377 -19.0138 -1.6526 0.9258
5.3380 -18.4619 -1.6545 0.9257
5.9990 -18.2635 -1.6550 0.9257
7.2978 -17.7959 -1.6559 0.9257
8.5604 -17.2356 -1.6568 0.9256
9.1759 -16.9216 -1.6572 0.9256
6.3591 -9.9497 -1.0166 0.9537
6.5896 -9.5377 -0.9981 0.9545
5.8786 -7.3232 -0.8085 0.9630
6.1058 -6.5776 -0.7727 0.9646
6.4417 -6.0104 -0.7585 0.9652
8.2479 -6.1804 -0.8873 0.9595
18.8699 -9.4325 -1.8162 0.9188
19.5022 -8.0561 -1.8166 0.9188
20.0334 -6.6373 -1.8169 0.9188
20.2601 -5.9143 -1.8171 0.9188
20.4605 -5.1835 -1.8172 0.9188
20.6344 -4.4460 -1.8172 0.9187
20.7815 -3.7025 -1.8173 0.9187
20.9016 -2.9542 -1.8174 0.9187
21.0601 -1.4471 -1.8174 0.9187
21.1091 0.0676 -1.8174 0.9187
21.0485 1.5819 -1.8172 0.9187
20.8784 3.0876 -1.8170 0.9188
20.7527 3.8348 -1.8169 0.9188
20.2146 6.0419 -1.8164 0.9188
19.9825 6.7629 -1.8162 0.9188
19.4408 8.1770 -1.8157 0.9188
19.1320 8.8683 -1.8155 0.9188
18.7985 9.5479 -1.8152 0.9188
16.1612 10.5345 -1.6609 0.9255
14.4755 12.7289 -1.6595 0.9255
14.0062 13.2374 -1.6592 0.9255
10.6881 11.6631 -1.3620 0.9385
12.4932 14.6561 -1.6580 0.9256
10.8942 13.7511 -1.5104 0.9320
8.6184 11.7193 -1.2524 0.9433
3.1050 4.5563 -0.4747 0.9781
6.8345 11.7620 -1.1712 0.9468
6.2827 11.7653 -1.1483 0.9479
5.6826 11.6280 -1.1142 0.9494
5.1755 11.6310 -1.0960 0.9502
4.6841 11.6340 -1.0797 0.9509
4.2064 11.6369 -1.0653 0.9515
3.2855 11.6425 -1.0415 0.9526
1.5405 11.6530 -1.0120 0.9539
1.1169 11.6555 -1.0081 0.9541
-0.9823 11.6682 -1.0081 0.9541
-1.4060 11.6708 -1.0120 0.9539
-3.2068 13.8453 -1.2235 0.9445
-6.2849 18.0355 -1.6443 0.9262
-7.5586 17.5286 -1.6434 0.9262
-8.1808 17.2414 -1.6430 0.9262
-10.5537 15.8772 -1.6413 0.9263
-12.1409 16.9149 -1.7925 0.9198
-13.8798 15.5015 -1.7914 0.9199
-14.4244 14.9902 -1.7910 0.9199
-15.4567 13.9114 -1.7903 0.9199
-15.9433 13.3451 -1.7900 0.9199
-17.6780 10.9190 -1.7889 0.9200
-18.7424 8.9520 -1.7882 0.9200
-19.0497 8.2726 -1.7880 0.9200
-19.3325 7.5827 -1.7878 0.9200
-19.8237 6.1752 -1.7876 0.9200
-20.0312 5.4593 -1.7875 0.9200
-20.4995 3.2738 -1.7872 0.9200
-20.7320 1.0510 -1.7872 0.9200
-20.7566 0.3061 -1.7872 0.9200
-20.7547 -0.4392 -1.7872 0.9200
-20.7262 -1.1839 -1.7873 0.9200
-20.6712 -1.9272 -1.7874 0.9200
-20.5898 -2.6682 -1.7875 0.9200
-20.4821 -3.4058 -1.7876 0.9200
-20.3482 -4.1391 -1.7877 0.9200
-20.1882 -4.8673 -1.7879 0.9200
-18.6946 -9.0768 -1.7892 0.9200
-17.6191 -11.0393 -1.7900 0.9199
-16.7879 -12.2795 -1.7907 0.9199
-15.3800 -14.0218 -1.7918 0.9198
-13.9799 -14.7159 -1.7475 0.9217
-11.5747 -15.1615 -1.6422 0.9263
-11.0258 -15.5711 -1.6426 0.9263
-10.4625 -15.9610 -1.6430 0.9262
-9.2953 -16.6794 -1.6439 0.9262
-6.8201 -17.8580 -1.6458 0.9261
-5.5245 -18.3120 -1.6467 0.9261
-4.8650 -18.5039 -1.6472 0.9261
-3.4123 -15.1743 -1.3390 0.9395
-3.5270 -18.8165 -1.6482 0.9260
-2.8501 -18.9366 -1.6487 0.9260
-0.6776 -16.2488 -1.6501 0.9367
-0.0939 -16.2667 -1.6505 0.9367
0.4902 -16.2638 -1.6509 0.9367
1.0740 -16.2398 -1.6514 0.9367
1.6567 -16.1949 -1.6518 0.9366
2.2375 -16.1291 -1.6522 0.9366
3.9614 -15.8067 -1.6534 0.9366
4.5273 -15.6582 -1.6538 0.9366
5.0877 -15.4892 -1.6542 0.9366
7.9771 -14.7108 -1.6980 0.9349
6.7146 -11.3871 -1.3413 0.9482
5.3375 -6.6492 -0.8651 0.9663
5.8165 -6.2661 -0.8675 0.9662
6.1585 -6.1743 -0.8848 0.9655
7.0462 -6.1164 -0.9467 0.9632
7.5800 -6.1168 -0.9883 0.9616
14.6768 -10.1960 -1.8133 0.9307
15.0352 -9.6638 -1.8135 0.9307
15.6934 -8.5622 -1.8139 0.9306
16.5276 -6.8274 -1.8144 0.9306
17.1693 -5.0121 -1.8148 0.9306
17.3390 -4.3927 -1.8149 0.9306
17.4862 -3.7676 -1.8149 0.9306
17.7124 -2.5035 -1.8150 0.9306
17.8467 -1.2262 -1.8151 0.9306
17.8883 0.0573 -1.8150 0.9306
17.5870 3.2498 -1.8147 0.9306
17.4577 3.8788 -1.8145 0.9306
16.7168 6.3351 -1.8139 0.9306
14.5857 7.4082 -1.6599 0.9363
14.3085 7.9260 -1.6597 0.9364
14.0127 8.4333 -1.6594 0.9364
13.0187 9.8861 -1.6586 0.9364
12.6532 10.3452 -1.6583 0.9364
11.8741 11.2223 -1.6577 0.9364
11.4614 11.6391 -1.6574 0.9364
10.6286 11.5982 -1.5962 0.9387
8.6184 11.7193 -1.4761 0.9432
3.1046 4.5557 -0.5594 0.9781
6.8345 11.7620 -1.3803 0.9468
4.6841 11.6340 -1.2725 0.9508
2.4005 11.6478 -1.2067 0.9533
1.5405 11.6530 -1.1926 0.9538
1.1169 11.6555 -1.1880 0.9540
0.6960 11.6581 -1.1850 0.9541
-0.1421 11.6631 -1.1835 0.9542
-1.4060 11.6708 -1.1927 0.9538
-1.8335 11.6733 -1.1989 0.9536
-3.2069 13.8454 -1.4420 0.9445
-3.7361 13.8486 -1.4554 0.9440
-6.4173 14.8818 -1.6444 0.9369
-6.9459 14.6385 -1.6440 0.9369
-7.4651 14.3766 -1.6436 0.9369
-7.9747 14.0964 -1.6433 0.9370
-8.9618 13.4823 -1.6426 0.9370
-9.9021 12.7996 -1.6420 0.9370
-10.7910 12.0517 -1.6414 0.9370
-12.2506 12.7312 -1.7927 0.9314
-13.1282 11.8156 -1.7921 0.9315
-14.6758 9.8095 -1.7911 0.9315
-15.3382 8.7292 -1.7907 0.9315
-15.6400 8.1721 -1.7905 0.9315
-15.9217 7.6047 -1.7903 0.9315
-16.1830 7.0277 -1.7901 0.9315
-16.6430 5.8476 -1.7899 0.9315
-17.1724 4.0239 -1.7896 0.9315
-17.4158 2.7813 -1.7895 0.9315
-17.5700 1.5246 -1.7894 0.9315
-17.6343 0.2601 -1.7894 0.9315
-17.6326 -0.3731 -1.7895 0.9315
-17.4922 -2.2668 -1.7897 0.9315
-17.4005 -2.8934 -1.7898 0.9315
-17.2866 -3.5163 -1.7899 0.9315
-17.1504 -4.1349 -1.7900 0.9315
-16.6110 -5.9563 -1.7905 0.9315
-16.3882 -6.5494 -1.7907 0.9315
-15.5949 -8.2763 -1.7913 0.9315
-14.2584 -10.4293 -1.7924 0.9314
-13.8771 -10.9362 -1.7927 0.9314
-13.4780 -11.4293 -1.7930 0.9314
-13.0614 -11.9079 -1.7934 0.9314
-12.6279 -12.3714 -1.7937 0.9314
-11.7123 -13.2507 -1.7944 0.9314
-8.9063 -14.7131 -1.7451 0.9332
-8.2029 -14.7192 -1.7097 0.9345
-6.8750 -14.7324 -1.6496 0.9367
-5.2424 -15.3600 -1.6468 0.9368
-4.6889 -15.5422 -1.6472 0.9368
-4.1290 -15.7044 -1.6476 0.9368
-1.8407 -16.1500 -1.6493 0.9367
-0.6135 -14.7121 -1.7211 0.9424
-0.0849 -14.7120 -1.7196 0.9425
0.4434 -14.7116 -1.7203 0.9424
0.9729 -14.7107 -1.7232 0.9424
1.5047 -14.7094 -1.7283 0.9422
2.0403 -14.7077 -1.7355 0.9420
2.5811 -14.7056 -1.7451 0.9416
3.1285 -14.7030 -1.7570 0.9413
3.6840 -14.7000 -1.7713 0.9408
5.8632 -14.2975 -1.8062 0.9397
6.3771 -14.0877 -1.8075 0.9396
7.3743 -13.5991 -1.8082 0.9396
7.8592 -13.3281 -1.8085 0.9396
4.8083 -6.9594 -0.9887 0.9665
4.9454 -6.6352 -0.9673 0.9672
5.1031 -6.3572 -0.9528 0.9677
5.3656 -6.2134 -0.9596 0.9675
5.7355 -6.1788 -0.9854 0.9666
6.1223 -6.1381 -1.0133 0.9657
7.5564 -6.0977 -1.1349 0.9617
12.7303 -8.8438 -1.8118 0.9395
13.3349 -7.9093 -1.8122 0.9395
13.8705 -6.9335 -1.8125 0.9395
14.3345 -5.9214 -1.8128 0.9395
14.5387 -5.4034 -1.8129 0.9394
15.0377 -3.8097 -1.8132 0.9394
15.2732 -2.7212 -1.8133 0.9394
15.3614 -2.1712 -1.8133 0.9394
15.4296 -1.6184 -1.8134 0.9394
15.4696 1.1626 -1.8132 0.9394
15.4174 1.7171 -1.8132 0.9394
15.2530 2.8185 -1.8130 0.9394
15.1411 3.3640 -1.8129 0.9394
14.6883 4.9711 -1.8125 0.9395
14.4930 5.4924 -1.8116 0.9395
13.0826 5.5027 -1.6589 0.9444
11.8828 7.7457 -1.6579 0.9445
10.9765 8.9744 -1.6572 0.9445
10.6456 9.3611 -1.6569 0.9445
9.9433 10.0975 -1.6564 0.9445
8.7955 11.1020 -1.6555 0.9446
3.1042 4.5552 -0.6443 0.9780
7.3210 11.6181 -1.6051 0.9462
6.7528 11.6216 -1.5710 0.9473
6.2657 11.7335 -1.5547 0.9478
5.6826 11.6280 -1.5127 0.9492
5.1755 11.6311 -1.4880 0.9500
3.7408 11.6397 -1.4290 0.9520
1.9680 11.6504 -1.3810 0.9535
1.5405 11.6530 -1.3739 0.9538
0.6960 11.6581 -1.3651 0.9541
0.2767 11.6606 -1.3633 0.9541
-0.9823 11.6682 -1.3686 0.9539
-1.4060 11.6708 -1.3740 0.9538
-1.8335 11.6733 -1.3811 0.9535
-2.5442 13.1089 -1.5608 0.9476
-3.0125 13.0063 -1.5605 0.9477
-3.9362 12.7513 -1.5598 0.9477
-7.7840 11.7104 -1.6436 0.9449
-10.0977 9.7665 -1.6420 0.9450
-12.1087 9.4173 -1.7930 0.9401
-13.0465 8.0583 -1.7923 0.9401
-13.3261 7.5841 -1.7922 0.9401
-13.5884 7.1002 -1.7920 0.9401
-14.0606 6.1060 -1.7917 0.9401
-14.2697 5.5969 -1.7916 0.9401
-14.4605 5.0808 -1.7915 0.9401
-14.6328 4.5582 -1.7914 0.9401
-14.9208 3.4963 -1.7912 0.9401
-15.0362 2.9583 -1.7912 0.9402
-15.2092 1.8718 -1.7911 0.9402
-15.3223 0.2260 -1.7911 0.9402
-15.1986 -1.9696 -1.7913 0.9401
-15.0197 -3.0552 -1.7915 0.9401
-14.7637 -4.1255 -1.7917 0.9401
-14.6073 -4.6532 -1.7919 0.9401
-13.7962 -6.6984 -1.7926 0.9401
-12.3863 -9.0600 -1.7937 0.9401
-12.0549 -9.5001 -1.7940 0.9401
-11.7078 -9.9282 -1.7942 0.9401
-11.3457 -10.3437 -1.7945 0.9400
-10.9689 -10.7461 -1.7948 0.9400
-10.1731 -11.5093 -1.7954 0.9400
-9.7551 -11.8691 -1.7957 0.9400
-9.3245 -12.2139 -1.7961 0.9400
-8.8817 -12.5431 -1.7964 0.9400
-8.4273 -12.8562 -1.7967 0.9400
-7.4861 -13.4330 -1.7975 0.9399
-6.0024 -14.1687 -1.7986 0.9399
-5.4854 -14.3631 -1.7971 0.9400
-2.7570 -14.7083 -1.7491 0.9415
-2.2140 -14.7099 -1.7387 0.9419
-1.6767 -14.7111 -1.7306 0.9421
-1.0552 -13.5744 -1.8021 0.9465
-0.5674 -13.6062 -1.8024 0.9465
-0.0786 -13.6205 -1.8028 0.9465
0.8992 -13.5963 -1.8035 0.9465
1.8730 -13.5020 -1.8042 0.9465
2.3570 -13.4286 -1.8045 0.9465
4.7212 -12.8038 -1.8062 0.9464
5.1787 -12.6283 -1.8065 0.9464
6.5096 -12.0046 -1.8075 0.9464
6.9375 -11.7651 -1.8078 0.9464
4.6982 -7.3510 -1.1547 0.9654
4.6744 -6.7656 -1.0884 0.9674
5.2892 -6.1250 -1.0711 0.9679
6.5359 -6.0983 -1.1832 0.9646
7.5538 -6.0956 -1.2847 0.9616
12.2407 -6.1188 -1.8113 0.9463
12.4534 -5.6759 -1.8114 0.9463
12.8301 -4.7684 -1.8116 0.9463
12.9937 -4.3050 -1.8117 0.9463
13.1404 -3.8360 -1.8118 0.9463
13.2701 -3.3619 -1.8119 0.9463
13.5556 -1.9160 -1.8120 0.9463
13.6583 -0.9385 -1.8120 0.9463
13.6832 -0.4476 -1.8120 0.9463
13.6796 0.5353 -1.8120 0.9463
13.6512 1.0259 -1.8119 0.9463
13.6052 1.5152 -1.8119 0.9463
13.2457 3.4462 -1.8115 0.9463
13.1125 3.9192 -1.8114 0.9463
12.9625 4.3870 -1.8113 0.9463
11.3628 5.2671 -1.6577 0.9507
9.9675 7.5691 -1.6565 0.9508
9.3963 8.2625 -1.6561 0.9508
9.0923 8.5933 -1.6559 0.9508
8.4498 9.2207 -1.6554 0.9508
8.1121 9.5166 -1.6551 0.9508
6.2772 10.8031 -1.6537 0.9508
5.8844 11.0195 -1.6534 0.9508
4.2064 11.6369 -1.6378 0.9513
3.7408 11.6397 -1.6182 0.9519
3.2855 11.6425 -1.6012 0.9524
1.9680 11.6504 -1.5639 0.9534
1.1169 11.6556 -1.5498 0.9539
0.6960 11.6581 -1.5458 0.9540
-0.9823 11.6682 -1.5498 0.9539
-2.7050 11.6786 -1.5867 0.9528
-4.5110 11.5884 -1.6459 0.9511
-4.9232 11.4170 -1.6456 0.9511
-5.3289 11.2310 -1.6453 0.9511
-7.5994 9.8229 -1.6438 0.9511
-7.9458 9.5424 -1.6435 0.9511
-8.2821 9.2498 -1.6433 0.9511
-8.6077 8.9453 -1.6431 0.9511
-10.6994 8.3213 -1.7940 0.9468
-11.2666 7.5307 -1.7937 0.9468
-11.5286 7.1208 -1.7935 0.9468
-12.0077 6.2742 -1.7932 0.9468
-12.2243 5.8387 -1.7931 0.9468
-12.4252 5.3958 -1.7929 0.9468
-12.7788 4.4899 -1.7927 0.9468
-12.9311 4.0281 -1.7926 0.9468
-13.0668 3.5612 -1.7926 0.9468
-13.4407 1.6542 -1.7924 0.9468
-13.5246 0.6856 -1.7924 0.9468
-13.5206 -0.7723 -1.7925 0.9468
-13.4845 -1.2572 -1.7925 0.9468
-13.4312 -1.7405 -1.7926 0.9468
-12.5818 -5.0282 -1.7934 0.9468
-11.9718 -6.3534 -1.7939 0.9468
-11.7372 -6.7798 -1.7941 0.9468
-11.4875 -7.1976 -1.7943 0.9468
-11.2231 -7.6062 -1.7945 0.9468
-10.9442 -8.0051 -1.7947 0.9468
-10.6512 -8.3939 -1.7949 0.9468
-9.6911 -9.4942 -1.7957 0.9467
-8.9876 -10.1682 -1.7962 0.9467
-8.6182 -10.4859 -1.7965 0.9467
-8.2376 -10.7902 -1.7968 0.9467
-7.4447 -11.3572 -1.7974 0.9467
-3.9279 -13.0199 -1.8000 0.9466
-2.5069 -13.3745 -1.8010 0.9466
-2.0256 -13.4585 -1.8014 0.9466
-1.5415 -13.5252 -1.8017 0.9466
-0.0704 -12.1892 -1.8027 0.9519
0.8046 -12.1671 -1.8034 0.9519
1.2411 -12.1324 -1.8037 0.9519
1.6761 -12.0822 -1.8040 0.9519
2.1091 -12.0162 -1.8043 0.9519
3.3903 -11.7258 -1.8052 0.9518
4.2242 -11.4560 -1.8058 0.9518
5.8240 -10.7401 -1.8069 0.9518
6.2067 -10.5257 -1.8072 0.9518
4.6712 -7.3088 -1.2828 0.9655
4.6633 -6.7495 -1.2133 0.9674
4.9708 -6.1924 -1.1744 0.9684
6.0907 -6.1063 -1.2755 0.9657
6.5436 -6.1055 -1.3236 0.9645
7.5580 -6.0990 -1.4363 0.9615
10.0498 -6.9816 -1.8098 0.9517
11.3148 -4.6740 -1.8105 0.9517
11.4759 -4.2651 -1.8106 0.9517
11.6222 -3.8506 -1.8107 0.9517
11.7534 -3.4310 -1.8108 0.9517
11.8694 -3.0070 -1.8109 0.9517
11.9700 -2.5791 -1.8109 0.9517
12.0551 -2.1478 -1.8110 0.9517
12.2165 -0.8394 -1.8110 0.9517
12.2356 0.4788 -1.8109 0.9517
11.8477 3.0825 -1.8105 0.9517
11.4106 4.3242 -1.8047 0.9519
9.3815 6.1152 -1.6562 0.9557
8.9166 6.7710 -1.6558 0.9557
8.6668 7.0859 -1.6556 0.9557
8.1340 7.6875 -1.6552 0.9558
7.8518 7.9735 -1.6550 0.9558
7.5595 8.2491 -1.6548 0.9558
6.9462 8.7677 -1.6543 0.9558
6.6260 9.0101 -1.6541 0.9558
3.1035 4.5541 -0.8150 0.9780
5.9607 9.4594 -1.6536 0.9558
5.6164 9.6657 -1.6533 0.9558
4.5425 10.2086 -1.6525 0.9558
3.0327 10.7464 -1.6514 0.9559
2.6445 10.8464 -1.6511 0.9559
1.0641 11.1055 -1.6500 0.9559
0.6647 11.1346 -1.6497 0.9559
0.2646 11.1493 -1.6494 0.9559
-0.1358 11.1497 -1.6491 0.9559
-0.5359 11.1357 -1.6488 0.9559
-1.3331 11.0647 -1.6482 0.9559
-2.1227 10.9368 -1.6477 0.9560
-2.5135 10.8518 -1.6474 0.9560
-2.9009 10.7527 -1.6471 0.9560
-3.6637 10.5135 -1.6466 0.9560
-4.0381 10.3735 -1.6463 0.9560
-4.4072 10.2203 -1.6461 0.9560
-5.4779 9.6829 -1.6453 0.9560
-5.8211 9.4787 -1.6451 0.9560
-6.1567 9.2623 -1.6448 0.9560
-7.1139 8.5434 -1.6442 0.9560
-7.4151 8.2815 -1.6440 0.9560
-7.7067 8.0090 -1.6438 0.9561
-8.2596 7.4338 -1.6434 0.9561
-8.5202 7.1317 -1.6433 0.9561
-9.8404 7.1013 -1.7947 0.9521
-10.3227 6.3759 -1.7944 0.9521
-10.5441 6.0008 -1.7943 0.9521
-11.1259 4.8315 -1.7939 0.9521
-11.5791 3.6069 -1.7936 0.9521
-11.7007 3.1889 -1.7936 0.9521
-11.8072 2.7667 -1.7935 0.9521
-11.8987 2.3410 -1.7935 0.9521
-11.9748 1.9124 -1.7934 0.9521
-12.0356 1.4813 -1.7934 0.9521
-12.0809 1.0483 -1.7934 0.9521
-12.1108 0.6139 -1.7934 0.9521
-12.1251 0.1788 -1.7934 0.9521
-12.1238 -0.2565 -1.7934 0.9521
-12.0747 -1.1258 -1.7935 0.9521
-12.0269 -1.5585 -1.7936 0.9521
-11.9637 -1.9893 -1.7936 0.9521
-11.8851 -2.4176 -1.7937 0.9521
-11.7912 -2.8428 -1.7938 0.9521
-11.0979 -4.9042 -1.7944 0.9521
-10.7193 -5.6888 -1.7947 0.9521
-10.5092 -6.0705 -1.7949 0.9521
-10.2855 -6.4444 -1.7951 0.9521
-10.0486 -6.8102 -1.7953 0.9521
-9.2615 -7.8537 -1.7959 0.9521
-8.9747 -8.1821 -1.7961 0.9521
-8.6763 -8.5001 -1.7963 0.9521
-8.0463 -9.1031 -1.7968 0.9521
-7.3745 -9.6597 -1.7973 0.9520
-7.0241 -9.9197 -1.7976 0.9520
-6.2962 -10.4012 -1.7982 0.9520
-5.9197 -10.6222 -1.7984 0.9520
-5.1440 -11.0231 -1.7990 0.9520
-4.3413 -11.3675 -1.7996 0.9520
-3.5157 -11.6536 -1.8002 0.9520
-2.6715 -11.8799 -1.8008 0.9520
-1.3796 -12.1046 -1.8018 0.9519
0.3322 -11.0223 -1.8030 0.9563
1.1225 -10.9735 -1.8035 0.9563
2.6832 -10.7064 -1.8046 0.9562
3.0662 -10.6048 -1.8049 0.9562
3.8203 -10.3605 -1.8054 0.9562
4.9140 -9.8940 -1.8062 0.9562
5.2667 -9.7125 -1.8064 0.9562
5.6127 -9.5184 -1.8067 0.9562
4.6571 -6.7406 -1.3396 0.9673
5.6663 -6.1043 -1.3618 0.9668
6.5535 -6.1148 -1.4655 0.9643
7.0422 -6.1129 -1.5247 0.9629
8.6090 -6.9471 -1.8087 0.9562
8.1437 -6.1023 -1.6638 0.9596
9.7149 -5.3004 -1.8094 0.9561
10.2302 -4.2260 -1.8097 0.9561
10.5080 -3.4814 -1.8099 0.9561
10.6266 -3.1021 -1.8100 0.9561
10.7314 -2.7187 -1.8100 0.9561
10.8224 -2.3318 -1.8101 0.9561
11.0452 -0.7589 -1.8102 0.9561
11.0711 0.0355 -1.8101 0.9561
11.0024 1.2254 -1.8100 0.9561
10.8057 2.4008 -1.8098 0.9561
10.7120 2.7870 -1.8097 0.9561
10.0767 4.2384 -1.7873 0.9567
9.1901 4.2599 -1.6562 0.9598
9.0305 4.5867 -1.6560 0.9598
8.8593 4.9075 -1.6559 0.9598
8.0626 6.1226 -1.6553 0.9598
7.8368 6.4074 -1.6551 0.9598
7.1001 7.2102 -1.6545 0.9598
6.8359 7.4595 -1.6543 0.9598
6.2815 7.9287 -1.6539 0.9598
3.1031 4.5535 -0.9009 0.9779
5.3905 8.5546 -1.6532 0.9598
4.4377 9.0806 -1.6525 0.9599
3.7736 9.3728 -1.6520 0.9599
3.0905 9.6164 -1.6515 0.9599
2.3919 9.8103 -1.6510 0.9599
2.0379 9.8883 -1.6507 0.9599
1.6813 9.9535 -1.6505 0.9599
0.9626 10.0453 -1.6499 0.9599
-0.8459 10.0478 -1.6486 0.9600
-1.2059 10.0094 -1.6484 0.9600
-1.5641 9.9581 -1.6481 0.9600
-2.9715 9.6259 -1.6471 0.9600
-3.9873 9.2467 -1.6464 0.9600
