ply
format ascii 1.0
element vertex 1596
property float32 x
property float32 y
property float32 z
property float32 I
end_header
7.7355 5.0423 -1.6546 0.9632
7.5491 5.3164 -1.6545 0.9632
7.3529 5.5836 -1.6543 0.9632
7.1472 5.8436 -1.6542 0.9632
6.9324 6.0959 -1.6541 0.9632
6.7086 6.3404 -1.6540 0.9632
6.4762 6.5766 -1.6539 0.9632
5.9866 7.0231 -1.6536 0.9632
5.7302 7.2329 -1.6535 0.9632
5.1955 7.6239 -1.6531 0.9632
2.8879 4.5830 -0.9706 0.9782
2.7213 4.6833 -0.9705 0.9782
3.7488 8.4249 -1.6523 0.9632
3.4436 8.5531 -1.6521 0.9632
3.1340 8.6703 -1.6520 0.9632
2.1831 8.9539 -1.6514 0.9632
1.8600 9.0255 -1.6512 0.9632
1.5347 9.0854 -1.6510 0.9632
0.8787 9.1699 -1.6506 0.9633
0.5489 9.1944 -1.6504 0.9633
-0.7723 9.1739 -1.6496 0.9633
-1.1010 9.1392 -1.6494 0.9633
-1.4282 9.0927 -1.6492 0.9633
-2.0764 8.9646 -1.6488 0.9633
-2.3966 8.8833 -1.6487 0.9633
-2.7136 8.7905 -1.6485 0.9633
-3.6416 8.4449 -1.6479 0.9633
-3.9419 8.3078 -1.6477 0.9633
-5.0881 7.6547 -1.6470 0.9633
-5.3591 7.4664 -1.6468 0.9633
-5.6231 7.2684 -1.6466 0.9633
-5.8798 7.0612 -1.6465 0.9633
-6.3700 6.6199 -1.6462 0.9634
-6.6029 6.3864 -1.6460 0.9634
-6.8273 6.1447 -1.6459 0.9634
-7.0429 5.8952 -1.6457 0.9634
-7.2494 5.6381 -1.6456 0.9634
-8.1108 5.8533 -1.7923 0.9602
-8.3392 5.5740 -1.7973 0.9601
-8.7164 4.9607 -1.7971 0.9601
-9.0487 4.3220 -1.7968 0.9601
-9.1975 3.9941 -1.7967 0.9601
-9.3344 3.6612 -1.7966 0.9601
-9.5721 2.9818 -1.7965 0.9601
-9.6726 2.6361 -1.7964 0.9601
-9.7606 2.2871 -1.7963 0.9601
-9.8989 1.5809 -1.7962 0.9601
-2.0428 0.2514 -0.3688 0.9917
-2.0197 0.0298 -0.3619 0.9918
-2.0396 -0.2643 -0.3685 0.9917
-9.7446 -2.3494 -1.7961 0.9601
-9.6542 -2.6977 -1.7962 0.9601
-9.5514 -3.0426 -1.7962 0.9601
-9.4363 -3.3836 -1.7963 0.9601
-8.6823 -5.0152 -1.7966 0.9601
-8.3010 -5.6258 -1.7968 0.9601
-7.4124 -6.7578 -1.7973 0.9601
-7.1656 -7.0200 -1.7975 0.9601
-6.6445 -7.5173 -1.7977 0.9600
-6.0891 -7.9760 -1.7981 0.9600
-5.7994 -8.1902 -1.7982 0.9600
-5.5022 -8.3938 -1.7984 0.9600
-5.1978 -8.5868 -1.7986 0.9600
-4.8868 -8.7687 -1.7987 0.9600
-4.2459 -9.0986 -1.7991 0.9600
-3.5829 -9.3818 -1.7995 0.9600
-2.9012 -9.6168 -1.7999 0.9600
-2.5545 -9.7158 -1.8001 0.9600
-2.2043 -9.8024 -1.8003 0.9600
-1.8512 -9.8763 -1.8005 0.9600
-1.1381 -9.9861 -1.8009 0.9600
-0.7161 -9.2114 -1.8012 0.9630
0.2784 -9.2380 -1.8018 0.9630
0.6099 -9.2231 -1.8020 0.9630
1.2704 -9.1576 -1.8024 0.9630
1.9245 -9.0448 -1.8028 0.9630
2.2482 -8.9709 -1.8030 0.9630
2.5691 -8.8854 -1.8032 0.9630
3.5105 -8.5605 -1.8038 0.9630
3.8159 -8.4298 -1.8040 0.9630
4.1165 -8.2883 -1.8042 0.9630
4.4118 -8.1360 -1.8043 0.9630
4.2718 -6.1830 -1.4651 0.9698
4.5522 -6.1077 -1.4851 0.9694
4.9028 -6.1076 -1.5269 0.9686
6.0525 -7.0089 -1.8054 0.9630
6.5409 -6.5577 -1.8057 0.9630
6.9957 -6.0725 -1.8060 0.9630
7.6096 -5.2864 -1.8064 0.9629
7.7951 -5.0102 -1.8065 0.9629
7.9704 -4.7275 -1.8066 0.9629
8.2900 -4.1440 -1.8069 0.9629
8.5669 -3.5389 -1.8071 0.9629
8.6888 -3.2293 -1.8071 0.9629
8.7996 -2.9154 -1.8072 0.9629
8.8989 -2.5978 -1.8073 0.9629
8.9867 -2.2767 -1.8074 0.9629
9.1275 -1.6262 -1.8075 0.9629
9.2211 -0.9672 -1.8076 0.9629
9.2720 0.0297 -1.8076 0.9629
9.2651 0.3625 -1.8077 0.9629
9.2461 0.6949 -1.8077 0.9629
9.2152 1.0263 -1.8077 0.9629
9.1724 1.3564 -1.8076 0.9629
9.1177 1.6848 -1.8076 0.9629
9.0512 2.0110 -1.8076 0.9629
8.8832 2.6551 -1.8075 0.9629
8.6694 3.2854 -1.8074 0.9629
8.5456 3.5944 -1.8074 0.9629
8.3997 3.8935 -1.8049 0.9630
8.2318 4.1810 -1.8000 0.9631
7.6216 4.2219 -1.6986 0.9651
7.2860 4.3850 -1.6579 0.9659
6.5676 5.3696 -1.6539 0.9660
5.9511 6.0433 -1.6535 0.9660
5.5013 6.4538 -1.6533 0.9660
5.2657 6.6465 -1.6531 0.9660
2.8214 4.4775 -1.0318 0.9787
2.6632 4.5834 -1.0334 0.9786
3.9925 7.4767 -1.6524 0.9660
3.7212 7.6145 -1.6523 0.9661
3.4451 7.7424 -1.6521 0.9661
2.8802 7.9680 -1.6518 0.9661
2.3006 8.1524 -1.6514 0.9661
1.1097 8.3942 -1.6507 0.9661
0.5045 8.4504 -1.6504 0.9661
0.2008 8.4621 -1.6502 0.9661
-0.4068 8.4528 -1.6498 0.9661
-0.7099 8.4318 -1.6496 0.9661
-2.2028 8.1651 -1.6487 0.9661
-2.4942 8.0799 -1.6486 0.9661
-2.7823 7.9843 -1.6484 0.9661
-3.0668 7.8784 -1.6482 0.9661
-3.3473 7.7624 -1.6480 0.9661
-3.6234 7.6365 -1.6479 0.9661
-3.8948 7.5007 -1.6477 0.9661
-4.1611 7.3553 -1.6475 0.9661
-4.4220 7.2005 -1.6474 0.9662
-4.6772 7.0364 -1.6472 0.9662
-4.9263 6.8633 -1.6470 0.9662
-5.1690 6.6815 -1.6469 0.9662
-5.4050 6.4910 -1.6467 0.9662
-6.4744 5.4193 -1.6460 0.9662
-6.6643 5.1830 -1.6459 0.9662
-7.6663 5.1242 -1.7977 0.9631
-8.0131 4.5604 -1.7975 0.9631
-8.1712 4.2696 -1.7974 0.9631
-8.3187 3.9733 -1.7973 0.9631
-8.4555 3.6719 -1.7972 0.9631
-1.7744 0.5527 -0.3623 0.9925
-1.7561 0.4786 -0.3548 0.9926
-1.7358 0.4067 -0.3476 0.9928
-1.7039 0.2097 -0.3347 0.9930
-1.7072 0.0252 -0.3329 0.9931
-1.7076 -0.0361 -0.3330 0.9931
-1.7084 -0.0976 -0.3336 0.9931
-1.7031 -0.2207 -0.3348 0.9930
-1.7396 -0.4194 -0.3489 0.9927
-1.7595 -0.4917 -0.3562 0.9926
-1.7774 -0.5662 -0.3637 0.9924
-8.6752 -3.1107 -1.7967 0.9631
-8.4303 -3.7253 -1.7968 0.9631
-8.2914 -4.0257 -1.7969 0.9631
-7.9819 -4.6106 -1.7971 0.9631
-7.8117 -4.8944 -1.7972 0.9631
-7.6314 -5.1720 -1.7973 0.9631
-7.4412 -5.4429 -1.7974 0.9631
-7.0324 -5.9634 -1.7976 0.9631
-6.8142 -6.2125 -1.7977 0.9631
-6.3519 -6.6863 -1.7980 0.9631
-6.1082 -6.9105 -1.7981 0.9631
-5.8567 -7.1259 -1.7982 0.9631
-5.5976 -7.3321 -1.7984 0.9631
-5.3312 -7.5289 -1.7985 0.9631
-5.0579 -7.7161 -1.7987 0.9631
-4.2003 -8.2174 -1.7992 0.9631
-3.9030 -8.3637 -1.7993 0.9631
-3.2935 -8.6239 -1.7997 0.9631
-1.3748 -9.1343 -1.8008 0.9631
-1.0461 -9.1787 -1.8010 0.9631
0.2575 -8.5429 -1.8018 0.9657
0.8699 -8.5042 -1.8022 0.9657
1.1748 -8.4683 -1.8024 0.9657
2.0790 -8.2955 -1.8029 0.9656
2.3756 -8.2163 -1.8031 0.9656
2.6693 -8.1266 -1.8033 0.9656
2.9596 -8.0263 -1.8035 0.9656
3.2461 -7.9157 -1.8037 0.9656
3.5285 -7.7948 -1.8038 0.9656
4.0795 -7.5230 -1.8042 0.9656
4.3473 -7.3724 -1.8043 0.9656
4.5522 -6.1077 -1.6059 0.9693
5.8258 -6.2760 -1.8053 0.9656
6.6660 -5.3792 -1.8058 0.9656
6.8553 -5.1368 -1.8060 0.9656
7.0357 -4.8878 -1.8061 0.9656
7.3692 -4.3709 -1.8063 0.9656
7.5218 -4.1038 -1.8064 0.9656
8.0333 -2.9856 -1.8068 0.9656
8.2275 -2.4017 -1.8069 0.9656
8.3791 -1.8054 -1.8070 0.9656
8.4875 -1.1996 -1.8071 0.9656
8.5520 -0.5876 -1.8072 0.9656
8.5677 -0.2803 -1.8072 0.9656
8.3681 1.8592 -1.8072 0.9656
8.2959 2.1584 -1.8072 0.9656
8.2129 2.4547 -1.8071 0.9656
8.0152 3.0375 -1.8070 0.9656
7.7761 3.6045 -1.8069 0.9656
7.0068 4.2169 -1.7240 0.9671
6.0722 4.9646 -1.6536 0.9684
5.8897 5.1791 -1.6535 0.9684
5.5023 5.5876 -1.6532 0.9685
4.4145 6.4779 -1.6526 0.9685
2.8192 4.4740 -1.1149 0.9786
2.6596 4.5772 -1.1160 0.9786
3.6916 6.9132 -1.6522 0.9685
3.4408 7.0406 -1.6521 0.9685
3.1855 7.1589 -1.6519 0.9685
2.1273 7.5384 -1.6513 0.9685
1.8552 7.6091 -1.6511 0.9685
0.4665 7.8142 -1.6503 0.9685
0.1857 7.8251 -1.6502 0.9685
-0.0953 7.8259 -1.6500 0.9685
-0.6564 7.7973 -1.6496 0.9685
-1.7649 7.6200 -1.6490 0.9685
-2.0371 7.5510 -1.6488 0.9685
-2.3066 7.4722 -1.6486 0.9685
-2.8362 7.2860 -1.6483 0.9685
-3.0956 7.1788 -1.6482 0.9685
-3.3510 7.0624 -1.6480 0.9685
-4.5561 6.3477 -1.6472 0.9686
-4.9989 6.0034 -1.6470 0.9686
-5.2108 5.8196 -1.6468 0.9686
-5.4159 5.6283 -1.6467 0.9686
-5.8048 5.2245 -1.6464 0.9686
-6.9008 4.9800 -1.7941 0.9658
-7.0907 4.7395 -1.7980 0.9657
-7.2558 4.4816 -1.7979 0.9657
-7.4116 4.2180 -1.7978 0.9657
-7.6943 3.6750 -1.7976 0.9657
-1.6130 0.5025 -0.3562 0.9931
-1.5696 0.1932 -0.3334 0.9936
-1.5728 0.1365 -0.3328 0.9936
-1.5740 0.0798 -0.3323 0.9936
-1.5731 0.0232 -0.3317 0.9936
-1.5734 -0.0333 -0.3318 0.9936
-1.5688 -0.2033 -0.3335 0.9936
-1.5695 -0.3193 -0.3377 0.9935
-1.5865 -0.3825 -0.3441 0.9934
-7.7976 -3.4458 -1.7972 0.9658
-7.6691 -3.7236 -1.7973 0.9657
-7.5308 -3.9966 -1.7974 0.9657
-7.0585 -4.7837 -1.7976 0.9657
-6.8826 -5.0343 -1.7977 0.9657
-6.6978 -5.2784 -1.7978 0.9657
-6.0927 -5.9689 -1.7981 0.9657
-5.8749 -6.1842 -1.7983 0.9657
-5.6495 -6.3916 -1.7984 0.9657
-5.4168 -6.5907 -1.7985 0.9657
-5.1771 -6.7814 -1.7987 0.9657
-4.6780 -7.1365 -1.7989 0.9657
-4.1546 -7.4550 -1.7992 0.9657
-3.0459 -7.9757 -1.7999 0.9657
-2.7580 -8.0806 -1.8000 0.9657
-1.2714 -8.4473 -1.8009 0.9657
-0.9675 -8.4884 -1.8011 0.9657
-0.3310 -7.9367 -1.8015 0.9679
-0.0459 -7.9443 -1.8017 0.9679
0.2394 -7.9415 -1.8019 0.9679
1.0920 -7.8720 -1.8024 0.9679
1.3740 -7.8285 -1.8025 0.9679
1.6543 -7.7749 -1.8027 0.9679
1.9325 -7.7112 -1.8029 0.9679
3.7919 -6.9928 -1.8040 0.9679
4.0408 -6.8528 -1.8042 0.9679
4.5229 -6.5463 -1.8045 0.9679
4.5819 -6.1475 -1.7388 0.9690
4.9817 -6.2059 -1.8048 0.9679
5.2016 -6.0236 -1.8049 0.9679
5.6212 -5.6357 -1.8052 0.9679
5.8203 -5.4306 -1.8053 0.9679
6.3717 -4.7745 -1.8057 0.9679
6.5394 -4.5429 -1.8058 0.9679
6.8493 -4.0625 -1.8060 0.9679
6.9910 -3.8142 -1.8061 0.9679
7.1238 -3.5610 -1.8062 0.9679
7.2474 -3.3032 -1.8063 0.9679
7.5614 -2.5052 -1.8065 0.9679
7.6468 -2.2322 -1.8066 0.9679
7.7877 -1.6779 -1.8067 0.9679
7.8884 -1.1150 -1.8068 0.9679
7.9629 -0.2605 -1.8068 0.9679
7.9672 0.0255 -1.8069 0.9678
7.9449 0.5971 -1.8069 0.9678
7.9183 0.8819 -1.8069 0.9678
7.8345 1.4477 -1.8068 0.9679
7.7103 2.0060 -1.8068 0.9679
7.5462 2.5539 -1.8067 0.9679
7.3431 3.0886 -1.8066 0.9679
6.4617 4.2120 -1.7493 0.9689
6.0026 4.2273 -1.6650 0.9703
5.6438 4.6143 -1.6533 0.9705
5.4742 4.8137 -1.6532 0.9705
4.9241 5.3733 -1.6529 0.9705
4.5253 5.7120 -1.6527 0.9706
4.3170 5.8703 -1.6525 0.9706
3.4313 6.4258 -1.6520 0.9706
3.1982 6.5443 -1.6519 0.9706
2.4755 6.8484 -1.6515 0.9706
1.7245 7.0730 -1.6510 0.9706
0.9538 7.2154 -1.6506 0.9706
0.1726 7.2740 -1.6501 0.9706
-0.0886 7.2748 -1.6500 0.9706
-0.6102 7.2484 -1.6496 0.9706
-0.8699 7.2211 -1.6495 0.9706
-1.1285 7.1845 -1.6493 0.9706
-1.3855 7.1387 -1.6492 0.9706
-1.6407 7.0837 -1.6490 0.9706
-2.1443 6.9464 -1.6487 0.9706
-2.3921 6.8644 -1.6486 0.9706
-2.8779 6.6739 -1.6483 0.9706
-3.5777 6.3241 -1.6478 0.9706
-3.8021 6.1911 -1.6477 0.9706
-4.2358 5.9014 -1.6474 0.9706
-4.4445 5.7450 -1.6473 0.9706
-4.8445 5.4105 -1.6470 0.9707
-5.0352 5.2328 -1.6469 0.9707
-5.2194 5.0483 -1.6468 0.9707
-5.3969 4.8573 -1.6467 0.9707
-5.5782 4.6692 -1.6497 0.9706
-6.2360 4.8499 -1.7916 0.9681
-6.8909 3.9217 -1.7981 0.9680
-7.2715 3.1577 -1.7979 0.9680
-1.4783 0.4605 -0.3511 0.9937
-1.4420 0.2837 -0.3333 0.9940
-1.4491 0.2314 -0.3328 0.9940
-1.4585 0.0739 -0.3312 0.9940
-1.4578 0.0215 -0.3307 0.9940
-1.4581 -0.0308 -0.3308 0.9940
-1.4584 -0.0833 -0.3313 0.9940
-1.4695 -0.4106 -0.3460 0.9938
-7.2500 -3.2038 -1.7976 0.9680
-7.1305 -3.4621 -1.7976 0.9680
-7.0019 -3.7159 -1.7977 0.9680
-6.8643 -3.9650 -1.7978 0.9680
-6.0475 -5.1282 -1.7982 0.9680
-5.8598 -5.3423 -1.7983 0.9680
-5.6646 -5.5495 -1.7984 0.9680
-4.5842 -6.4740 -1.7990 0.9680
-4.3492 -6.6349 -1.7992 0.9680
-4.1085 -6.7872 -1.7993 0.9680
-3.8625 -6.9309 -1.7994 0.9680
-3.0958 -7.3077 -1.7999 0.9680
-2.5640 -7.5123 -1.8002 0.9680
-1.7420 -7.7465 -1.8007 0.9680
-1.4629 -7.8047 -1.8008 0.9680
-1.1819 -7.8529 -1.8010 0.9680
-0.8994 -7.8911 -1.8012 0.9679
-0.5748 -7.3950 -1.8014 0.9699
0.2235 -7.4159 -1.8019 0.9699
0.7551 -7.3820 -1.8022 0.9699
1.0197 -7.3508 -1.8023 0.9699
1.2831 -7.3101 -1.8025 0.9699
1.8046 -7.2005 -1.8028 0.9699
2.5688 -6.9666 -1.8033 0.9699
3.0626 -6.7655 -1.8036 0.9699
3.3037 -6.6517 -1.8038 0.9699
3.5407 -6.5294 -1.8039 0.9699
4.2231 -6.1124 -1.8043 0.9699
4.6514 -5.7945 -1.8046 0.9699
4.8568 -5.6242 -1.8047 0.9699
5.6133 -4.8725 -1.8052 0.9699
5.7849 -4.6682 -1.8053 0.9699
5.9491 -4.4578 -1.8054 0.9699
6.2543 -4.0199 -1.8056 0.9699
6.3949 -3.7930 -1.8057 0.9699
6.5273 -3.5612 -1.8058 0.9699
6.6512 -3.3248 -1.8059 0.9699
6.7666 -3.0840 -1.8060 0.9699
7.1394 -2.0841 -1.8063 0.9698
7.3649 -1.0410 -1.8064 0.9698
7.3977 -0.7759 -1.8065 0.9698
7.4208 -0.5099 -1.8065 0.9698
7.4328 0.2908 -1.8066 0.9698
7.4176 0.5575 -1.8066 0.9698
7.3928 0.8234 -1.8066 0.9698
7.3585 1.0882 -1.8065 0.9698
7.3146 1.3516 -1.8065 0.9698
7.2613 1.6133 -1.8065 0.9698
7.1986 1.8729 -1.8065 0.9698
7.1266 2.1301 -1.8065 0.9698
6.7477 3.1278 -1.8063 0.9698
6.6309 3.3679 -1.8062 0.9699
6.3670 3.8318 -1.8047 0.9699
6.2123 4.0494 -1.8010 0.9699
5.9738 4.2071 -1.7745 0.9704
5.5592 4.2215 -1.6953 0.9717
5.1111 4.4944 -1.6530 0.9724
4.9462 4.6747 -1.6529 0.9724
4.7749 4.8490 -1.6528 0.9724
4.5975 5.0169 -1.6527 0.9724
4.4142 5.1784 -1.6526 0.9724
4.2252 5.3332 -1.6525 0.9724
3.8311 5.6218 -1.6522 0.9724
2.9862 6.1105 -1.6518 0.9724
2.7647 6.2133 -1.6516 0.9724
2.5397 6.3080 -1.6515 0.9724
2.0803 6.4729 -1.6512 0.9724
1.8464 6.5429 -1.6511 0.9724
1.6102 6.6044 -1.6509 0.9724
1.1321 6.7017 -1.6507 0.9724
0.8907 6.7375 -1.6505 0.9724
0.4049 6.7828 -1.6502 0.9724
0.1612 6.7924 -1.6501 0.9724
-0.5698 6.7685 -1.6496 0.9724
-0.8124 6.7431 -1.6495 0.9724
-1.2938 6.6663 -1.6492 0.9724
-1.5321 6.6150 -1.6491 0.9724
-1.7685 6.5551 -1.6489 0.9724
-2.0024 6.4869 -1.6488 0.9724
-2.2338 6.4102 -1.6486 0.9724
-2.4623 6.3254 -1.6485 0.9724
-2.6875 6.2324 -1.6484 0.9724
-2.9093 6.1314 -1.6482 0.9725
-3.1272 6.0225 -1.6481 0.9725
-3.9557 5.5112 -1.6476 0.9725
-4.1507 5.3652 -1.6474 0.9725
-4.7024 4.8869 -1.6471 0.9725
-5.0402 4.5363 -1.6469 0.9725
-5.8317 4.5355 -1.7942 0.9700
-6.0044 4.3331 -1.7983 0.9700
-1.3767 0.5979 -0.3645 0.9938
-1.3555 0.3694 -0.3412 0.9942
-1.3423 0.2641 -0.3323 0.9944
-1.3491 0.2154 -0.3318 0.9944
-1.3540 0.1666 -0.3313 0.9944
-1.3583 0.0689 -0.3303 0.9944
-1.3579 -0.0287 -0.3299 0.9944
-1.3582 -0.0776 -0.3304 0.9944
-1.3566 -0.1265 -0.3309 0.9944
-1.3480 -0.2241 -0.3319 0.9944
-1.3410 -0.2728 -0.3323 0.9944
-1.3649 -0.4348 -0.3479 0.9941
-1.3709 -0.4916 -0.3537 0.9940
-6.6596 -3.2334 -1.7979 0.9700
-6.5394 -3.4705 -1.7980 0.9700
-6.1292 -4.1539 -1.7982 0.9700
-5.8159 -4.5834 -1.7984 0.9700
-5.6479 -4.7894 -1.7985 0.9700
-5.4727 -4.9893 -1.7986 0.9700
-5.2903 -5.1829 -1.7987 0.9700
-5.1012 -5.3697 -1.7988 0.9700
-4.9054 -5.5497 -1.7989 0.9700
-4.0617 -6.1963 -1.7994 0.9700
-3.8369 -6.3386 -1.7995 0.9700
-3.1340 -6.7158 -1.7999 0.9700
-2.6445 -6.9245 -1.8002 0.9699
-1.8852 -7.1704 -1.8006 0.9699
-1.3662 -7.2884 -1.8009 0.9699
-1.1037 -7.3334 -1.8011 0.9699
-0.8399 -7.3689 -1.8012 0.9699
-0.2897 -6.9482 -1.8016 0.9717
0.7079 -6.9205 -1.8022 0.9717
1.2028 -6.8530 -1.8025 0.9717
1.6917 -6.7502 -1.8028 0.9717
1.9330 -6.6856 -1.8029 0.9717
2.1720 -6.6125 -1.8031 0.9717
2.4081 -6.5308 -1.8032 0.9716
3.7502 -5.8678 -1.8041 0.9716
4.1621 -5.5844 -1.8043 0.9716
4.7393 -5.1056 -1.8047 0.9716
4.9199 -4.9325 -1.8048 0.9716
5.7232 -3.9759 -1.8053 0.9716
5.9943 -3.5554 -1.8055 0.9716
6.4426 -2.6614 -1.8058 0.9716
6.6174 -2.1924 -1.8059 0.9716
6.6920 -1.9535 -1.8060 0.9716
6.8153 -1.4684 -1.8061 0.9716
6.8638 -1.2229 -1.8061 0.9716
6.9341 -0.7273 -1.8062 0.9716
6.9686 -0.2279 -1.8062 0.9716
6.9671 0.2726 -1.8063 0.9716
6.9528 0.5225 -1.8063 0.9716
6.9295 0.7718 -1.8063 0.9716
6.8973 1.0200 -1.8063 0.9716
6.8562 1.2669 -1.8063 0.9716
6.7475 1.7555 -1.8062 0.9716
6.6800 1.9966 -1.8062 0.9716
6.5193 2.4706 -1.8061 0.9716
6.3249 2.9318 -1.8060 0.9716
6.2154 3.1569 -1.8060 0.9716
5.8365 3.8045 -1.8049 0.9716
5.6853 4.0039 -1.8014 0.9717
5.1563 4.2158 -1.7254 0.9729
4.8092 4.2290 -1.6591 0.9739
4.4759 4.5453 -1.6526 0.9740
4.3096 4.7027 -1.6525 0.9740
3.5913 5.2698 -1.6521 0.9740
2.8125 4.4634 -1.3667 0.9784
2.5917 5.8244 -1.6515 0.9740
1.2862 6.2409 -1.6507 0.9740
0.8350 6.3160 -1.6505 0.9740
0.3796 6.3586 -1.6502 0.9740
0.1511 6.3676 -1.6501 0.9740
-0.0776 6.3684 -1.6499 0.9740
-0.5342 6.3454 -1.6497 0.9740
-1.2130 6.2496 -1.6492 0.9740
-1.4364 6.2015 -1.6491 0.9740
-1.6579 6.1455 -1.6490 0.9740
-1.8773 6.0815 -1.6488 0.9740
-2.0942 6.0097 -1.6487 0.9740
-2.3084 5.9302 -1.6486 0.9740
-2.5196 5.8430 -1.6484 0.9740
-2.9319 5.6463 -1.6482 0.9741
-3.3289 5.4206 -1.6479 0.9741
-3.5211 5.2972 -1.6478 0.9741
-3.8915 5.0302 -1.6476 0.9741
-4.0693 4.8870 -1.6475 0.9741
-4.2418 4.7374 -1.6474 0.9741
-4.4088 4.5818 -1.6472 0.9741
-4.5702 4.4203 -1.6471 0.9741
-4.9595 4.4636 -1.7286 0.9728
-5.3080 4.4430 -1.7932 0.9718
-5.4752 4.2583 -1.7969 0.9717
-5.7727 3.8585 -1.7988 0.9717
-5.9072 3.6487 -1.7987 0.9717
-6.0341 3.4341 -1.7986 0.9717
-1.2890 0.5056 -0.3587 0.9943
-1.2874 0.4523 -0.3535 0.9944
-1.2846 0.4001 -0.3485 0.9945
-1.2805 0.3490 -0.3438 0.9945
-1.2765 0.2991 -0.3397 0.9946
-1.2799 0.2518 -0.3379 0.9946
-1.2877 0.1585 -0.3361 0.9947
-1.2899 0.1119 -0.3354 0.9947
-1.2910 0.0654 -0.3349 0.9947
-1.2909 0.0190 -0.3344 0.9947
-1.2896 -0.1202 -0.3355 0.9947
-1.2790 -0.2602 -0.3381 0.9946
-1.2771 -0.3079 -0.3403 0.9946
-1.2852 -0.4094 -0.3494 0.9944
-1.2878 -0.4618 -0.3544 0.9944
-1.2879 -0.6253 -0.3709 0.9941
-5.8826 -3.6858 -1.7984 0.9717
-5.7467 -3.8947 -1.7984 0.9717
-5.6035 -4.0987 -1.7985 0.9717
-5.2955 -4.4905 -1.7987 0.9717
-5.1311 -4.6780 -1.7988 0.9717
-4.0139 -5.6686 -1.7994 0.9717
-3.1622 -6.1865 -1.7999 0.9717
-2.4793 -6.4920 -1.8003 0.9717
-2.0075 -6.6541 -1.8006 0.9717
-1.5251 -6.7821 -1.8008 0.9717
-1.2808 -6.8330 -1.8010 0.9717
-1.0348 -6.8751 -1.8011 0.9717
-0.7874 -6.9084 -1.8013 0.9717
-0.5070 -6.5219 -1.8015 0.9732
-0.2726 -6.5364 -1.8016 0.9732
-0.0378 -6.5425 -1.8018 0.9732
0.1971 -6.5402 -1.8019 0.9732
0.4318 -6.5294 -1.8020 0.9732
0.8993 -6.4826 -1.8023 0.9732
1.1315 -6.4467 -1.8025 0.9732
1.5914 -6.3498 -1.8027 0.9732
1.8184 -6.2891 -1.8029 0.9732
2.0432 -6.2203 -1.8030 0.9732
2.2653 -6.1434 -1.8032 0.9732
2.4845 -6.0586 -1.8033 0.9732
2.7006 -5.9659 -1.8034 0.9732
3.1221 -5.7576 -1.8037 0.9732
3.3271 -5.6422 -1.8038 0.9732
3.5277 -5.5196 -1.8039 0.9732
3.7238 -5.3897 -1.8041 0.9732
3.9151 -5.2529 -1.8042 0.9732
4.2825 -4.9592 -1.8044 0.9732
4.4580 -4.8025 -1.8045 0.9732
4.6278 -4.6397 -1.8046 0.9732
4.7916 -4.4708 -1.8047 0.9732
5.2454 -3.9305 -1.8050 0.9732
5.7550 -3.1399 -1.8054 0.9732
6.0599 -2.5033 -1.8056 0.9732
6.1461 -2.2842 -1.8057 0.9732
6.2243 -2.0622 -1.8057 0.9732
6.2945 -1.8375 -1.8058 0.9732
6.4933 -0.9178 -1.8059 0.9732
6.5221 -0.6841 -1.8060 0.9732
6.4019 1.4224 -1.8060 0.9732
6.3466 1.6512 -1.8060 0.9732
6.2832 1.8780 -1.8059 0.9732
6.2116 2.1023 -1.8059 0.9732
6.0445 2.5424 -1.8058 0.9732
5.8462 2.9693 -1.8057 0.9732
5.7357 3.1772 -1.8057 0.9732
5.6177 3.3809 -1.8056 0.9732
5.4925 3.5803 -1.8055 0.9732
5.3592 3.7742 -1.8051 0.9732
5.0570 4.1346 -1.7988 0.9733
4.7877 4.2100 -1.7557 0.9739
4.4667 4.2215 -1.6925 0.9748
4.2101 4.2754 -1.6524 0.9754
4.0537 4.4235 -1.6523 0.9754
3.8921 4.5659 -1.6522 0.9754
3.7255 4.7024 -1.6521 0.9754
3.5541 4.8328 -1.6520 0.9754
3.3781 4.9570 -1.6519 0.9754
2.6451 4.5521 -1.4499 0.9784
2.8251 5.2904 -1.6516 0.9754
2.2395 5.5623 -1.6513 0.9754
1.8344 5.7078 -1.6510 0.9754
1.6282 5.7696 -1.6509 0.9754
1.4199 5.8239 -1.6508 0.9754
1.2099 5.8707 -1.6507 0.9754
0.9983 5.9099 -1.6506 0.9754
0.3571 5.9816 -1.6502 0.9754
-0.2880 5.9839 -1.6498 0.9755
-0.7164 5.9468 -1.6495 0.9755
-0.9294 5.9168 -1.6494 0.9755
-1.3513 5.8340 -1.6491 0.9755
-1.5597 5.7813 -1.6490 0.9755
-1.9702 5.6536 -1.6488 0.9755
-2.1717 5.5788 -1.6486 0.9755
-2.3703 5.4969 -1.6485 0.9755
-2.7582 5.3119 -1.6483 0.9755
-2.9469 5.2091 -1.6482 0.9755
-3.1318 5.0996 -1.6480 0.9755
-3.3126 4.9835 -1.6479 0.9755
-3.4891 4.8611 -1.6478 0.9755
-3.6611 4.7324 -1.6477 0.9755
-4.8391 4.3553 -1.7929 0.9734
-5.1571 4.0109 -1.7992 0.9733
-5.4311 3.6302 -1.7990 0.9733
-5.5576 3.4327 -1.7989 0.9733
-5.6770 3.2309 -1.7988 0.9733
-1.2201 0.6375 -0.3791 0.9943
-1.2235 0.5844 -0.3734 0.9944
-1.2235 0.3811 -0.3529 0.9947
-1.2221 0.3331 -0.3488 0.9948
-1.2212 0.2862 -0.3454 0.9948
-1.2268 0.2414 -0.3443 0.9948
-1.2346 0.1520 -0.3425 0.9949
-1.2377 -0.0707 -0.3414 0.9949
-1.2341 -0.1599 -0.3427 0.9949
-1.2305 -0.2046 -0.3435 0.9948
-1.2207 -0.2943 -0.3458 0.9948
-1.2240 -0.3899 -0.3538 0.9947
-1.2261 -0.4900 -0.3636 0.9945
-1.2193 -0.6471 -0.3801 0.9943
-5.6553 -3.2667 -1.7985 0.9733
-5.4067 -3.6643 -1.7987 0.9733
-5.2719 -3.8561 -1.7987 0.9733
-4.4997 -4.7366 -1.7992 0.9733
-4.3270 -4.8953 -1.7993 0.9733
-3.9651 -5.1938 -1.7995 0.9733
-3.5827 -5.4655 -1.7997 0.9733
-2.7643 -5.9236 -1.8001 0.9732
-2.1119 -6.1877 -1.8005 0.9732
-0.9735 -6.4678 -1.8012 0.9732
-0.2572 -6.1678 -1.8016 0.9746
1.0677 -6.0829 -1.8024 0.9746
1.5016 -5.9915 -1.8027 0.9746
1.7158 -5.9342 -1.8028 0.9746
1.9278 -5.8692 -1.8030 0.9746
2.1374 -5.7966 -1.8031 0.9746
2.5482 -5.6291 -1.8033 0.9746
2.7488 -5.5344 -1.8035 0.9746
3.1392 -5.3237 -1.8037 0.9746
3.3285 -5.2079 -1.8038 0.9746
3.5135 -5.0854 -1.8040 0.9746
3.6940 -4.9563 -1.8041 0.9746
4.3664 -4.3776 -1.8045 0.9746
4.5210 -4.2183 -1.8046 0.9746
4.6697 -4.0535 -1.8047 0.9746
4.8125 -3.8835 -1.8048 0.9746
4.9490 -3.7084 -1.8049 0.9746
5.2028 -3.3441 -1.8050 0.9746
5.3198 -3.1553 -1.8051 0.9746
5.4298 -2.9625 -1.8052 0.9746
5.5329 -2.7657 -1.8053 0.9746
5.8725 -1.9456 -1.8055 0.9746
5.9387 -1.7336 -1.8056 0.9746
5.9973 -1.5194 -1.8056 0.9745
6.0481 -1.3032 -1.8056 0.9745
6.1874 0.0198 -1.8058 0.9745
6.1208 0.9052 -1.8058 0.9745
6.0400 1.3420 -1.8058 0.9745
5.9879 1.5579 -1.8057 0.9745
5.7854 2.1925 -1.8057 0.9745
5.7029 2.3987 -1.8056 0.9745
5.4115 2.9976 -1.8055 0.9746
5.0574 3.5616 -1.8053 0.9746
4.9261 3.7407 -1.8052 0.9746
4.7814 3.9092 -1.8025 0.9746
4.1507 4.2151 -1.7265 0.9757
3.8717 4.2250 -1.6725 0.9764
3.6722 4.3080 -1.6521 0.9767
3.5150 4.4368 -1.6520 0.9767
3.1873 4.6770 -1.6518 0.9767
2.8079 4.4561 -1.5372 0.9783
2.6414 4.5458 -1.5344 0.9783
2.6655 4.9917 -1.6515 0.9767
2.1131 5.2483 -1.6512 0.9767
1.9232 5.3204 -1.6511 0.9767
1.1416 5.5393 -1.6506 0.9767
-0.0689 5.6528 -1.6499 0.9767
-0.6760 5.6114 -1.6495 0.9767
-1.0767 5.5477 -1.6493 0.9767
-1.2751 5.5050 -1.6492 0.9767
-1.6665 5.3986 -1.6489 0.9767
-2.0492 5.2643 -1.6487 0.9767
-2.4213 5.1030 -1.6485 0.9767
-2.7808 4.9155 -1.6482 0.9767
-3.2925 4.5872 -1.6479 0.9767
-3.4548 4.4657 -1.6478 0.9767
-3.8247 4.2716 -1.6734 0.9764
-4.4161 4.2713 -1.7930 0.9747
-4.5742 4.1168 -1.7960 0.9747
-5.1252 3.4258 -1.7992 0.9746
-1.1548 0.6572 -0.3878 0.9945
-1.1604 0.6063 -0.3821 0.9946
-1.1697 0.3644 -0.3576 0.9949
-1.1696 0.3187 -0.3538 0.9950
-1.1720 0.2746 -0.3513 0.9950
-1.1874 0.1030 -0.3478 0.9950
-1.1884 0.0603 -0.3473 0.9951
-1.1884 -0.0251 -0.3469 0.9951
-1.1883 -0.0679 -0.3474 0.9951
-1.1847 -0.1535 -0.3486 0.9950
-1.1812 -0.1964 -0.3495 0.9950
-1.1709 -0.2823 -0.3515 0.9950
-1.1697 -0.3268 -0.3544 0.9950
-1.1688 -0.4191 -0.3624 0.9948
-1.1684 -0.4670 -0.3672 0.9948
-5.3369 -3.0828 -1.7987 0.9746
-5.2229 -3.2724 -1.7988 0.9746
-5.1023 -3.4579 -1.7989 0.9746
-4.8414 -3.8154 -1.7990 0.9746
-4.7015 -3.9869 -1.7991 0.9746
-4.5556 -4.1533 -1.7992 0.9746
-4.4038 -4.3143 -1.7992 0.9746
-4.2463 -4.4698 -1.7993 0.9746
-3.1937 -5.2760 -1.7999 0.9746
-2.8073 -5.4922 -1.8001 0.9746
-2.6085 -5.5898 -1.8003 0.9746
-1.7821 -5.9071 -1.8007 0.9746
-1.5690 -5.9677 -1.8009 0.9746
-1.3539 -6.0206 -1.8010 0.9746
-0.9186 -6.1031 -1.8012 0.9746
-0.6990 -6.1326 -1.8014 0.9746
-0.4526 -5.8229 -1.8015 0.9758
0.3855 -5.8293 -1.8020 0.9758
0.5945 -5.8121 -1.8022 0.9758
0.8029 -5.7875 -1.8023 0.9758
1.2162 -5.7157 -1.8025 0.9758
1.4207 -5.6688 -1.8027 0.9758
1.8240 -5.5530 -1.8029 0.9758
2.6007 -5.2362 -1.8034 0.9758
3.1491 -4.9272 -1.8037 0.9758
3.3241 -4.8113 -1.8038 0.9758
3.4949 -4.6891 -1.8040 0.9758
3.6612 -4.5609 -1.8041 0.9758
3.8228 -4.4268 -1.8042 0.9758
4.1310 -4.1416 -1.8044 0.9758
4.2772 -3.9908 -1.8045 0.9758
4.4179 -3.8349 -1.8046 0.9758
4.6821 -3.5084 -1.8047 0.9758
5.0328 -2.9851 -1.8050 0.9758
5.3252 -2.4271 -1.8052 0.9758
5.4859 -2.0389 -1.8053 0.9758
5.6738 -1.4374 -1.8054 0.9758
5.7957 -0.8192 -1.8055 0.9758
5.8215 -0.6106 -1.8055 0.9758
5.8491 0.2288 -1.8056 0.9758
5.7142 1.2696 -1.8056 0.9758
5.6082 1.6762 -1.8055 0.9758
5.5443 1.8764 -1.8055 0.9758
5.4733 2.0742 -1.8055 0.9758
5.3952 2.2693 -1.8054 0.9758
5.3101 2.4614 -1.8054 0.9758
5.2182 2.6504 -1.8053 0.9758
5.1196 2.8359 -1.8053 0.9758
4.9026 3.1957 -1.8052 0.9758
4.7846 3.3695 -1.8051 0.9758
4.5302 3.7038 -1.8050 0.9758
4.3897 3.8600 -1.8031 0.9758
4.0897 4.1531 -1.7979 0.9759
3.5955 4.2179 -1.7096 0.9771
2.8056 4.4525 -1.6233 0.9782
2.6377 4.5394 -1.6194 0.9783
2.3506 4.8098 -1.6513 0.9778
2.1762 4.8908 -1.6512 0.9778
1.8195 5.0337 -1.6510 0.9778
1.6376 5.0954 -1.6509 0.9778
1.2676 5.1991 -1.6507 0.9778
1.0801 5.2409 -1.6506 0.9778
0.8912 5.2759 -1.6505 0.9779
0.5103 5.3255 -1.6502 0.9779
0.3188 5.3400 -1.6501 0.9779
0.1269 5.3477 -1.6500 0.9779
-0.0652 5.3484 -1.6499 0.9779
-0.4487 5.3292 -1.6497 0.9779
-1.3925 5.1617 -1.6491 0.9779
-1.5768 5.1080 -1.6490 0.9779
-1.7590 5.0478 -1.6489 0.9779
-1.9390 4.9810 -1.6487 0.9779
-2.4627 4.7428 -1.6484 0.9779
-2.7963 4.5533 -1.6482 0.9779
-3.1154 4.3404 -1.6480 0.9779
-3.8088 4.2538 -1.7612 0.9764
-4.1859 4.0486 -1.7963 0.9759
-4.4737 3.7446 -1.7996 0.9759
-4.8496 3.2416 -1.7993 0.9759
-4.9627 3.0653 -1.7992 0.9759
-1.0997 0.6259 -0.3903 0.9947
-1.1104 0.5304 -0.3796 0.9949
-1.1137 0.4837 -0.3745 0.9949
-1.1191 0.3932 -0.3659 0.9950
-1.1206 0.3491 -0.3620 0.9951
-1.1316 0.2227 -0.3558 0.9952
-1.1360 0.1814 -0.3548 0.9952
-1.1392 0.1402 -0.3541 0.9952
-1.1414 0.0991 -0.3534 0.9952
-1.1423 0.0168 -0.3524 0.9952
-1.1387 -0.1476 -0.3542 0.9952
-1.1307 -0.2300 -0.3559 0.9952
-1.1204 -0.3569 -0.3627 0.9951
-1.1097 -0.5388 -0.3805 0.9948
-1.0985 -0.6345 -0.3913 0.9947
-4.9422 -3.0965 -1.7990 0.9759
-4.8280 -3.2721 -1.7990 0.9759
-4.7076 -3.4434 -1.7991 0.9759
-4.5811 -3.6103 -1.7992 0.9759
-4.4488 -3.7725 -1.7992 0.9759
-4.3107 -3.9300 -1.7993 0.9759
-4.1670 -4.0824 -1.7994 0.9759
-4.0180 -4.2295 -1.7995 0.9759
-3.7045 -4.5073 -1.7996 0.9759
-3.3719 -4.7620 -1.7998 0.9759
-3.1990 -4.8802 -1.7999 0.9759
-2.8409 -5.0977 -1.8001 0.9759
-2.6563 -5.1967 -1.8002 0.9759
-2.2769 -5.3746 -1.8005 0.9759
-1.8856 -5.5248 -1.8007 0.9759
-1.6862 -5.5893 -1.8008 0.9759
-1.0758 -5.7393 -1.8012 0.9759
-0.6613 -5.8025 -1.8014 0.9759
-0.4293 -5.5228 -1.8016 0.9770
-0.2308 -5.5350 -1.8017 0.9770
-0.0320 -5.5401 -1.8018 0.9770
1.1535 -5.4210 -1.8025 0.9770
1.5396 -5.3250 -1.8028 0.9770
1.9180 -5.2014 -1.8030 0.9770
2.2865 -5.0511 -1.8032 0.9769
2.6433 -4.8746 -1.8034 0.9769
2.8168 -4.7769 -1.8035 0.9769
3.3146 -4.4472 -1.8039 0.9769
4.0564 -3.7849 -1.8043 0.9769
4.4404 -3.3273 -1.8046 0.9769
4.5572 -3.1659 -1.8047 0.9769
4.6681 -3.0004 -1.8047 0.9769
4.7730 -2.8310 -1.8048 0.9769
4.8717 -2.6579 -1.8049 0.9769
5.0502 -2.3017 -1.8050 0.9769
5.1297 -2.1190 -1.8051 0.9769
5.2026 -1.9336 -1.8051 0.9769
5.2688 -1.7456 -1.8052 0.9769
5.3282 -1.5554 -1.8052 0.9769
5.3807 -1.3632 -1.8052 0.9769
5.4649 -0.9737 -1.8053 0.9769
5.5208 -0.5791 -1.8054 0.9769
5.5483 -0.1815 -1.8054 0.9769
5.5470 0.2171 -1.8054 0.9769
5.4915 0.8121 -1.8054 0.9769
5.4190 1.2040 -1.8054 0.9769
5.3723 1.3977 -1.8054 0.9769
5.3186 1.5896 -1.8053 0.9769
5.2580 1.7795 -1.8053 0.9769
5.1906 1.9671 -1.8053 0.9769
5.0359 2.3343 -1.8052 0.9769
4.9488 2.5135 -1.8052 0.9769
4.8552 2.6895 -1.8051 0.9769
4.7554 2.8619 -1.8051 0.9769
4.5375 3.1955 -1.8049 0.9769
4.4197 3.3562 -1.8049 0.9769
3.8862 3.9464 -1.8013 0.9770
3.7372 4.0781 -1.7990 0.9770
2.2293 4.5616 -1.6512 0.9789
2.0640 4.6384 -1.6511 0.9789
1.8960 4.7092 -1.6510 0.9789
1.5531 4.8325 -1.6508 0.9789
1.2022 4.9309 -1.6506 0.9789
1.0244 4.9705 -1.6505 0.9789
0.8452 5.0038 -1.6504 0.9789
0.3023 5.0647 -1.6501 0.9789
-0.6066 5.0356 -1.6495 0.9789
-0.7870 5.0102 -1.6494 0.9789
-0.9662 4.9784 -1.6493 0.9789
-1.1443 4.9402 -1.6492 0.9789
-1.3208 4.8956 -1.6491 0.9789
-1.4955 4.8447 -1.6490 0.9789
-1.6684 4.7876 -1.6489 0.9789
-1.8390 4.7244 -1.6488 0.9789
-3.0297 4.2211 -1.6898 0.9784
-3.5157 4.2221 -1.7869 0.9772
-3.8309 3.9812 -1.7969 0.9770
-4.1133 3.7021 -1.7998 0.9770
-4.2434 3.5518 -1.7997 0.9770
-4.3679 3.3971 -1.7996 0.9770
-4.6000 3.0747 -1.7995 0.9770
-1.0413 0.6432 -0.3981 0.9949
-1.0770 0.2936 -0.3631 0.9953
-1.0835 0.2539 -0.3619 0.9953
-1.0931 0.1746 -0.3600 0.9954
-1.0963 0.1349 -0.3592 0.9954
-1.0993 0.0162 -0.3576 0.9954
-1.0994 -0.0233 -0.3576 0.9954
-1.0981 -0.1024 -0.3587 0.9954
-1.0958 -0.1420 -0.3594 0.9954
-1.0924 -0.1816 -0.3602 0.9954
-1.0758 -0.3006 -0.3633 0.9953
-1.0726 -0.3846 -0.3706 0.9952
-1.0599 -0.5146 -0.3832 0.9951
-1.0398 -0.6515 -0.3990 0.9949
-4.5795 -3.1036 -1.7992 0.9770
-3.8111 -4.0118 -1.7996 0.9770
-3.5138 -4.2752 -1.7998 0.9770
-3.1983 -4.5168 -1.7999 0.9770
-2.8663 -4.7351 -1.8001 0.9770
-2.5195 -4.9291 -1.8003 0.9770
-2.3410 -5.0166 -1.8004 0.9770
-2.1596 -5.0977 -1.8005 0.9770
-1.9753 -5.1723 -1.8007 0.9770
-1.7885 -5.2402 -1.8008 0.9770
-1.5993 -5.3013 -1.8009 0.9770
-1.4081 -5.3556 -1.8010 0.9770
-0.8243 -5.4770 -1.8013 0.9770
-0.4081 -5.2495 -1.8016 0.9780
-0.2194 -5.2611 -1.8017 0.9780
-0.0304 -5.2659 -1.8018 0.9780
0.3475 -5.2552 -1.8020 0.9780
0.5360 -5.2397 -1.8022 0.9780
1.2807 -5.1103 -1.8026 0.9780
1.6443 -5.0058 -1.8028 0.9780
1.9994 -4.8756 -1.8031 0.9780
2.1733 -4.8010 -1.8032 0.9780
2.6773 -4.5403 -1.8035 0.9780
2.8387 -4.4415 -1.8036 0.9780
3.1504 -4.2269 -1.8038 0.9780
3.3002 -4.1113 -1.8039 0.9780
3.5871 -3.8643 -1.8041 0.9780
3.7236 -3.7332 -1.8041 0.9780
4.4367 -2.8517 -1.8046 0.9779
4.6302 -2.5262 -1.8047 0.9779
4.7181 -2.3585 -1.8048 0.9779
4.7999 -2.1876 -1.8049 0.9779
4.8754 -2.0140 -1.8049 0.9779
5.1140 -1.2956 -1.8051 0.9779
5.1940 -0.9254 -1.8052 0.9779
5.2635 -0.3617 -1.8052 0.9779
5.2732 -0.1725 -1.8052 0.9779
5.2720 0.2063 -1.8053 0.9779
5.2612 0.3954 -1.8053 0.9779
5.2436 0.5840 -1.8053 0.9779
5.2193 0.7719 -1.8052 0.9779
5.1059 1.3284 -1.8052 0.9779
5.0549 1.5108 -1.8052 0.9779
4.9973 1.6913 -1.8052 0.9779
4.9333 1.8696 -1.8051 0.9779
4.8629 2.0454 -1.8051 0.9779
4.7034 2.3889 -1.8050 0.9779
4.4190 2.8805 -1.8049 0.9779
4.3126 3.0372 -1.8048 0.9779
3.9607 3.4828 -1.8046 0.9779
3.8330 3.6226 -1.8045 0.9780
3.5585 3.8832 -1.8022 0.9780
3.4128 4.0037 -1.8000 0.9780
2.8699 4.2113 -1.7437 0.9787
2.2732 4.2570 -1.6512 0.9798
2.1188 4.3356 -1.6512 0.9798
1.9617 4.4087 -1.6511 0.9798
1.8021 4.4760 -1.6510 0.9798
1.6402 4.5375 -1.6509 0.9798
1.4762 4.5932 -1.6508 0.9798
1.1427 4.6867 -1.6506 0.9798
0.9737 4.7244 -1.6505 0.9798
0.6321 4.7815 -1.6503 0.9798
0.4600 4.8008 -1.6502 0.9798
0.2874 4.8139 -1.6501 0.9798
0.1144 4.8209 -1.6500 0.9798
-0.0587 4.8216 -1.6499 0.9798
-0.4045 4.8043 -1.6497 0.9798
-0.5766 4.7864 -1.6496 0.9798
-0.7480 4.7623 -1.6494 0.9798
-0.9184 4.7321 -1.6493 0.9798
-1.2554 4.6534 -1.6491 0.9798
-1.9080 4.4248 -1.6487 0.9798
-2.2203 4.2760 -1.6485 0.9798
-2.5904 4.2180 -1.6937 0.9793
-3.0187 4.2057 -1.7713 0.9784
-3.3582 4.0329 -1.7957 0.9781
-3.9100 3.5191 -1.7999 0.9780
-4.1520 3.2292 -1.7997 0.9780
-4.2651 3.0779 -1.7997 0.9780
-0.9945 0.6143 -0.4000 0.9951
-1.0026 0.5706 -0.3947 0.9951
-1.0097 0.5276 -0.3898 0.9952
-1.0167 0.4856 -0.3855 0.9952
-1.0224 0.4440 -0.3814 0.9953
-1.0269 0.4028 -0.3774 0.9953
-1.0303 0.3620 -0.3736 0.9954
-1.0325 0.3216 -0.3700 0.9954
-1.0530 0.1682 -0.3648 0.9955
-1.0560 0.1300 -0.3641 0.9955
-1.0591 0.0537 -0.3628 0.9955
-1.0592 -0.0224 -0.3625 0.9955
-1.0479 -0.2131 -0.3659 0.9955
-1.0424 -0.2513 -0.3669 0.9955
-1.0322 -0.3288 -0.3707 0.9954
-1.0155 -0.4931 -0.3863 0.9952
-1.0084 -0.5351 -0.3906 0.9952
-0.9929 -0.6221 -0.4009 0.9951
-0.9832 -0.6663 -0.4064 0.9950
-4.1306 -3.2552 -1.7994 0.9780
-3.1922 -4.1814 -1.8000 0.9780
-2.7246 -4.5010 -1.8002 0.9780
-2.5614 -4.5961 -1.8003 0.9780
-2.3949 -4.6854 -1.8004 0.9780
-2.0528 -4.8456 -1.8006 0.9780
-1.8776 -4.9165 -1.8007 0.9780
-1.5202 -5.0391 -1.8009 0.9780
-1.3385 -5.0907 -1.8010 0.9780
-1.1549 -5.1358 -1.8011 0.9780
-0.9699 -5.1743 -1.8013 0.9780
-0.7836 -5.2061 -1.8014 0.9780
-0.2089 -5.0106 -1.8017 0.9789
-0.0289 -5.0151 -1.8018 0.9789
0.1511 -5.0132 -1.8019 0.9789
0.3310 -5.0049 -1.8020 0.9789
0.8673 -4.9412 -1.8024 0.9789
1.0441 -4.9072 -1.8025 0.9789
1.3937 -4.8202 -1.8027 0.9789
1.5659 -4.7673 -1.8028 0.9789
1.9041 -4.6432 -1.8030 0.9789
2.3927 -4.4124 -1.8033 0.9789
2.8536 -4.1303 -1.8036 0.9789
3.2816 -3.8001 -1.8039 0.9789
3.5461 -3.5552 -1.8040 0.9789
3.6716 -3.4258 -1.8041 0.9789
3.7924 -3.2919 -1.8042 0.9789
4.0191 -3.0116 -1.8044 0.9789
4.2251 -2.7157 -1.8045 0.9789
4.3201 -2.5624 -1.8046 0.9789
4.4094 -2.4057 -1.8046 0.9789
4.5709 -2.0833 -1.8047 0.9789
4.6429 -1.9179 -1.8048 0.9789
4.7089 -1.7501 -1.8048 0.9789
4.7688 -1.5799 -1.8049 0.9789
4.8225 -1.4078 -1.8049 0.9789
4.8700 -1.2338 -1.8049 0.9789
4.9462 -0.8812 -1.8050 0.9789
4.9747 -0.7031 -1.8050 0.9789
5.0243 0.0161 -1.8051 0.9789
5.0205 0.1964 -1.8051 0.9789
5.0102 0.3765 -1.8051 0.9789
4.9935 0.5561 -1.8051 0.9789
4.8623 1.2651 -1.8051 0.9789
4.7589 1.6106 -1.8050 0.9789
4.6980 1.7804 -1.8050 0.9789
4.6309 1.9478 -1.8049 0.9789
4.5579 2.1128 -1.8049 0.9789
4.4791 2.2750 -1.8049 0.9789
4.3944 2.4342 -1.8048 0.9789
4.3041 2.5903 -1.8048 0.9789
4.2082 2.7431 -1.8047 0.9789
3.7718 3.3167 -1.8045 0.9789
3.6502 3.4498 -1.8044 0.9789
3.3930 3.7025 -1.8043 0.9789
3.2557 3.8194 -1.8031 0.9789
3.1131 3.9295 -1.8011 0.9789
2.9670 4.0346 -1.7993 0.9789
2.8175 4.1344 -1.7975 0.9790
2.6488 4.2035 -1.7850 0.9791
2.4463 4.2101 -1.7494 0.9795
2.0629 4.2212 -1.6880 0.9802
1.4087 4.3831 -1.6541 0.9806
0.7651 4.5294 -1.6503 0.9807
0.6020 4.5537 -1.6502 0.9807
0.4381 4.5721 -1.6502 0.9807
0.1089 4.5912 -1.6500 0.9807
-0.0559 4.5919 -1.6499 0.9807
-0.2207 4.5866 -1.6498 0.9807
-0.3852 4.5755 -1.6497 0.9807
-0.8747 4.5067 -1.6494 0.9807
-1.6649 4.2769 -1.6489 0.9807
-1.8230 4.2276 -1.6540 0.9806
-2.0028 4.2211 -1.6786 0.9803
-2.1891 4.2158 -1.7066 0.9800
-2.3817 4.2099 -1.7378 0.9797
-2.5814 4.2035 -1.7722 0.9793
-2.7638 4.1579 -1.7937 0.9790
-3.0605 3.9561 -1.7970 0.9790
-3.3425 3.7331 -1.8002 0.9789
-3.6014 3.4833 -1.8001 0.9789
-0.9306 0.6716 -0.4123 0.9951
-0.9417 0.6294 -0.4069 0.9952
-0.9513 0.5876 -0.4017 0.9953
-0.9607 0.5468 -0.3971 0.9953
-0.9820 0.4265 -0.3846 0.9955
-0.9929 0.3093 -0.3736 0.9956
-1.0203 0.0885 -0.3679 0.9957
-1.0213 0.0518 -0.3674 0.9957
-1.0213 0.0151 -0.3670 0.9957
-1.0200 -0.0951 -0.3680 0.9957
-1.0178 -0.1319 -0.3687 0.9956
-1.0146 -0.1687 -0.3695 0.9956
-1.0049 -0.2423 -0.3714 0.9956
-0.9986 -0.2790 -0.3725 0.9956
-0.9925 -0.3162 -0.3743 0.9956
-0.9898 -0.3549 -0.3778 0.9955
-0.9860 -0.3940 -0.3815 0.9955
-0.9811 -0.4335 -0.3853 0.9955
-0.9750 -0.4734 -0.3894 0.9954
-0.9676 -0.5135 -0.3936 0.9954
-0.9591 -0.5540 -0.3979 0.9953
-0.9497 -0.5950 -0.4026 0.9952
-0.9398 -0.6369 -0.4079 0.9952
-4.0427 -2.9570 -1.7995 0.9789
-3.7018 -3.3749 -1.7997 0.9789
-3.4504 -3.6321 -1.7998 0.9789
-3.3179 -3.7537 -1.7999 0.9789
-3.1812 -3.8706 -1.8000 0.9789
-2.8955 -4.0892 -1.8002 0.9789
-2.2809 -4.4624 -1.8005 0.9789
-2.1194 -4.5416 -1.8006 0.9789
-1.9551 -4.6150 -1.8007 0.9789
-1.7883 -4.6825 -1.8008 0.9789
-1.6191 -4.7439 -1.8009 0.9789
-1.4479 -4.7992 -1.8010 0.9789
-1.0999 -4.8913 -1.8012 0.9789
-0.7462 -4.9582 -1.8014 0.9789
-0.5678 -4.9821 -1.8015 0.9789
-0.3708 -4.7699 -1.8016 0.9798
-0.0276 -4.7848 -1.8018 0.9798
0.1442 -4.7829 -1.8019 0.9798
0.4870 -4.7608 -1.8021 0.9798
0.6576 -4.7406 -1.8023 0.9798
1.1636 -4.6432 -1.8026 0.9797
1.6563 -4.4919 -1.8029 0.9797
1.9746 -4.3620 -1.8031 0.9797
2.1300 -4.2885 -1.8032 0.9797
2.4324 -4.1251 -1.8033 0.9797
2.5791 -4.0353 -1.8034 0.9797
2.8622 -3.8403 -1.8036 0.9797
2.9984 -3.7352 -1.8037 0.9797
3.5027 -3.2682 -1.8040 0.9797
3.6179 -3.1405 -1.8041 0.9797
3.7285 -3.0087 -1.8042 0.9797
3.9350 -2.7337 -1.8043 0.9797
4.0308 -2.5908 -1.8044 0.9797
4.1213 -2.4445 -1.8044 0.9797
4.2066 -2.2950 -1.8045 0.9797
4.2864 -2.1426 -1.8046 0.9797
4.5494 -1.5073 -1.8047 0.9797
4.6006 -1.3430 -1.8048 0.9797
4.6460 -1.1770 -1.8048 0.9797
4.6853 -1.0095 -1.8048 0.9797
4.7186 -0.8407 -1.8049 0.9797
4.7669 -0.5000 -1.8049 0.9797
4.7818 -0.3286 -1.8049 0.9797
4.7905 -0.1567 -1.8049 0.9797
4.7895 0.1874 -1.8050 0.9797
4.7416 0.7012 -1.8050 0.9797
4.6386 1.2068 -1.8049 0.9797
4.5922 1.3726 -1.8049 0.9797
4.5400 1.5365 -1.8049 0.9797
4.4818 1.6985 -1.8048 0.9797
4.3482 2.0156 -1.8048 0.9797
4.2730 2.1703 -1.8047 0.9797
4.1061 2.4712 -1.8047 0.9797
3.8163 2.8980 -1.8045 0.9797
3.7097 3.0330 -1.8044 0.9797
3.5983 3.1641 -1.8044 0.9797
3.4823 3.2912 -1.8043 0.9797
2.2437 4.2017 -1.7937 0.9798
1.6977 4.2167 -1.7117 0.9808
1.5256 4.2206 -1.6900 0.9810
1.3575 4.2241 -1.6708 0.9812
0.8846 4.2925 -1.6504 0.9814
0.4180 4.3620 -1.6501 0.9814
-0.0534 4.3809 -1.6498 0.9814
-0.3675 4.3653 -1.6497 0.9815
-0.5240 4.3490 -1.6496 0.9815
-0.6797 4.3272 -1.6495 0.9815
-1.1417 4.2318 -1.6505 0.9814
-1.3039 4.2240 -1.6647 0.9813
-1.8163 4.2121 -1.7273 0.9806
-2.1817 4.2017 -1.7828 0.9800
-2.4952 4.0629 -1.7955 0.9798
-2.7847 3.8797 -1.7984 0.9798
-2.9248 3.7806 -1.8000 0.9798
-3.1891 3.5617 -1.8003 0.9798
-3.4361 3.3235 -1.8002 0.9798
-0.8905 0.6426 -0.4135 0.9953
-0.9383 0.4482 -0.3916 0.9956
-0.9443 0.4101 -0.3877 0.9956
-0.9531 0.3349 -0.3804 0.9957
-0.9576 0.2983 -0.3777 0.9957
-0.9707 0.2275 -0.3754 0.9957
-0.9757 0.1920 -0.3745 0.9958
-0.9797 0.1565 -0.3736 0.9958
-0.9857 0.0500 -0.3717 0.9958
-0.9858 -0.0209 -0.3713 0.9958
-0.9790 -0.1628 -0.3737 0.9958
-0.9749 -0.1983 -0.3746 0.9958
-0.9634 -0.2692 -0.3767 0.9957
-0.9562 -0.3046 -0.3779 0.9957
-0.9485 -0.3790 -0.3846 0.9956
-0.9296 -0.4934 -0.3963 0.9955
-0.9210 -0.5320 -0.4005 0.9955
-3.6451 -3.0911 -1.7997 0.9798
-3.5320 -3.2200 -1.7998 0.9798
-3.2921 -3.4654 -1.7999 0.9798
-3.1657 -3.5815 -1.8000 0.9798
-3.0352 -3.6929 -1.8001 0.9798
-2.9008 -3.7997 -1.8002 0.9798
-2.7626 -3.9015 -1.8002 0.9798
-2.6209 -3.9984 -1.8003 0.9798
-2.4758 -4.0901 -1.8004 0.9798
-2.3275 -4.1765 -1.8005 0.9798
-2.1762 -4.2576 -1.8006 0.9798
-2.0221 -4.3331 -1.8007 0.9798
-1.8653 -4.4032 -1.8008 0.9798
-1.5448 -4.5261 -1.8009 0.9798
-1.3814 -4.5789 -1.8010 0.9798
-1.0494 -4.6667 -1.8012 0.9798
-0.5417 -4.7533 -1.8015 0.9798
-0.3543 -4.5582 -1.8017 0.9805
-0.1905 -4.5682 -1.8018 0.9805
-0.0264 -4.5723 -1.8018 0.9805
0.3018 -4.5629 -1.8020 0.9805
0.4654 -4.5494 -1.8021 0.9805
0.9519 -4.4738 -1.8024 0.9805
1.1120 -4.4369 -1.8025 0.9805
1.4276 -4.3462 -1.8027 0.9805
1.7359 -4.2330 -1.8029 0.9805
2.0353 -4.0980 -1.8031 0.9805
2.3243 -3.9418 -1.8033 0.9805
2.7350 -3.6696 -1.8035 0.9805
3.1141 -3.3548 -1.8038 0.9805
3.2326 -3.2409 -1.8039 0.9805
3.4571 -3.0009 -1.8040 0.9805
3.5627 -2.8750 -1.8041 0.9805
3.6638 -2.7453 -1.8041 0.9805
3.8516 -2.4756 -1.8043 0.9805
3.9381 -2.3358 -1.8043 0.9805
4.0195 -2.1930 -1.8044 0.9805
4.0958 -2.0474 -1.8044 0.9805
4.2323 -1.7483 -1.8045 0.9805
4.3471 -1.4402 -1.8046 0.9805
4.4394 -1.1247 -1.8047 0.9805
4.4769 -0.9646 -1.8047 0.9805
4.5088 -0.8033 -1.8047 0.9805
4.5549 -0.4778 -1.8048 0.9805
4.5691 -0.3139 -1.8048 0.9805
4.5799 0.0147 -1.8048 0.9805
4.5765 0.1791 -1.8048 0.9805
4.5671 0.3432 -1.8048 0.9805
4.5307 0.6700 -1.8048 0.9805
4.5037 0.8322 -1.8048 0.9805
4.4709 0.9933 -1.8048 0.9805
4.4323 1.1532 -1.8048 0.9805
4.3880 1.3115 -1.8048 0.9805
4.0830 2.0738 -1.8046 0.9805
3.9235 2.3613 -1.8045 0.9805
3.5448 2.8982 -1.8043 0.9805
3.4383 3.0235 -1.8043 0.9805
3.3275 3.1448 -1.8042 0.9805
2.8427 3.5881 -1.8039 0.9805
2.7119 3.6877 -1.8039 0.9805
2.4375 3.8682 -1.8017 0.9805
2.2952 3.9500 -1.8003 0.9806
1.8532 4.1648 -1.7964 0.9806
1.5207 4.2071 -1.7629 0.9810
1.3532 4.2107 -1.7429 0.9812
1.1892 4.2139 -1.7254 0.9814
0.8695 4.2189 -1.6975 0.9817
0.5582 4.2223 -1.6784 0.9819
0.4047 4.2234 -1.6719 0.9819
0.2522 4.2241 -1.6676 0.9820
-0.5087 4.2223 -1.6759 0.9819
-0.6629 4.2208 -1.6837 0.9818
-0.8188 4.2188 -1.6935 0.9817
-1.1368 4.2138 -1.7199 0.9814
-1.2998 4.2106 -1.7366 0.9812
-1.6361 4.2029 -1.7773 0.9808
-2.1003 4.0448 -1.7960 0.9806
-2.2456 3.9694 -1.7972 0.9806
-2.5283 3.8036 -1.7998 0.9806
-2.7958 3.6139 -1.8006 0.9805
-3.2837 3.1760 -1.8003 0.9806
-3.5029 2.9320 -1.8001 0.9806
-0.8547 0.6168 -0.4153 0.9955
-0.8871 0.5049 -0.4022 0.9956
-0.9029 0.4312 -0.3943 0.9957
-0.9141 0.3585 -0.3869 0.9958
-0.9245 0.2880 -0.3816 0.9958
-0.9374 0.2197 -0.3794 0.9959
-0.9462 0.1511 -0.3776 0.9959
-0.9491 0.1168 -0.3768 0.9959
-0.9522 0.0483 -0.3757 0.9959
-0.9508 -0.0887 -0.3763 0.9959
-0.9415 -0.1915 -0.3786 0.9959
-0.9303 -0.2599 -0.3806 0.9959
-0.9232 -0.2941 -0.3818 0.9958
-0.9133 -0.3650 -0.3876 0.9958
-0.9080 -0.4013 -0.3912 0.9957
-0.8942 -0.4745 -0.3989 0.9957
-0.8855 -0.5115 -0.4030 0.9956
-0.8757 -0.5487 -0.4072 0.9956
-0.8647 -0.5860 -0.4116 0.9955
-0.8388 -0.6611 -0.4209 0.9954
-3.4835 -2.9540 -1.7998 0.9806
-3.3753 -3.0772 -1.7999 0.9806
-3.2628 -3.1965 -1.8000 0.9806
-3.0253 -3.4226 -1.8001 0.9806
-2.6401 -3.7284 -1.8003 0.9805
-2.3660 -3.9086 -1.8005 0.9805
-2.2243 -3.9912 -1.8006 0.9805
-2.0797 -4.0686 -1.8006 0.9805
-1.4762 -4.3252 -1.8010 0.9805
-1.3201 -4.3757 -1.8011 0.9805
-1.1622 -4.4205 -1.8012 0.9805
-0.8422 -4.4929 -1.8014 0.9805
-0.6804 -4.5205 -1.8015 0.9805
-0.5177 -4.5422 -1.8016 0.9805
-0.3391 -4.3621 -1.8017 0.9813
-0.0253 -4.3757 -1.8019 0.9812
0.2888 -4.3667 -1.8020 0.9812
0.4454 -4.3537 -1.8021 0.9812
0.6014 -4.3352 -1.8022 0.9812
0.7567 -4.3110 -1.8023 0.9812
0.9110 -4.2813 -1.8024 0.9812
1.0641 -4.2461 -1.8025 0.9812
1.2159 -4.2053 -1.8026 0.9812
1.6612 -4.0509 -1.8029 0.9812
1.8056 -3.9888 -1.8030 0.9812
1.9477 -3.9216 -1.8031 0.9812
2.0874 -3.8494 -1.8032 0.9812
2.2243 -3.7721 -1.8032 0.9812
2.3584 -3.6900 -1.8033 0.9812
2.8628 -3.3151 -1.8036 0.9812
2.9800 -3.2103 -1.8037 0.9812
3.4094 -2.7512 -1.8040 0.9812
3.5060 -2.6271 -1.8041 0.9812
3.6857 -2.3690 -1.8042 0.9812
3.7685 -2.2352 -1.8042 0.9812
3.8464 -2.0986 -1.8043 0.9812
3.9194 -1.9592 -1.8043 0.9812
4.0500 -1.6730 -1.8044 0.9812
4.1076 -1.5266 -1.8045 0.9812
4.2482 -1.0762 -1.8046 0.9812
4.2841 -0.9231 -1.8046 0.9812
4.3146 -0.7687 -1.8046 0.9812
4.3394 -0.6133 -1.8047 0.9812
4.3587 -0.4572 -1.8047 0.9812
4.3723 -0.3004 -1.8047 0.9812
4.3794 0.1714 -1.8047 0.9812
4.3704 0.3285 -1.8047 0.9812
4.3355 0.6412 -1.8047 0.9812
4.2783 0.9505 -1.8047 0.9812
4.2414 1.1035 -1.8047 0.9812
4.1512 1.4049 -1.8046 0.9812
4.0396 1.6991 -1.8046 0.9812
3.9759 1.8430 -1.8045 0.9812
3.6709 2.3929 -1.8044 0.9812
3.4896 2.6499 -1.8043 0.9812
3.3921 2.7734 -1.8042 0.9812
3.2903 2.8933 -1.8042 0.9812
3.1842 3.0094 -1.8041 0.9812
3.0740 3.1217 -1.8041 0.9812
2.9599 3.2299 -1.8040 0.9812
2.5952 3.5290 -1.8038 0.9812
2.4667 3.6197 -1.8037 0.9812
2.3351 3.7058 -1.8037 0.9812
2.1998 3.7858 -1.8030 0.9812
2.0609 3.8595 -1.8017 0.9813
0.8668 4.2058 -1.7683 0.9816
0.7108 4.2078 -1.7572 0.9817
0.5564 4.2093 -1.7484 0.9818
0.4035 4.2105 -1.7417 0.9819
0.0999 4.2116 -1.7348 0.9819
-0.0513 4.2116 -1.7344 0.9819
-0.2027 4.2112 -1.7361 0.9819
-0.3545 4.2105 -1.7399 0.9819
-0.6609 4.2077 -1.7539 0.9817
-0.8163 4.2058 -1.7642 0.9816
-1.2854 4.1640 -1.7945 0.9813
-1.4346 4.1168 -1.7952 0.9813
-1.5822 4.0644 -1.7960 0.9813
-1.7279 4.0070 -1.7969 0.9813
-1.8716 3.9445 -1.7978 0.9813
-2.1524 3.8047 -1.8000 0.9813
-2.6757 3.4586 -1.8006 0.9813
-2.7980 3.3602 -1.8006 0.9813
-3.0316 3.1505 -1.8004 0.9813
-0.8005 0.6700 -0.4298 0.9955
-0.8335 0.5571 -0.4129 0.9957
-0.8623 0.4506 -0.4006 0.9958
-0.8759 0.3804 -0.3932 0.9959
-0.8811 0.3456 -0.3897 0.9959
-0.9107 0.1792 -0.3822 0.9960
-0.9145 0.1461 -0.3813 0.9960
-0.9204 0.0467 -0.3795 0.9960
-0.9206 0.0136 -0.3791 0.9960
-0.9206 -0.0195 -0.3792 0.9960
-0.9139 -0.1520 -0.3815 0.9960
-0.8802 -0.3518 -0.3903 0.9959
-0.8684 -0.4216 -0.3975 0.9958
-0.8425 -0.5278 -0.4094 0.9957
-0.8194 -0.5993 -0.4180 0.9956
-0.8075 -0.6363 -0.4233 0.9956
-0.7989 -0.6774 -0.4313 0.9955
-3.1226 -3.0592 -1.8001 0.9813
-2.8953 -3.2756 -1.8002 0.9813
-2.7759 -3.3775 -1.8003 0.9813
-2.6530 -3.4751 -1.8003 0.9813
-2.5267 -3.5682 -1.8004 0.9813
-2.2643 -3.7406 -1.8005 0.9813
-2.1287 -3.8197 -1.8006 0.9813
-1.9903 -3.8938 -1.8007 0.9813
-1.7059 -4.0269 -1.8009 0.9813
-1.2633 -4.1876 -1.8011 0.9813
-0.9597 -4.2678 -1.8013 0.9813
-0.6511 -4.3261 -1.8015 0.9813
-0.4954 -4.3469 -1.8016 0.9813
-0.3250 -4.1801 -1.8017 0.9819
-0.1747 -4.1893 -1.8018 0.9819
0.1263 -4.1915 -1.8020 0.9819
0.4268 -4.1720 -1.8021 0.9819
0.5763 -4.1542 -1.8022 0.9819
1.4514 -3.9362 -1.8028 0.9819
1.8664 -3.7579 -1.8030 0.9819
2.1314 -3.6146 -1.8032 0.9819
2.6273 -3.2729 -1.8035 0.9819
3.0691 -2.8637 -1.8038 0.9819
3.1700 -2.7517 -1.8039 0.9819
3.6857 -2.0109 -1.8042 0.9819
3.7556 -1.8773 -1.8042 0.9819
3.8207 -1.7413 -1.8043 0.9819
3.9359 -1.4628 -1.8044 0.9819
3.9860 -1.3206 -1.8044 0.9819
4.1051 -0.8845 -1.8045 0.9819
4.1343 -0.7366 -1.8045 0.9819
4.1581 -0.5877 -1.8045 0.9819
4.1972 -0.1373 -1.8046 0.9819
4.1995 0.0135 -1.8046 0.9819
4.1963 0.1642 -1.8046 0.9819
4.1296 0.7631 -1.8046 0.9819
4.0995 0.9108 -1.8046 0.9819
4.0641 1.0574 -1.8046 0.9819
4.0235 1.2026 -1.8045 0.9819
3.6731 2.0347 -1.8044 0.9819
3.5976 2.1652 -1.8043 0.9819
3.4328 2.4176 -1.8043 0.9819
3.3438 2.5392 -1.8042 0.9819
3.1528 2.7724 -1.8041 0.9819
2.7232 3.1946 -1.8039 0.9819
1.9769 3.7021 -1.8034 0.9819
1.8423 3.7698 -1.8030 0.9819
1.7047 3.8311 -1.8019 0.9819
1.1366 4.0275 -1.7983 0.9819
0.9909 4.0641 -1.7976 0.9820
0.0991 4.1763 -1.7951 0.9820
-0.0509 4.1769 -1.7950 0.9820
-0.3504 4.1626 -1.7951 0.9820
-0.4997 4.1477 -1.7952 0.9820
-0.6483 4.1277 -1.7955 0.9820
-0.7962 4.1025 -1.7958 0.9820
-1.0891 4.0369 -1.7968 0.9820
-1.3769 3.9512 -1.7980 0.9819
-1.6583 3.8457 -1.7996 0.9819
-1.7962 3.7856 -1.8006 0.9819
-1.9315 3.7198 -1.8011 0.9819
-2.1932 3.5713 -1.8009 0.9819
-2.3199 3.4901 -1.8008 0.9819
-2.4436 3.4044 -1.8008 0.9819
-2.6813 3.2201 -1.8006 0.9819
-2.9052 3.0192 -1.8005 0.9819
-3.0116 2.9128 -1.8004 0.9819
-0.7771 0.6505 -0.4355 0.9956
-0.8024 0.5364 -0.4148 0.9958
-0.8131 0.5022 -0.4107 0.9958
-0.8226 0.4682 -0.4067 0.9959
-0.8384 0.4004 -0.3993 0.9960
-0.8564 0.3009 -0.3900 0.9961
-0.8874 0.1092 -0.3842 0.9961
-0.8894 0.0772 -0.3836 0.9961
-0.8906 0.0131 -0.3827 0.9961
-0.8870 -0.1149 -0.3843 0.9961
-0.8839 -0.1470 -0.3850 0.9961
-0.8751 -0.2110 -0.3868 0.9961
-0.8694 -0.2429 -0.3879 0.9961
-0.8626 -0.2748 -0.3890 0.9961
-0.8549 -0.3065 -0.3903 0.9961
-0.8491 -0.3393 -0.3929 0.9960
-0.8437 -0.3728 -0.3964 0.9960
-0.8372 -0.4065 -0.3999 0.9960
-0.8296 -0.4403 -0.4036 0.9959
-0.8210 -0.4742 -0.4074 0.9959
-0.8004 -0.5425 -0.4155 0.9958
-0.7755 -0.6576 -0.4369 0.9956
-3.0956 -2.8222 -1.8001 0.9819
-2.9924 -2.9316 -1.8001 0.9819
-2.8853 -3.0373 -1.8002 0.9819
-2.6602 -3.2367 -1.8003 0.9819
-2.5424 -3.3302 -1.8004 0.9819
-2.4213 -3.4195 -1.8005 0.9819
-2.2971 -3.5043 -1.8005 0.9819
-1.9073 -3.7314 -1.8008 0.9819
-1.7722 -3.7976 -1.8008 0.9819
-1.6348 -3.8590 -1.8009 0.9819
-1.4953 -3.9153 -1.8010 0.9819
-1.0659 -4.0539 -1.8012 0.9819
-0.9197 -4.0898 -1.8013 0.9819
-0.7723 -4.1204 -1.8014 0.9819
-0.6239 -4.1456 -1.8015 0.9819
-0.4748 -4.1656 -1.8016 0.9819
0.2655 -4.0147 -1.8021 0.9825
0.4095 -4.0028 -1.8021 0.9825
0.6957 -3.9634 -1.8023 0.9825
0.8375 -3.9361 -1.8024 0.9825
1.2560 -3.8238 -1.8027 0.9825
1.3925 -3.7764 -1.8027 0.9825
1.5272 -3.7242 -1.8028 0.9825
1.7907 -3.6053 -1.8030 0.9825
1.9190 -3.5389 -1.8031 0.9825
2.0449 -3.4679 -1.8031 0.9825
2.1681 -3.3924 -1.8032 0.9825
2.2886 -3.3125 -1.8033 0.9825
2.5206 -3.1400 -1.8034 0.9825
2.6318 -3.0476 -1.8035 0.9825
2.7396 -2.9513 -1.8036 0.9825
3.4644 -2.0548 -1.8041 0.9825
3.5360 -1.9292 -1.8041 0.9825
3.6655 -1.6706 -1.8042 0.9825
3.7761 -1.4034 -1.8043 0.9825
3.8241 -1.2670 -1.8043 0.9825
3.8672 -1.1289 -1.8043 0.9825
3.9053 -0.9894 -1.8044 0.9825
3.9383 -0.8486 -1.8044 0.9825
3.9663 -0.7067 -1.8044 0.9825
3.9892 -0.5638 -1.8044 0.9825
4.0068 -0.4203 -1.8045 0.9825
4.0194 -0.2762 -1.8045 0.9825
4.0267 -0.1317 -1.8045 0.9825
4.0289 0.0129 -1.8045 0.9825
4.0258 0.1575 -1.8045 0.9825
4.0176 0.3020 -1.8045 0.9825
3.9618 0.7321 -1.8045 0.9825
3.9330 0.8738 -1.8045 0.9825
3.8990 1.0144 -1.8045 0.9825
3.8161 1.2915 -1.8044 0.9825
3.6550 1.6942 -1.8043 0.9825
3.5239 1.9520 -1.8043 0.9825
3.3746 2.1997 -1.8042 0.9825
3.2934 2.3194 -1.8042 0.9825
3.1184 2.5496 -1.8041 0.9825
3.0247 2.6598 -1.8040 0.9825
2.9272 2.7666 -1.8040 0.9825
2.7210 2.9693 -1.8038 0.9825
2.3858 3.2442 -1.8037 0.9825
2.2677 3.3277 -1.8036 0.9825
2.1467 3.4068 -1.8035 0.9825
2.0230 3.4815 -1.8035 0.9825
1.8966 3.5517 -1.8034 0.9825
1.7678 3.6174 -1.8033 0.9825
1.5036 3.7346 -1.8032 0.9825
1.2308 3.8297 -1.8017 0.9825
1.0921 3.8698 -1.8009 0.9825
0.8110 3.9354 -1.7996 0.9825
0.6690 3.9608 -1.7991 0.9825
0.5263 3.9813 -1.7987 0.9826
0.2392 4.0074 -1.7981 0.9826
-0.0489 4.0136 -1.7978 0.9826
-0.1929 4.0093 -1.7978 0.9826
-0.3367 3.9999 -1.7978 0.9826
-0.4801 3.9856 -1.7980 0.9826
-0.6230 3.9663 -1.7982 0.9826
-1.3230 3.7965 -1.8007 0.9825
-1.4590 3.7480 -1.8014 0.9825
-1.5925 3.6930 -1.8013 0.9825
-1.8532 3.5689 -1.8011 0.9825
-2.1043 3.4265 -1.8010 0.9825
-2.4601 3.1800 -1.8007 0.9825
-2.5726 3.0895 -1.8007 0.9825
-0.7451 0.6706 -0.4490 0.9956
