ply
format ascii 1.0
element vertex 1590
property float32 x
property float32 y
property float32 z
property float32 I
end_header
2.8356 -13.3265 -1.8033 0.9465
3.7855 -13.0925 -1.8039 0.9465
4.2536 -12.9500 -1.8041 0.9465
5.1732 -12.6149 -1.8046 0.9465
5.6235 -12.4228 -1.8049 0.9465
3.7341 -6.3325 -0.9730 0.9708
4.2507 -6.1524 -0.9898 0.9703
4.5866 -6.1539 -1.0159 0.9695
4.9217 -6.1312 -1.0406 0.9688
6.0841 -6.0997 -1.1403 0.9658
6.5404 -6.1025 -1.1840 0.9646
7.0367 -6.1082 -1.2333 0.9631
10.6283 -8.5767 -1.8076 0.9464
10.9304 -8.1904 -1.8078 0.9464
11.2183 -7.7934 -1.8080 0.9464
11.9941 -6.5438 -1.8084 0.9464
12.2221 -6.1095 -1.8085 0.9464
12.4344 -5.6672 -1.8087 0.9464
13.2500 -3.3568 -1.8091 0.9463
13.4576 -2.3977 -1.8093 0.9463
13.5354 -1.9131 -1.8093 0.9463
13.5956 -1.4260 -1.8094 0.9463
13.6633 -0.4469 -1.8094 0.9463
13.6603 0.5345 -1.8094 0.9463
13.6322 1.0245 -1.8094 0.9463
13.5866 1.5132 -1.8094 0.9463
13.4425 2.4840 -1.8093 0.9463
13.3443 2.9648 -1.8093 0.9463
13.2289 3.4418 -1.8092 0.9463
13.0964 3.9143 -1.8092 0.9463
12.7672 4.8383 -1.8071 0.9464
11.1535 5.6650 -1.6558 0.9508
10.9423 6.0613 -1.6556 0.9508
10.7169 6.4498 -1.6555 0.9508
10.4777 6.8298 -1.6554 0.9508
9.6804 7.9146 -1.6550 0.9508
9.3891 8.2562 -1.6548 0.9508
9.0858 8.5871 -1.6547 0.9508
7.4026 10.0661 -1.6538 0.9508
2.4382 4.5659 -0.6851 0.9793
5.0759 11.4073 -1.6526 0.9509
2.3992 11.6415 -1.5732 0.9532
1.5397 11.6471 -1.5550 0.9537
1.1163 11.6499 -1.5490 0.9539
-0.9820 11.6638 -1.5493 0.9539
-1.8329 11.6694 -1.5635 0.9535
-2.7042 11.6752 -1.5862 0.9528
-3.1506 11.6781 -1.6009 0.9524
-3.6059 11.6811 -1.6181 0.9519
-4.0717 11.6842 -1.6377 0.9513
-5.3341 11.2419 -1.6469 0.9510
-6.8846 10.3573 -1.6461 0.9511
-7.2511 10.1023 -1.6459 0.9511
-8.6183 8.9564 -1.6451 0.9511
-9.2368 8.3133 -1.6448 0.9511
-9.5283 7.9755 -1.6446 0.9511
-9.8075 7.6276 -1.6445 0.9511
-11.2817 7.5409 -1.7961 0.9467
-12.0242 6.2828 -1.7957 0.9467
-12.4423 5.4032 -1.7954 0.9467
-13.0848 3.5661 -1.7950 0.9467
-13.2039 3.0940 -1.7950 0.9468
-13.3059 2.6179 -1.7949 0.9468
-13.3909 2.1385 -1.7948 0.9468
-13.5093 1.1722 -1.7948 0.9468
-13.5582 0.2000 -1.7947 0.9468
-13.5566 -0.2869 -1.7947 0.9468
-13.5012 -1.2588 -1.7947 0.9468
-13.4475 -1.7426 -1.7948 0.9468
-13.1831 -3.1784 -1.7949 0.9468
-12.9220 -4.1163 -1.7950 0.9468
-12.7664 -4.5777 -1.7951 0.9467
-12.2022 -5.9245 -1.7954 0.9467
-11.9824 -6.3591 -1.7955 0.9467
-11.2318 -7.6121 -1.7958 0.9467
-10.9522 -8.0110 -1.7960 0.9467
-10.3510 -8.7776 -1.7963 0.9467
-9.6964 -9.4994 -1.7966 0.9467
-7.8486 -11.0841 -1.7976 0.9467
-6.1844 -12.0993 -1.7985 0.9466
-5.7469 -12.3151 -1.7987 0.9466
-5.3018 -12.5151 -1.7990 0.9466
-4.8498 -12.6990 -1.7992 0.9466
-4.3914 -12.8667 -1.7995 0.9466
-2.9840 -13.2698 -1.8002 0.9466
-1.5409 -13.5195 -1.8010 0.9466
-0.9440 -12.1433 -1.8013 0.9519
0.3671 -12.1792 -1.8020 0.9519
0.8042 -12.1597 -1.8023 0.9519
1.2403 -12.1246 -1.8025 0.9519
1.6749 -12.0738 -1.8027 0.9519
2.1075 -12.0075 -1.8030 0.9519
2.5375 -11.9257 -1.8032 0.9519
2.9644 -11.8284 -1.8034 0.9519
3.3875 -11.7158 -1.8037 0.9519
4.2204 -11.4455 -1.8041 0.9519
3.3588 -7.4199 -1.2046 0.9676
3.3370 -6.7187 -1.1095 0.9701
3.6661 -6.2172 -1.0674 0.9712
4.2265 -6.1174 -1.0997 0.9704
5.2699 -6.1026 -1.1925 0.9679
6.0836 -6.0992 -1.2740 0.9658
6.5337 -6.0963 -1.3216 0.9645
7.0367 -6.1082 -1.3781 0.9630
9.5087 -7.6731 -1.8070 0.9518
10.9340 -5.4656 -1.8078 0.9518
11.6062 -3.8453 -1.8082 0.9518
11.8531 -3.0029 -1.8084 0.9518
12.0388 -2.1449 -1.8085 0.9518
12.1083 -1.7114 -1.8085 0.9518
12.1622 -1.2757 -1.8086 0.9518
12.2004 -0.8384 -1.8086 0.9518
12.2293 0.0392 -1.8086 0.9518
12.1949 0.9165 -1.8086 0.9518
12.1541 1.3536 -1.8086 0.9518
12.0253 2.2221 -1.8086 0.9518
11.8343 3.0790 -1.8085 0.9518
11.7157 3.5017 -1.8084 0.9518
10.1540 4.7067 -1.6552 0.9558
9.1475 6.4421 -1.6547 0.9558
8.9097 6.7658 -1.6546 0.9558
8.6604 7.0807 -1.6544 0.9558
8.4000 7.3865 -1.6543 0.9558
8.1287 7.6826 -1.6542 0.9558
7.8470 7.9687 -1.6540 0.9558
6.9429 8.7636 -1.6535 0.9558
5.6148 9.6629 -1.6528 0.9558
4.9059 10.0386 -1.6525 0.9558
3.7969 10.5041 -1.6519 0.9558
3.0328 10.7467 -1.6515 0.9559
2.2534 10.9339 -1.6510 0.9559
1.8592 11.0063 -1.6508 0.9559
1.4627 11.0645 -1.6506 0.9559
1.0644 11.1085 -1.6504 0.9559
0.6649 11.1381 -1.6502 0.9559
0.2646 11.1533 -1.6500 0.9559
-0.1359 11.1542 -1.6497 0.9559
-0.5362 11.1406 -1.6495 0.9559
-1.3337 11.0705 -1.6491 0.9559
-1.7301 11.0141 -1.6489 0.9559
-2.1240 10.9435 -1.6487 0.9559
-2.5151 10.8588 -1.6485 0.9559
-3.6665 10.5215 -1.6478 0.9559
-4.0413 10.3818 -1.6476 0.9560
-4.4108 10.2288 -1.6474 0.9560
-5.4829 9.6919 -1.6468 0.9560
-6.4909 9.0432 -1.6463 0.9560
-6.8106 8.8034 -1.6461 0.9560
-7.1215 8.5524 -1.6459 0.9560
-7.7151 8.0178 -1.6456 0.9560
-7.9972 7.7350 -1.6454 0.9560
-8.2690 7.4422 -1.6453 0.9560
-8.7801 6.8286 -1.6450 0.9560
-10.3352 6.3836 -1.7966 0.9521
-10.7651 5.6249 -1.7963 0.9521
-10.9594 5.2345 -1.7962 0.9521
-11.3054 4.4343 -1.7960 0.9521
-11.5933 3.6114 -1.7958 0.9521
-11.7150 3.1928 -1.7958 0.9521
-11.9892 1.9147 -1.7956 0.9521
-12.1249 0.6147 -1.7955 0.9521
-12.0880 -1.1270 -1.7955 0.9521
-11.8974 -2.4201 -1.7956 0.9521
-11.8031 -2.8457 -1.7956 0.9521
-11.4299 -4.0985 -1.7958 0.9521
-11.2759 -4.5063 -1.7959 0.9521
-10.9246 -5.3042 -1.7961 0.9521
-10.5171 -6.0751 -1.7963 0.9521
-10.2929 -6.4491 -1.7964 0.9521
-10.0555 -6.8149 -1.7965 0.9521
-9.8051 -7.1719 -1.7966 0.9521
-9.2667 -7.8582 -1.7969 0.9521
-8.9794 -8.1864 -1.7971 0.9521
-8.0495 -9.1067 -1.7975 0.9520
-7.0259 -9.9223 -1.7981 0.9520
-6.2973 -10.4030 -1.7985 0.9520
-5.9204 -10.6236 -1.7987 0.9520
-5.5359 -10.8305 -1.7989 0.9520
-5.1442 -11.0235 -1.7991 0.9520
-4.7457 -11.2024 -1.7993 0.9520
-4.3411 -11.3669 -1.7995 0.9520
-2.2431 -11.9668 -1.8006 0.9520
-1.8123 -12.0411 -1.8009 0.9520
-0.8539 -10.9846 -1.8014 0.9563
-0.0636 -11.0201 -1.8018 0.9563
0.3321 -11.0166 -1.8020 0.9563
0.7274 -10.9989 -1.8022 0.9563
1.5150 -10.9209 -1.8027 0.9563
1.9063 -10.8608 -1.8029 0.9563
2.2952 -10.7866 -1.8031 0.9563
2.6812 -10.6985 -1.8033 0.9563
3.0639 -10.5966 -1.8035 0.9563
4.1867 -10.2093 -1.8041 0.9563
3.3285 -6.7017 -1.2234 0.9701
3.4537 -6.3691 -1.1846 0.9711
3.9044 -6.1089 -1.1854 0.9710
4.2206 -6.1088 -1.2140 0.9704
4.5603 -6.1185 -1.2477 0.9695
5.2756 -6.1093 -1.3198 0.9678
8.8430 -6.6262 -1.8067 0.9562
9.0758 -6.3050 -1.8068 0.9562
9.5061 -5.6383 -1.8071 0.9562
10.0589 -4.5846 -1.8074 0.9562
10.6134 -3.0983 -1.8077 0.9562
10.7181 -2.7154 -1.8078 0.9562
10.9488 -1.5475 -1.8079 0.9562
10.9975 -1.1535 -1.8080 0.9562
11.0581 0.0354 -1.8080 0.9562
11.0497 0.4323 -1.8080 0.9562
11.0270 0.8287 -1.8080 0.9562
10.9389 1.6177 -1.8080 0.9562
10.8736 2.0093 -1.8079 0.9562
10.4730 3.5445 -1.8077 0.9562
10.3351 3.9167 -1.8071 0.9562
9.1818 4.2561 -1.6547 0.9598
8.4763 5.5252 -1.6543 0.9598
8.2720 5.8255 -1.6542 0.9598
7.8316 6.4031 -1.6540 0.9598
5.9897 8.1448 -1.6530 0.9599
5.6929 8.3538 -1.6528 0.9599
5.0779 8.7390 -1.6525 0.9599
4.4369 9.0789 -1.6522 0.9599
4.1077 9.2313 -1.6520 0.9599
3.7733 9.3718 -1.6518 0.9599
3.0905 9.6163 -1.6515 0.9599
0.9628 10.0477 -1.6503 0.9599
0.6014 10.0746 -1.6501 0.9599
0.2394 10.0885 -1.6499 0.9599
-0.1229 10.0894 -1.6497 0.9599
-0.8463 10.0522 -1.6493 0.9599
-1.9213 9.8994 -1.6488 0.9600
-2.2752 9.8229 -1.6486 0.9600
-2.6260 9.7338 -1.6484 0.9600
-2.9734 9.6322 -1.6482 0.9600
-3.3169 9.5182 -1.6480 0.9600
-3.6560 9.3919 -1.6478 0.9600
-4.3194 9.1034 -1.6475 0.9600
-4.6429 8.9415 -1.6473 0.9600
-4.9604 8.7682 -1.6471 0.9600
-5.5755 8.3879 -1.6468 0.9600
-5.8724 8.1816 -1.6466 0.9600
-6.1617 7.9648 -1.6464 0.9600
-6.4431 7.7377 -1.6463 0.9600
-6.7161 7.5007 -1.6461 0.9600
-6.9804 7.2542 -1.6460 0.9600
-7.4816 6.7335 -1.6457 0.9600
-7.7178 6.4601 -1.6456 0.9600
-8.1602 5.8889 -1.6453 0.9600
-9.3513 5.7760 -1.7971 0.9564
-9.5521 5.4362 -1.7970 0.9564
-9.7404 5.0895 -1.7969 0.9564
-10.0794 4.3771 -1.7967 0.9564
-10.2295 4.0123 -1.7966 0.9564
-10.3665 3.6423 -1.7965 0.9564
-10.6968 2.5065 -1.7963 0.9564
-10.7796 2.1208 -1.7963 0.9564
-10.9445 0.9497 -1.7961 0.9565
-10.9380 -1.0198 -1.7961 0.9565
-10.8369 -1.8020 -1.7962 0.9565
-10.6801 -2.5749 -1.7962 0.9564
-10.5810 -2.9567 -1.7963 0.9564
-10.4684 -3.3347 -1.7963 0.9564
-10.2029 -4.0775 -1.7965 0.9564
-10.0504 -4.4413 -1.7965 0.9564
-9.8850 -4.7994 -1.7966 0.9564
-8.3844 -7.1100 -1.7974 0.9564
-8.1244 -7.4069 -1.7975 0.9564
-6.6741 -8.7423 -1.7983 0.9564
-5.3563 -9.6112 -1.7990 0.9564
-4.2933 -10.1345 -1.7996 0.9564
-3.5559 -10.4187 -1.7999 0.9564
-3.1800 -10.5408 -1.8001 0.9564
-2.4161 -10.7442 -1.8006 0.9563
-2.0291 -10.8253 -1.8008 0.9563
-1.2475 -10.9455 -1.8012 0.9563
-0.7792 -10.0233 -1.8015 0.9600
0.3030 -10.0523 -1.8020 0.9600
0.6637 -10.0360 -1.8022 0.9600
1.0237 -10.0068 -1.8024 0.9599
1.7393 -9.9097 -1.8028 0.9599
2.0942 -9.8420 -1.8030 0.9599
2.4464 -9.7615 -1.8032 0.9599
3.1411 -9.5628 -1.8036 0.9599
3.4827 -9.4449 -1.8038 0.9599
3.3501 -7.4007 -1.4556 0.9675
3.4410 -6.3456 -1.2934 0.9711
3.9043 -6.1089 -1.2991 0.9710
4.2206 -6.1088 -1.3305 0.9703
4.9100 -6.1166 -1.4054 0.9686
5.2836 -6.1185 -1.4485 0.9677
5.6776 -6.1164 -1.4954 0.9667
6.0947 -6.1104 -1.5464 0.9655
7.0368 -6.1082 -1.6697 0.9628
8.0671 -6.0449 -1.8063 0.9599
8.4811 -5.4512 -1.8065 0.9599
8.8514 -4.8292 -1.8067 0.9599
9.0195 -4.5086 -1.8068 0.9599
9.3207 -3.8503 -1.8070 0.9598
9.4532 -3.5133 -1.8071 0.9598
9.5736 -3.1719 -1.8072 0.9598
9.6817 -2.8263 -1.8072 0.9598
9.7772 -2.4770 -1.8073 0.9598
9.8601 -2.1245 -1.8073 0.9598
9.9876 -1.4117 -1.8074 0.9598
10.0319 -1.0522 -1.8074 0.9598
10.0818 -0.3298 -1.8075 0.9598
10.0872 0.0323 -1.8075 0.9598
10.0796 0.3944 -1.8075 0.9598
10.0589 0.7560 -1.8075 0.9598
10.0252 1.1165 -1.8075 0.9598
9.9785 1.4757 -1.8074 0.9598
9.8466 2.1877 -1.8074 0.9598
9.7615 2.5397 -1.8073 0.9598
9.4311 3.5741 -1.8072 0.9598
9.2845 3.9052 -1.8048 0.9599
9.0846 4.2110 -1.7942 0.9601
8.3193 4.2254 -1.6719 0.9628
7.9088 4.7597 -1.6540 0.9632
7.1444 5.8413 -1.6536 0.9632
6.2331 6.8017 -1.6531 0.9632
5.7281 7.2302 -1.6528 0.9632
4.9163 7.8021 -1.6524 0.9632
4.6327 7.9728 -1.6523 0.9632
2.4374 4.5645 -0.9272 0.9792
3.1331 8.6677 -1.6515 0.9632
2.8197 8.7737 -1.6513 0.9632
2.1825 8.9515 -1.6510 0.9633
1.8596 9.0232 -1.6508 0.9633
1.2071 9.1314 -1.6504 0.9633
0.8785 9.1678 -1.6503 0.9633
0.5488 9.1925 -1.6501 0.9633
-0.1121 9.2062 -1.6497 0.9633
-0.4425 9.1952 -1.6496 0.9633
-0.7722 9.1724 -1.6494 0.9633
-1.4280 9.0914 -1.6490 0.9633
-2.0761 8.9636 -1.6487 0.9633
-2.3963 8.8824 -1.6485 0.9633
-3.0268 8.6858 -1.6481 0.9633
-3.3363 8.5706 -1.6480 0.9633
-3.6414 8.4445 -1.6478 0.9633
-3.9418 8.3075 -1.6476 0.9633
-5.0883 7.6549 -1.6470 0.9633
-5.3593 7.4666 -1.6469 0.9633
-6.3706 6.6205 -1.6463 0.9634
-7.0438 5.8959 -1.6459 0.9634
-8.5348 5.2717 -1.7975 0.9601
-8.8901 4.6452 -1.7973 0.9601
-9.1995 3.9950 -1.7971 0.9601
-9.4616 3.3244 -1.7970 0.9601
-9.7632 2.2877 -1.7968 0.9601
-9.9017 1.5813 -1.7967 0.9601
-2.0428 0.2514 -0.3688 0.9917
-2.0246 -0.0429 -0.3629 0.9918
-2.0450 -0.1168 -0.3670 0.9917
-2.0396 -0.2643 -0.3685 0.9917
-9.8259 -1.9987 -1.7967 0.9601
-9.7480 -2.3502 -1.7967 0.9601
-9.6576 -2.6987 -1.7968 0.9601
-9.4396 -3.3848 -1.7969 0.9601
-9.3124 -3.7216 -1.7969 0.9601
-9.1731 -4.0536 -1.7970 0.9601
-8.8594 -4.7017 -1.7972 0.9601
-8.0971 -5.9226 -1.7976 0.9601
-7.6523 -6.4891 -1.7978 0.9600
-6.9118 -7.2757 -1.7982 0.9600
-6.0910 -7.9785 -1.7986 0.9600
-5.5039 -8.3964 -1.7989 0.9600
-4.8882 -8.7712 -1.7993 0.9600
-4.5706 -8.9419 -1.7994 0.9600
-3.2450 -9.5076 -1.8001 0.9600
-2.2048 -9.8045 -1.8007 0.9600
-1.4960 -9.9395 -1.8011 0.9600
-1.1383 -9.9878 -1.8013 0.9600
-0.3850 -9.2335 -1.8017 0.9630
0.6100 -9.2241 -1.8022 0.9630
1.5986 -9.1078 -1.8028 0.9630
1.9247 -9.0454 -1.8029 0.9630
2.2483 -8.9714 -1.8031 0.9630
2.5692 -8.8857 -1.8033 0.9630
2.8868 -8.7886 -1.8035 0.9630
3.2007 -8.6802 -1.8036 0.9630
3.5105 -8.5605 -1.8038 0.9630
3.4439 -6.3509 -1.4085 0.9710
3.6279 -6.1524 -1.3924 0.9713
3.9043 -6.1089 -1.4134 0.9709
4.5552 -6.1117 -1.4861 0.9694
4.9152 -6.1231 -1.5307 0.9685
6.3000 -6.7869 -1.8053 0.9630
6.5400 -6.5568 -1.8055 0.9630
6.9946 -6.0716 -1.8057 0.9630
7.2085 -5.8170 -1.8058 0.9630
7.6082 -5.2855 -1.8061 0.9630
7.7935 -5.0092 -1.8062 0.9629
7.9687 -4.7265 -1.8063 0.9629
8.1337 -4.4376 -1.8064 0.9629
8.2881 -4.1430 -1.8064 0.9629
8.4454 -3.4888 -1.7814 0.9634
8.8964 -2.5971 -1.8068 0.9629
8.9842 -2.2761 -1.8068 0.9629
9.0603 -1.9522 -1.8069 0.9629
9.1774 -1.2972 -1.8070 0.9629
9.2471 -0.6354 -1.8070 0.9629
9.2640 -0.3030 -1.8070 0.9629
9.2690 0.0297 -1.8070 0.9629
9.2619 0.3624 -1.8070 0.9629
9.2429 0.6946 -1.8070 0.9629
9.2120 1.0260 -1.8070 0.9629
9.1144 1.6842 -1.8070 0.9629
8.9698 2.3337 -1.8069 0.9629
8.8800 2.6541 -1.8069 0.9629
7.1054 4.6316 -1.6535 0.9660
6.7541 5.1289 -1.6534 0.9660
6.5652 5.3677 -1.6533 0.9660
5.9490 6.0412 -1.6529 0.9660
5.7279 6.2504 -1.6528 0.9660
5.2639 6.6443 -1.6526 0.9660
4.7729 7.0037 -1.6523 0.9660
4.5180 7.1700 -1.6522 0.9661
2.6015 4.4771 -1.0095 0.9791
3.7201 7.6122 -1.6518 0.9661
3.4441 7.7401 -1.6516 0.9661
3.1638 7.8580 -1.6515 0.9661
2.8794 7.9658 -1.6513 0.9661
2.3001 8.1504 -1.6510 0.9661
1.7091 8.2928 -1.6507 0.9661
1.1094 8.3924 -1.6504 0.9661
0.8074 8.4260 -1.6502 0.9661
-0.4067 8.4514 -1.6496 0.9661
-0.7097 8.4305 -1.6494 0.9661
-1.6115 8.3029 -1.6489 0.9661
-3.0667 7.8780 -1.6481 0.9661
-3.3471 7.7621 -1.6480 0.9661
-3.8947 7.5006 -1.6477 0.9661
-4.4220 7.2005 -1.6474 0.9661
-4.6773 7.0366 -1.6472 0.9662
-4.9264 6.8636 -1.6471 0.9662
-5.1692 6.6818 -1.6470 0.9662
-5.6344 6.2926 -1.6467 0.9662
-5.8562 6.0859 -1.6466 0.9662
-6.0704 5.8714 -1.6465 0.9662
-6.2768 5.6493 -1.6463 0.9662
-8.0145 4.5612 -1.7978 0.9631
-8.3203 3.9740 -1.7976 0.9631
-8.4572 3.6726 -1.7975 0.9631
-8.5833 3.3666 -1.7975 0.9631
-1.7358 0.4067 -0.3476 0.9928
-1.6984 0.2712 -0.3353 0.9930
-1.7039 0.2097 -0.3347 0.9930
-1.7084 0.0866 -0.3335 0.9931
-1.7072 0.0252 -0.3329 0.9931
-1.7076 -0.0361 -0.3330 0.9931
-1.7031 -0.2207 -0.3348 0.9930
-1.6971 -0.2822 -0.3354 0.9930
-1.7396 -0.4194 -0.3489 0.9927
-1.7595 -0.4917 -0.3562 0.9926
-8.6780 -3.1117 -1.7973 0.9631
-8.4330 -3.7266 -1.7974 0.9631
-8.2941 -4.0270 -1.7975 0.9631
-8.1446 -4.3223 -1.7976 0.9631
-7.9845 -4.6121 -1.7977 0.9631
-7.8142 -4.8960 -1.7977 0.9631
-7.6338 -5.1736 -1.7978 0.9631
-7.2437 -5.7086 -1.7980 0.9631
-6.8163 -6.2144 -1.7983 0.9631
-6.5893 -6.4555 -1.7984 0.9631
-6.1100 -6.9126 -1.7986 0.9631
-5.3327 -7.5311 -1.7990 0.9631
-4.7794 -7.8955 -1.7993 0.9631
-3.9039 -8.3658 -1.7998 0.9631
-3.6014 -8.5013 -1.8000 0.9631
-3.2942 -8.6258 -1.8001 0.9631
-2.3485 -8.9325 -1.8006 0.9631
-2.0265 -9.0119 -1.8008 0.9631
-1.7019 -9.0797 -1.8010 0.9631
-1.0463 -9.1802 -1.8013 0.9630
-0.0493 -8.5468 -1.8019 0.9657
1.4782 -8.4221 -1.8027 0.9656
2.9596 -8.0264 -1.8035 0.9656
3.2461 -7.9157 -1.8037 0.9656
3.5285 -7.7948 -1.8038 0.9656
5.1156 -6.8636 -1.8047 0.9656
7.0345 -4.8869 -1.8058 0.9656
7.3678 -4.3701 -1.8059 0.9656
7.5202 -4.1030 -1.8060 0.9656
7.9187 -3.2711 -1.8063 0.9656
8.0314 -2.9849 -1.8063 0.9656
8.3064 -2.1044 -1.8065 0.9656
8.3768 -1.8049 -1.8065 0.9656
8.4851 -1.1993 -1.8066 0.9656
8.5494 -0.5874 -1.8066 0.9656
8.5651 -0.2802 -1.8067 0.9656
8.5456 0.6422 -1.8067 0.9656
8.5170 0.9486 -1.8067 0.9656
8.4774 1.2537 -1.8066 0.9656
8.3653 1.8586 -1.8066 0.9656
8.2931 2.1577 -1.8065 0.9656
8.0124 3.0364 -1.8064 0.9656
7.6299 3.8753 -1.8041 0.9656
7.4672 4.1364 -1.7996 0.9657
7.0045 4.2155 -1.7235 0.9671
6.5696 4.2823 -1.6533 0.9685
6.4113 4.5151 -1.6532 0.9685
6.2448 4.7421 -1.6531 0.9685
6.0702 4.9630 -1.6530 0.9685
5.8878 5.1774 -1.6529 0.9685
5.6978 5.3850 -1.6528 0.9685
5.2961 5.7792 -1.6526 0.9685
5.0849 5.9652 -1.6525 0.9685
4.6431 6.3138 -1.6522 0.9685
4.4132 6.4759 -1.6521 0.9685
4.1776 6.6297 -1.6520 0.9685
2.3901 4.4759 -1.0697 0.9795
3.1847 7.1570 -1.6515 0.9685
2.9255 7.2661 -1.6513 0.9685
2.3962 7.4560 -1.6511 0.9685
2.1268 7.5366 -1.6509 0.9685
1.8548 7.6074 -1.6508 0.9685
1.3040 7.7195 -1.6505 0.9685
1.0259 7.7606 -1.6503 0.9685
0.1856 7.8238 -1.6499 0.9685
-0.0953 7.8247 -1.6497 0.9685
-0.3761 7.8155 -1.6496 0.9685
-0.6563 7.7962 -1.6494 0.9685
-0.9357 7.7669 -1.6493 0.9685
-4.0897 6.6594 -1.6475 0.9686
-4.3258 6.5078 -1.6474 0.9686
-4.5562 6.3478 -1.6473 0.9686
-5.2111 5.8199 -1.6469 0.9686
-5.8054 5.2250 -1.6466 0.9686
-7.4127 4.2187 -1.7981 0.9657
-7.5590 3.9497 -1.7980 0.9657
-7.6956 3.6756 -1.7979 0.9657
-7.8223 3.3969 -1.7979 0.9657
-1.6130 0.5025 -0.3562 0.9931
-1.5992 0.4358 -0.3494 0.9932
-1.5836 0.3711 -0.3429 0.9934
-1.5642 0.2498 -0.3340 0.9935
-1.5688 -0.2033 -0.3335 0.9936
-1.6018 -0.4476 -0.3506 0.9932
-7.6714 -3.7247 -1.7978 0.9657
-6.0944 -5.9706 -1.7986 0.9657
-5.4183 -6.5925 -1.7990 0.9657
-4.6792 -7.1383 -1.7994 0.9657
-4.1556 -7.4568 -1.7997 0.9657
-3.6105 -7.7370 -1.8000 0.9657
-3.3307 -7.8622 -1.8001 0.9657
-2.4668 -8.1768 -1.8006 0.9657
-1.2716 -8.4487 -1.8012 0.9657
-0.9676 -8.4897 -1.8014 0.9657
-0.6157 -7.9200 -1.8016 0.9679
0.8087 -7.9061 -1.8023 0.9679
1.3741 -7.8290 -1.8027 0.9679
1.6544 -7.7753 -1.8028 0.9679
1.9326 -7.7115 -1.8030 0.9679
2.2084 -7.6378 -1.8031 0.9679
2.7511 -7.4609 -1.8034 0.9679
3.7918 -6.9926 -1.8040 0.9679
4.0407 -6.8525 -1.8041 0.9679
4.7550 -6.3798 -1.8045 0.9679
5.2011 -6.0230 -1.8047 0.9679
5.4143 -5.8328 -1.8049 0.9679
5.8196 -5.4300 -1.8051 0.9679
6.1949 -4.9990 -1.8053 0.9679
6.3707 -4.7737 -1.8054 0.9679
7.1224 -3.5603 -1.8058 0.9679
7.3600 -3.0403 -1.8060 0.9679
7.5597 -2.5046 -1.8061 0.9679
7.6449 -2.2317 -1.8061 0.9679
7.9461 -0.5460 -1.8063 0.9679
7.9606 -0.2604 -1.8063 0.9679
7.9425 0.5969 -1.8063 0.9679
7.9159 0.8816 -1.8063 0.9679
7.7750 1.7275 -1.8063 0.9679
7.2250 3.3490 -1.8060 0.9679
6.8004 4.0927 -1.8000 0.9680
6.0009 4.2261 -1.6645 0.9703
5.6420 4.6129 -1.6528 0.9706
4.9226 5.3717 -1.6524 0.9706
4.5239 5.7103 -1.6522 0.9706
4.3158 5.8686 -1.6521 0.9706
4.1021 6.0193 -1.6520 0.9706
3.8831 6.1623 -1.6518 0.9706
2.5974 4.4702 -1.1725 0.9790
2.9602 6.6526 -1.6513 0.9706
2.4749 6.8468 -1.6511 0.9706
2.2274 6.9306 -1.6510 0.9706
1.4690 7.1282 -1.6505 0.9706
1.2121 7.1757 -1.6504 0.9706
0.9537 7.2140 -1.6503 0.9706
0.4336 7.2626 -1.6500 0.9706
0.1726 7.2728 -1.6499 0.9706
-0.6101 7.2474 -1.6494 0.9706
-0.8698 7.2202 -1.6493 0.9706
-1.1283 7.1837 -1.6491 0.9706
-1.6406 7.0831 -1.6489 0.9706
-1.8936 7.0190 -1.6487 0.9706
-2.1442 6.9459 -1.6486 0.9706
-2.8778 6.6736 -1.6482 0.9706
-3.3486 6.4489 -1.6479 0.9706
-3.5777 6.3241 -1.6478 0.9706
-4.6477 5.5816 -1.6472 0.9706
-4.8448 5.4108 -1.6471 0.9707
-5.0355 5.2331 -1.6470 0.9707
-6.0537 4.7082 -1.7392 0.9690
-6.4158 4.6300 -1.7943 0.9681
-6.5933 4.4071 -1.7986 0.9680
-6.7470 4.1673 -1.7985 0.9680
-7.0279 3.6722 -1.7983 0.9680
-1.4552 0.3410 -0.3390 0.9939
-1.4420 0.2837 -0.3333 0.9940
-1.4542 0.1790 -0.3323 0.9940
-1.4573 0.1264 -0.3317 0.9940
-1.4584 -0.0833 -0.3313 0.9940
-1.4441 -0.2937 -0.3342 0.9940
-1.4886 -0.5338 -0.3586 0.9935
-1.4952 -0.5975 -0.3652 0.9934
-7.2520 -3.2047 -1.7981 0.9680
-7.0038 -3.7170 -1.7982 0.9680
-6.8662 -3.9661 -1.7983 0.9680
-6.7196 -4.2102 -1.7983 0.9680
-6.5645 -4.4489 -1.7984 0.9680
-6.2290 -4.9089 -1.7986 0.9680
-6.0490 -5.1296 -1.7987 0.9680
-5.8613 -5.3437 -1.7988 0.9680
-5.4635 -5.7512 -1.7990 0.9680
-5.0374 -6.1291 -1.7992 0.9680
-4.8145 -6.3063 -1.7993 0.9680
-4.1095 -6.7888 -1.7997 0.9680
-3.8634 -6.9324 -1.7998 0.9680
-3.3566 -7.1928 -1.8001 0.9680
-2.8323 -7.4163 -1.8004 0.9680
-2.5645 -7.5137 -1.8005 0.9680
-1.7423 -7.7478 -1.8010 0.9680
-1.4632 -7.8060 -1.8011 0.9680
-1.1821 -7.8541 -1.8013 0.9679
-0.8995 -7.8922 -1.8014 0.9679
-0.5749 -7.3959 -1.8016 0.9699
-0.0428 -7.4192 -1.8019 0.9699
0.2235 -7.4166 -1.8020 0.9699
0.4897 -7.4044 -1.8022 0.9699
0.7552 -7.3826 -1.8023 0.9699
1.0198 -7.3513 -1.8025 0.9699
1.2831 -7.3105 -1.8026 0.9699
1.5448 -7.2603 -1.8028 0.9699
2.3169 -7.0538 -1.8032 0.9699
2.5688 -6.9667 -1.8033 0.9699
2.8175 -6.8705 -1.8034 0.9699
3.0625 -6.7654 -1.8036 0.9699
3.3036 -6.6516 -1.8037 0.9699
4.2228 -6.1120 -1.8042 0.9699
5.6125 -4.8719 -1.8050 0.9699
5.7841 -4.6675 -1.8051 0.9699
6.5261 -3.5606 -1.8055 0.9699
6.7652 -3.0834 -1.8056 0.9699
6.8718 -2.8387 -1.8057 0.9699
7.0582 -2.3385 -1.8058 0.9699
7.3208 -1.3043 -1.8060 0.9699
7.3630 -1.0407 -1.8060 0.9699
7.3958 -0.7757 -1.8060 0.9699
7.4308 0.2908 -1.8061 0.9699
7.4155 0.5573 -1.8060 0.9699
7.3907 0.8231 -1.8060 0.9699
7.1965 1.8723 -1.8060 0.9699
7.0433 2.3837 -1.8059 0.9699
6.9530 2.6350 -1.8058 0.9699
6.8538 2.8828 -1.8058 0.9699
6.6289 3.3669 -1.8057 0.9699
6.5035 3.6025 -1.8056 0.9699
6.3650 3.8307 -1.8042 0.9699
6.2104 4.0482 -1.8004 0.9699
5.9721 4.2058 -1.7740 0.9704
5.5577 4.2204 -1.6948 0.9717
5.2678 4.3070 -1.6526 0.9724
5.1096 4.4931 -1.6525 0.9724
4.9448 4.6733 -1.6524 0.9724
4.7736 4.8476 -1.6523 0.9724
4.5962 5.0155 -1.6522 0.9724
4.0297 5.4796 -1.6519 0.9724
3.6257 5.7538 -1.6517 0.9724
2.3865 4.4691 -1.2304 0.9794
2.7641 6.2118 -1.6512 0.9724
2.5391 6.3065 -1.6511 0.9724
2.3110 6.3931 -1.6510 0.9724
2.0798 6.4715 -1.6509 0.9724
1.8460 6.5415 -1.6507 0.9724
1.1318 6.7005 -1.6504 0.9724
0.6481 6.7633 -1.6501 0.9724
0.4049 6.7817 -1.6500 0.9724
-0.0827 6.7922 -1.6497 0.9724
-0.5698 6.7677 -1.6494 0.9724
-0.8123 6.7423 -1.6493 0.9724
-1.0537 6.7083 -1.6492 0.9724
-1.2937 6.6656 -1.6490 0.9724
-1.5320 6.6144 -1.6489 0.9724
-1.7683 6.5546 -1.6488 0.9724
-2.0023 6.4864 -1.6487 0.9724
-2.6874 6.2321 -1.6483 0.9724
-3.5507 5.7817 -1.6478 0.9725
-3.9558 5.5113 -1.6476 0.9725
-4.3405 5.2126 -1.6474 0.9725
-4.5245 5.0531 -1.6473 0.9725
-5.3773 4.5010 -1.7031 0.9715
-5.8268 4.5317 -1.7927 0.9701
-5.9995 4.3296 -1.7968 0.9700
-6.1577 4.1158 -1.7988 0.9700
-6.3012 3.8920 -1.7987 0.9700
-1.3767 0.5978 -0.3645 0.9938
-1.3636 0.4248 -0.3469 0.9941
-1.3555 0.3694 -0.3412 0.9942
-1.3456 0.3153 -0.3356 0.9943
-1.3583 0.0688 -0.3303 0.9944
-1.3579 -0.0287 -0.3299 0.9944
-1.3480 -0.2242 -0.3319 0.9944
-1.3410 -0.2728 -0.3323 0.9944
-1.3475 -0.3249 -0.3366 0.9943
-1.3649 -0.4348 -0.3479 0.9941
-6.6613 -3.2342 -1.7984 0.9700
-6.5411 -3.4714 -1.7984 0.9700
-6.4125 -3.7041 -1.7985 0.9700
-6.2757 -3.9321 -1.7986 0.9700
-6.1307 -4.1549 -1.7987 0.9700
-5.8174 -4.5845 -1.7988 0.9700
-5.6493 -4.7906 -1.7989 0.9700
-5.2916 -5.1841 -1.7991 0.9700
-4.9066 -5.5510 -1.7993 0.9700
-4.7044 -5.7239 -1.7994 0.9700
-4.4962 -5.8895 -1.7995 0.9700
-4.2822 -6.0474 -1.7996 0.9700
-4.0626 -6.1977 -1.7997 0.9700
-3.8377 -6.3399 -1.7999 0.9700
-3.6079 -6.4740 -1.8000 0.9700
-3.3734 -6.5998 -1.8001 0.9700
-3.1346 -6.7171 -1.8002 0.9699
-2.8917 -6.8258 -1.8004 0.9699
-2.6450 -6.9257 -1.8005 0.9699
-2.3948 -7.0167 -1.8006 0.9699
-2.1416 -7.0987 -1.8008 0.9699
-1.8855 -7.1716 -1.8009 0.9699
-1.3663 -7.2895 -1.8012 0.9699
-0.8400 -7.3699 -1.8015 0.9699
-0.2898 -6.9490 -1.8018 0.9717
-0.0401 -6.9554 -1.8019 0.9717
0.2096 -6.9529 -1.8020 0.9717
0.7080 -6.9210 -1.8023 0.9717
0.9560 -6.8916 -1.8024 0.9717
1.6917 -6.7504 -1.8028 0.9717
1.9331 -6.6858 -1.8030 0.9717
2.6412 -6.4406 -1.8034 0.9716
2.8709 -6.3421 -1.8035 0.9716
3.0969 -6.2354 -1.8036 0.9716
3.5368 -5.9979 -1.8038 0.9716
3.7500 -5.8675 -1.8040 0.9716
3.9585 -5.7294 -1.8041 0.9716
4.3599 -5.4313 -1.8043 0.9716
5.0935 -4.7525 -1.8047 0.9716
5.4219 -4.3753 -1.8049 0.9716
5.7224 -3.9753 -1.8051 0.9716
5.9933 -3.5549 -1.8052 0.9716
6.3415 -2.8902 -1.8054 0.9716
6.4413 -2.6608 -1.8055 0.9716
6.6906 -1.9531 -1.8056 0.9716
6.7566 -1.7117 -1.8057 0.9716
6.8138 -1.4681 -1.8057 0.9716
6.9324 -0.7271 -1.8058 0.9716
6.9541 -0.4778 -1.8058 0.9716
6.9668 -0.2279 -1.8058 0.9716
6.9509 0.5224 -1.8058 0.9716
6.8955 1.0197 -1.8058 0.9716
6.8044 1.5118 -1.8057 0.9716
6.7456 1.7550 -1.8057 0.9716
6.6782 1.9960 -1.8057 0.9716
6.4244 2.7022 -1.8056 0.9716
6.3231 2.9310 -1.8055 0.9716
6.2136 3.1560 -1.8054 0.9716
6.0961 3.3769 -1.8054 0.9716
5.9708 3.5934 -1.8053 0.9716
5.6837 4.0027 -1.8009 0.9717
5.1549 4.2146 -1.7250 0.9729
4.8080 4.2279 -1.6586 0.9739
4.4747 4.5440 -1.6521 0.9740
3.9596 4.9979 -1.6519 0.9740
3.7774 5.1365 -1.6518 0.9740
3.5904 5.2685 -1.6517 0.9740
3.3987 5.3937 -1.6516 0.9740
2.5934 4.4632 -1.3373 0.9789
2.5911 5.8231 -1.6511 0.9740
2.3803 5.9119 -1.6510 0.9740
1.2859 6.2397 -1.6504 0.9740
1.0610 6.2814 -1.6503 0.9740
0.3795 6.3576 -1.6499 0.9740
0.1511 6.3667 -1.6498 0.9740
-0.3061 6.3602 -1.6496 0.9740
-0.9878 6.2890 -1.6492 0.9740
-1.4363 6.2010 -1.6490 0.9740
-1.6578 6.1450 -1.6488 0.9740
-2.3083 5.9299 -1.6485 0.9740
-2.7274 5.7482 -1.6483 0.9741
-3.5211 5.2973 -1.6478 0.9741
-3.7088 5.1672 -1.6477 0.9741
-3.8916 5.0304 -1.6476 0.9741
-4.0694 4.8871 -1.6475 0.9741
-4.2420 4.7376 -1.6474 0.9741
-4.5705 4.4206 -1.6472 0.9741
-4.8688 4.3820 -1.6969 0.9733
-5.3044 4.4400 -1.7920 0.9718
-5.4716 4.2554 -1.7957 0.9718
-5.9079 3.6491 -1.7989 0.9717
-6.0348 3.4345 -1.7988 0.9717
-1.2882 0.6153 -0.3698 0.9941
-1.2893 0.5599 -0.3641 0.9942
-1.2890 0.5056 -0.3587 0.9943
-1.2874 0.4523 -0.3535 0.9944
-1.2846 0.4001 -0.3485 0.9945
-1.2844 0.2051 -0.3370 0.9946
-1.2878 0.1585 -0.3361 0.9947
-1.2899 0.1119 -0.3354 0.9947
-1.2910 0.0654 -0.3349 0.9947
-1.2910 -0.0273 -0.3345 0.9947
-1.2909 -0.0737 -0.3350 0.9947
-1.2896 -0.1202 -0.3355 0.9947
-1.2790 -0.2602 -0.3381 0.9946
-1.2771 -0.3079 -0.3403 0.9946
-1.2852 -0.4094 -0.3494 0.9944
-1.2892 -0.5697 -0.3651 0.9942
-1.2879 -0.6253 -0.3709 0.9941
-5.7481 -3.8956 -1.7989 0.9717
-5.6048 -4.0996 -1.7989 0.9717
-5.2967 -4.4916 -1.7991 0.9717
-5.1323 -4.6790 -1.7992 0.9717
-4.9613 -4.8605 -1.7993 0.9717
-4.7838 -5.0357 -1.7994 0.9717
-4.4107 -5.3665 -1.7996 0.9717
-4.2154 -5.5217 -1.7997 0.9717
-3.8089 -5.8106 -1.7999 0.9717
-3.3826 -6.0697 -1.8001 0.9717
-3.1627 -6.1876 -1.8002 0.9717
-2.9388 -6.2975 -1.8003 0.9717
-2.7110 -6.3994 -1.8005 0.9717
-2.4797 -6.4931 -1.8006 0.9717
-1.7677 -6.7234 -1.8010 0.9717
-1.5253 -6.7830 -1.8011 0.9717
-0.7875 -6.9092 -1.8015 0.9717
-0.2726 -6.5371 -1.8018 0.9732
-0.0378 -6.5431 -1.8019 0.9732
0.1971 -6.5407 -1.8020 0.9732
1.1316 -6.4470 -1.8025 0.9732
1.5914 -6.3500 -1.8028 0.9732
2.0432 -6.2203 -1.8030 0.9732
2.2653 -6.1434 -1.8032 0.9732
2.4845 -6.0585 -1.8033 0.9732
3.1220 -5.7574 -1.8036 0.9732
3.5275 -5.5193 -1.8039 0.9732
3.9149 -5.2526 -1.8041 0.9732
4.2821 -4.9587 -1.8043 0.9732
4.6274 -4.6392 -1.8045 0.9732
5.1000 -4.1155 -1.8047 0.9732
5.3826 -3.7393 -1.8049 0.9732
5.5136 -3.5438 -1.8050 0.9732
5.7541 -3.1394 -1.8051 0.9732
5.8633 -2.9309 -1.8052 0.9732
6.1449 -2.2838 -1.8053 0.9732
6.2932 -1.8371 -1.8054 0.9732
6.4091 -1.3809 -1.8055 0.9732
6.5206 -0.6840 -1.8055 0.9732
6.5530 -0.2144 -1.8056 0.9732
6.5515 0.2564 -1.8056 0.9732
6.5381 0.4914 -1.8056 0.9732
6.5162 0.7257 -1.8056 0.9732
6.4472 1.1913 -1.8055 0.9732
6.3450 1.6508 -1.8055 0.9732
6.2100 2.1017 -1.8054 0.9732
6.0429 2.5417 -1.8053 0.9732
5.8446 2.9685 -1.8052 0.9732
5.6162 3.3800 -1.8051 0.9732
5.2097 3.9561 -1.8015 0.9732
5.0556 4.1335 -1.7984 0.9733
4.7865 4.2089 -1.7553 0.9739
4.4656 4.2205 -1.6921 0.9748
4.0527 4.4224 -1.6519 0.9754
3.3773 4.9558 -1.6515 0.9754
2.3828 4.4622 -1.3931 0.9792
2.6326 5.3869 -1.6511 0.9754
2.2390 5.5612 -1.6509 0.9754
1.8340 5.7067 -1.6507 0.9754
1.6279 5.7685 -1.6506 0.9754
1.4197 5.8228 -1.6505 0.9754
0.3570 5.9807 -1.6499 0.9754
0.1421 5.9892 -1.6498 0.9755
-0.0730 5.9900 -1.6497 0.9755
-0.5025 5.9685 -1.6495 0.9755
-0.7163 5.9462 -1.6493 0.9755
-0.9293 5.9163 -1.6492 0.9755
-1.1410 5.8787 -1.6491 0.9755
-1.3512 5.8335 -1.6490 0.9755
-1.5596 5.7809 -1.6489 0.9755
-1.7660 5.7208 -1.6488 0.9755
-2.3703 5.4967 -1.6484 0.9755
-2.7581 5.3118 -1.6482 0.9755
-2.9469 5.2090 -1.6481 0.9755
-3.1318 5.0996 -1.6480 0.9755
-3.3126 4.9835 -1.6479 0.9755
-5.1555 4.0097 -1.7986 0.9733
-5.2980 3.8233 -1.7992 0.9733
-5.6777 3.2312 -1.7990 0.9733
-1.2201 0.6375 -0.3791 0.9943
-1.2255 0.5322 -0.3679 0.9945
-1.2254 0.4306 -0.3577 0.9946
-1.2235 0.3811 -0.3529 0.9947
-1.2212 0.2862 -0.3454 0.9948
-1.2268 0.2414 -0.3443 0.9948
-1.2368 0.1073 -0.3419 0.9949
-1.2377 0.0183 -0.3409 0.9949
-1.2377 -0.0707 -0.3414 0.9949
-1.2364 -0.1153 -0.3420 0.9949
-1.2341 -0.1599 -0.3427 0.9949
-1.2305 -0.2046 -0.3435 0.9948
-1.2259 -0.2493 -0.3445 0.9948
-1.2206 -0.2943 -0.3458 0.9948
-1.2223 -0.3416 -0.3495 0.9947
-1.2240 -0.3899 -0.3538 0.9947
-1.2257 -0.4395 -0.3586 0.9946
-1.2252 -0.5414 -0.3689 0.9945
-1.2193 -0.6471 -0.3801 0.9943
-5.4079 -3.6651 -1.7991 0.9733
-5.1314 -4.0439 -1.7992 0.9733
-4.9832 -4.2257 -1.7993 0.9733
-4.8285 -4.4021 -1.7994 0.9733
-4.6676 -4.5728 -1.7994 0.9733
-3.9659 -5.1948 -1.7998 0.9732
-3.7770 -5.3341 -1.7999 0.9732
-3.1823 -5.7102 -1.8002 0.9732
-2.3328 -6.1084 -1.8007 0.9732
-1.8888 -6.2609 -1.8009 0.9732
-1.4349 -6.3811 -1.8012 0.9732
-1.2051 -6.4290 -1.8013 0.9732
-0.7408 -6.4998 -1.8015 0.9732
-0.0356 -6.1740 -1.8019 0.9746
0.4075 -6.1615 -1.8022 0.9746
0.6284 -6.1433 -1.8023 0.9746
1.0677 -6.0832 -1.8025 0.9746
1.5016 -5.9917 -1.8027 0.9746
1.7158 -5.9343 -1.8029 0.9746
1.9279 -5.8693 -1.8030 0.9746
2.1374 -5.7967 -1.8031 0.9746
2.3443 -5.7166 -1.8032 0.9746
2.5481 -5.6291 -1.8033 0.9746
2.7487 -5.5343 -1.8034 0.9746
3.3283 -5.2076 -1.8037 0.9746
4.0403 -4.6787 -1.8041 0.9746
4.3660 -4.3772 -1.8043 0.9746
4.5205 -4.2179 -1.8044 0.9746
4.6692 -4.0531 -1.8045 0.9746
4.8119 -3.8830 -1.8046 0.9746
5.0785 -3.5281 -1.8047 0.9746
5.2021 -3.3436 -1.8048 0.9746
5.4290 -2.9620 -1.8049 0.9746
5.7977 -2.1547 -1.8051 0.9746
5.9961 -1.5191 -1.8052 0.9746
6.0469 -1.3029 -1.8053 0.9746
6.0898 -1.0850 -1.8053 0.9746
6.1250 -0.8657 -1.8053 0.9746
6.1860 0.0198 -1.8054 0.9746
6.1479 0.6847 -1.8054 0.9746
6.1194 0.9050 -1.8054 0.9746
6.0829 1.1240 -1.8053 0.9746
5.9266 1.7714 -1.8053 0.9746
5.7014 2.3981 -1.8052 0.9746
5.5144 2.8008 -1.8051 0.9746
5.2989 3.1890 -1.8050 0.9746
5.1808 3.3771 -1.8049 0.9746
3.8709 4.2240 -1.6721 0.9764
3.6713 4.3070 -1.6517 0.9767
3.1866 4.6760 -1.6514 0.9767
3.0165 4.7871 -1.6513 0.9767
2.5893 4.4561 -1.5041 0.9788
2.2998 5.1683 -1.6510 0.9767
1.9228 5.3193 -1.6508 0.9767
1.5360 5.4429 -1.6506 0.9767
1.3396 5.4942 -1.6505 0.9767
1.1414 5.5384 -1.6503 0.9767
0.3369 5.6433 -1.6499 0.9767
0.1341 5.6513 -1.6498 0.9767
-0.0688 5.6521 -1.6497 0.9767
-0.4741 5.6319 -1.6495 0.9767
-0.8769 5.5826 -1.6493 0.9767
-1.0766 5.5472 -1.6491 0.9767
-2.2367 5.1868 -1.6485 0.9767
-2.6027 5.0124 -1.6483 0.9767
-2.7808 4.9154 -1.6482 0.9767
-2.9553 4.8122 -1.6481 0.9767
-3.7995 4.2435 -1.6624 0.9765
-4.0985 4.2593 -1.7251 0.9757
-4.4145 4.2697 -1.7924 0.9747
-4.5723 4.1151 -1.7953 0.9747
-4.7249 3.9550 -1.7983 0.9747
-5.2452 3.2397 -1.7993 0.9746
-1.1604 0.6063 -0.3821 0.9946
-1.1672 0.5069 -0.3714 0.9947
-1.1686 0.4583 -0.3663 0.9948
-1.1687 0.4106 -0.3615 0.9949
-1.1696 0.3187 -0.3538 0.9950
-1.1720 0.2746 -0.3513 0.9950
-1.1775 0.2317 -0.3502 0.9950
-1.1852 0.1459 -0.3485 0.9950
-1.1874 0.1030 -0.3478 0.9950
-1.1883 0.0175 -0.3468 0.9951
-1.1883 -0.0679 -0.3474 0.9951
-1.1871 -0.1107 -0.3480 0.9950
-1.1847 -0.1535 -0.3486 0.9950
-1.1812 -0.1964 -0.3495 0.9950
-1.1709 -0.2823 -0.3515 0.9950
-1.1697 -0.3268 -0.3544 0.9950
-1.1684 -0.4670 -0.3672 0.9948
-5.3380 -3.0834 -1.7991 0.9746
-5.1033 -3.4587 -1.7992 0.9746
-4.5565 -4.1541 -1.7995 0.9746
-4.0841 -4.6205 -1.7998 0.9746
-3.9158 -4.7644 -1.7998 0.9746
-3.3814 -5.1585 -1.8001 0.9746
-2.2013 -5.7641 -1.8008 0.9746
-1.1371 -6.0665 -1.8013 0.9746
-0.9187 -6.1038 -1.8014 0.9746
-0.6990 -6.1332 -1.8016 0.9746
-0.4527 -5.8234 -1.8017 0.9758
0.1760 -5.8394 -1.8020 0.9758
0.5946 -5.8125 -1.8023 0.9758
0.8029 -5.7877 -1.8024 0.9758
1.0102 -5.7556 -1.8025 0.9758
1.4207 -5.6689 -1.8027 0.9758
1.6234 -5.6146 -1.8028 0.9758
1.8240 -5.5531 -1.8029 0.9758
2.2180 -5.4085 -1.8031 0.9758
2.4108 -5.3257 -1.8033 0.9758
2.7870 -5.1397 -1.8035 0.9758
3.1489 -4.9270 -1.8037 0.9758
3.3240 -4.8110 -1.8038 0.9758
3.4947 -4.6888 -1.8038 0.9758
3.6609 -4.5606 -1.8039 0.9758
3.8225 -4.4265 -1.8040 0.9758
4.1306 -4.1412 -1.8042 0.9758
4.2768 -3.9905 -1.8043 0.9758
4.4175 -3.8345 -1.8044 0.9758
4.6816 -3.5080 -1.8045 0.9758
4.9216 -3.1633 -1.8046 0.9758
5.1362 -2.8022 -1.8048 0.9758
5.3243 -2.4267 -1.8049 0.9758
5.6173 -1.6398 -1.8050 0.9758
5.6727 -1.4371 -1.8051 0.9758
5.8203 -0.6105 -1.8052 0.9758
5.8385 -0.4012 -1.8052 0.9758
5.8358 0.4386 -1.8052 0.9758
5.7548 1.0634 -1.8052 0.9758
5.7128 1.2693 -1.8051 0.9758
5.5430 1.8760 -1.8051 0.9758
5.4720 2.0737 -1.8050 0.9758
5.3939 2.2687 -1.8050 0.9758
4.9015 3.1950 -1.8047 0.9758
4.5291 3.7030 -1.8045 0.9758
4.3886 3.8591 -1.8026 0.9758
3.5947 4.2171 -1.7093 0.9771
3.1718 4.3131 -1.6514 0.9778
3.0148 4.4239 -1.6513 0.9778
2.8539 4.5291 -1.6513 0.9778
2.3791 4.4552 -1.5579 0.9791
1.9988 4.9645 -1.6508 0.9778
1.8192 5.0327 -1.6507 0.9778
1.6373 5.0945 -1.6506 0.9778
1.4533 5.1497 -1.6505 0.9779
1.2674 5.1982 -1.6504 0.9779
1.0799 5.2400 -1.6503 0.9779
0.7011 5.3034 -1.6501 0.9779
-0.6396 5.3088 -1.6494 0.9779
-0.8297 5.2821 -1.6493 0.9779
-1.5767 5.1077 -1.6489 0.9779
-1.7589 5.0475 -1.6488 0.9779
-1.9389 4.9808 -1.6487 0.9779
-2.1163 4.9077 -1.6486 0.9779
-2.2910 4.8283 -1.6485 0.9779
-2.7963 4.5533 -1.6482 0.9779
-3.1154 4.3404 -1.6480 0.9779
-3.2733 4.2311 -1.6501 0.9779
-3.5186 4.2256 -1.6961 0.9772
-3.7837 4.2258 -1.7496 0.9765
-4.0308 4.1890 -1.7932 0.9760
-4.1846 4.0473 -1.7957 0.9759
-4.3336 3.9003 -1.7984 0.9759
-4.6053 3.5817 -1.7996 0.9759
-4.9631 3.0655 -1.7994 0.9759
-1.1058 0.5778 -0.3848 0.9948
-1.1104 0.5304 -0.3796 0.9949
-1.1137 0.4837 -0.3745 0.9949
-1.1191 0.3932 -0.3659 0.9950
-1.1205 0.3491 -0.3620 0.9951
-1.1316 0.2226 -0.3557 0.9952
-1.1393 0.1402 -0.3541 0.9952
-1.1424 0.0579 -0.3528 0.9952
-1.1423 0.0168 -0.3524 0.9952
-1.1424 -0.0242 -0.3524 0.9952
-1.1411 -0.1064 -0.3535 0.9952
-1.1388 -0.1476 -0.3542 0.9952
-1.1353 -0.1888 -0.3550 0.9952
-1.1307 -0.2300 -0.3559 0.9952
-1.1204 -0.3569 -0.3627 0.9951
-1.1097 -0.5388 -0.3805 0.9948
-1.1048 -0.5863 -0.3858 0.9948
-1.0985 -0.6345 -0.3913 0.9947
-4.5820 -3.6110 -1.7995 0.9759
-4.3115 -3.9307 -1.7996 0.9759
-4.1678 -4.0831 -1.7997 0.9759
-3.8644 -4.3720 -1.7999 0.9759
-3.1995 -4.8810 -1.8002 0.9759
-3.0224 -4.9930 -1.8003 0.9759
-2.8414 -5.0985 -1.8004 0.9759
-2.6567 -5.1975 -1.8005 0.9759
-2.2772 -5.3754 -1.8007 0.9759
-2.0829 -5.4539 -1.8008 0.9759
-1.4848 -5.6472 -1.8011 0.9759
-0.6614 -5.8030 -1.8016 0.9758
-0.4293 -5.5232 -1.8017 0.9770
-0.2308 -5.5354 -1.8018 0.9770
-0.0320 -5.5405 -1.8019 0.9770
1.5397 -5.3250 -1.8028 0.9770
1.7299 -5.2667 -1.8029 0.9770
1.9180 -5.2015 -1.8030 0.9770
2.1036 -5.1295 -1.8031 0.9770
2.9865 -4.6727 -1.8036 0.9769
3.1524 -4.5628 -1.8037 0.9769
3.3144 -4.4469 -1.8038 0.9769
3.4720 -4.3253 -1.8038 0.9769
3.6252 -4.1980 -1.8039 0.9769
4.0560 -3.7845 -1.8042 0.9769
4.4399 -3.3269 -1.8044 0.9769
4.6675 -3.0000 -1.8045 0.9769
4.8710 -2.6576 -1.8046 0.9769
4.9634 -2.4811 -1.8047 0.9769
5.0494 -2.3014 -1.8047 0.9769
5.2018 -1.9333 -1.8048 0.9769
5.4639 -0.9735 -1.8050 0.9769
5.5197 -0.5790 -1.8050 0.9769
5.5370 -0.3805 -1.8050 0.9769
5.5501 0.0178 -1.8050 0.9769
5.5458 0.2170 -1.8050 0.9769
5.5345 0.4159 -1.8050 0.9769
5.5160 0.6143 -1.8050 0.9769
5.4576 1.0085 -1.8050 0.9769
5.4178 1.2037 -1.8050 0.9769
5.3710 1.3974 -1.8050 0.9769
5.2568 1.7791 -1.8049 0.9769
5.1894 1.9666 -1.8049 0.9769
5.1154 2.1516 -1.8048 0.9769
5.0348 2.3338 -1.8048 0.9769
4.9476 2.5129 -1.8047 0.9769
4.6484 3.0300 -1.8046 0.9769
4.5365 3.1948 -1.8045 0.9769
4.4187 3.3555 -1.8045 0.9769
4.1663 3.6636 -1.8043 0.9769
3.7364 4.0772 -1.7986 0.9770
3.3354 4.2100 -1.7468 0.9777
3.1020 4.2181 -1.7029 0.9782
2.8795 4.2254 -1.6630 0.9787
2.5506 4.3895 -1.6511 0.9789
2.0636 4.6375 -1.6508 0.9789
1.7253 4.7731 -1.6506 0.9789
1.5528 4.8317 -1.6506 0.9789
1.0242 4.9698 -1.6503 0.9789
0.8451 5.0031 -1.6502 0.9789
0.1203 5.0713 -1.6498 0.9789
-0.0618 5.0721 -1.6497 0.9789
-0.2438 5.0663 -1.6496 0.9789
-0.4255 5.0540 -1.6495 0.9789
-0.7869 5.0098 -1.6493 0.9789
-1.1442 4.9399 -1.6491 0.9789
-1.3207 4.8953 -1.6490 0.9789
-2.3358 4.4983 -1.6485 0.9789
-2.4956 4.4114 -1.6484 0.9789
-2.6522 4.3187 -1.6483 0.9789
-3.5051 4.2094 -1.7815 0.9772
-3.6801 4.1101 -1.7942 0.9771
-3.9759 3.8455 -1.7989 0.9770
-4.3682 3.3973 -1.7997 0.9770
-4.4872 3.2382 -1.7997 0.9770
-1.0492 0.5971 -0.3926 0.9949
-1.0556 0.5516 -0.3874 0.9950
-1.0607 0.5066 -0.3823 0.9951
-1.0700 0.4197 -0.3738 0.9952
-1.0835 0.2539 -0.3619 0.9953
-1.0888 0.2142 -0.3609 0.9953
-1.0931 0.1746 -0.3600 0.9954
-1.0963 0.1349 -0.3592 0.9954
-1.0984 0.0953 -0.3586 0.9954
-1.0994 0.0557 -0.3580 0.9954
-1.0993 0.0162 -0.3576 0.9954
-1.0993 -0.0628 -0.3581 0.9954
-1.0824 -0.2610 -0.3621 0.9953
-1.0758 -0.3006 -0.3633 0.9953
-1.0747 -0.3424 -0.3668 0.9953
-1.0649 -0.4706 -0.3786 0.9951
-1.0479 -0.6053 -0.3936 0.9949
-4.5803 -3.1042 -1.7995 0.9770
-4.2205 -3.5790 -1.7997 0.9770
-3.9532 -3.8729 -1.7998 0.9770
-3.8117 -4.0124 -1.7999 0.9770
-3.6654 -4.1469 -1.8000 0.9770
-3.3587 -4.3995 -1.8002 0.9770
-3.1988 -4.5175 -1.8002 0.9770
-3.0347 -4.6296 -1.8003 0.9770
-2.8667 -4.7358 -1.8004 0.9770
-2.1599 -5.0984 -1.8008 0.9770
-1.5995 -5.3019 -1.8011 0.9770
-1.4082 -5.3562 -1.8012 0.9770
-1.2151 -5.4036 -1.8013 0.9770
-1.0204 -5.4441 -1.8014 0.9770
-0.8244 -5.4775 -1.8015 0.9770
-0.2194 -5.2615 -1.8018 0.9780
-0.0304 -5.2663 -1.8019 0.9780
0.7238 -5.2176 -1.8023 0.9780
0.9107 -5.1885 -1.8024 0.9780
1.0964 -5.1528 -1.8025 0.9780
1.9994 -4.8755 -1.8030 0.9780
2.3443 -4.7200 -1.8032 0.9780
2.5123 -4.6331 -1.8033 0.9780
2.9963 -4.3368 -1.8036 0.9780
3.7233 -3.7329 -1.8040 0.9780
3.8551 -3.5970 -1.8041 0.9780
4.1035 -3.3114 -1.8042 0.9780
4.5358 -2.6904 -1.8044 0.9780
4.7174 -2.3581 -1.8045 0.9780
5.0633 -1.4781 -1.8047 0.9779
5.1930 -0.9252 -1.8048 0.9779
5.2229 -0.7382 -1.8048 0.9779
5.2625 -0.3616 -1.8049 0.9779
5.2709 0.2062 -1.8049 0.9779
5.2425 0.5839 -1.8049 0.9779
5.2182 0.7717 -1.8049 0.9779
5.1871 0.9585 -1.8049 0.9779
5.1493 1.1441 -1.8048 0.9779
4.9322 1.8692 -1.8047 0.9779
4.7852 2.2181 -1.8047 0.9779
4.6135 2.5556 -1.8046 0.9779
4.5187 2.7195 -1.8045 0.9780
4.4180 2.8799 -1.8045 0.9780
4.3117 3.0365 -1.8044 0.9780
4.0824 3.3378 -1.8043 0.9780
3.9599 3.4821 -1.8042 0.9780
3.8322 3.6218 -1.8042 0.9780
3.6994 3.7567 -1.8040 0.9780
3.5578 3.8824 -1.8018 0.9780
3.4121 4.0028 -1.7997 0.9780
3.2625 4.1181 -1.7976 0.9780
2.8694 4.2105 -1.7434 0.9787
2.6575 4.2175 -1.7056 0.9791
2.2728 4.2562 -1.6509 0.9798
1.9614 4.4079 -1.6508 0.9798
0.8033 4.7554 -1.6501 0.9798
0.6320 4.7809 -1.6501 0.9798
0.2874 4.8134 -1.6499 0.9798
-0.0587 4.8210 -1.6497 0.9798
-0.5766 4.7860 -1.6494 0.9798
-0.9184 4.7317 -1.6492 0.9798
-1.0876 4.6954 -1.6491 0.9798
-1.4215 4.6048 -1.6489 0.9798
-1.5858 4.5506 -1.6489 0.9798
-2.0655 4.3530 -1.6486 0.9798
-2.3898 4.2242 -1.6606 0.9797
-2.7992 4.2112 -1.7302 0.9788
-3.0173 4.2037 -1.7705 0.9784
-3.3580 4.0327 -1.7956 0.9781
-3.5045 3.9139 -1.7976 0.9780
-3.9102 3.5192 -1.8000 0.9780
-4.0338 3.3765 -1.7999 0.9780
-4.1523 3.2294 -1.7998 0.9780
-0.9945 0.6143 -0.4000 0.9951
-1.0026 0.5706 -0.3947 0.9951
-1.0224 0.4440 -0.3814 0.9953
-1.0303 0.3620 -0.3736 0.9954
-1.0325 0.3216 -0.3700 0.9954
-1.0560 0.1300 -0.3641 0.9955
-1.0581 0.0918 -0.3634 0.9955
-1.0591 0.0537 -0.3628 0.9955
-1.0591 0.0156 -0.3624 0.9955
-1.0592 -0.0224 -0.3625 0.9955
-1.0590 -0.0605 -0.3629 0.9955
-1.0479 -0.2132 -0.3659 0.9955
-1.0298 -0.3692 -0.3743 0.9954
-1.0262 -0.4101 -0.3781 0.9953
-1.0084 -0.5351 -0.3906 0.9952
-1.0013 -0.5784 -0.3956 0.9951
-0.9929 -0.6221 -0.4009 0.9951
-4.2454 -3.1053 -1.7997 0.9780
-4.1313 -3.2558 -1.7998 0.9780
-4.0119 -3.4021 -1.7998 0.9780
-3.8873 -3.5440 -1.7999 0.9780
-3.7577 -3.6814 -1.7999 0.9780
-3.4842 -3.9418 -1.8001 0.9780
-3.0406 -4.2941 -1.8003 0.9780
-2.8847 -4.4007 -1.8004 0.9780
-2.5617 -4.5968 -1.8006 0.9780
-2.2256 -4.7692 -1.8008 0.9780
-1.7002 -4.9816 -1.8010 0.9780
-1.3386 -5.0913 -1.8012 0.9780
-0.7837 -5.2065 -1.8015 0.9780
-0.3887 -4.9999 -1.8017 0.9789
-0.2090 -5.0109 -1.8018 0.9789
0.1511 -5.0135 -1.8020 0.9789
0.8673 -4.9413 -1.8024 0.9789
1.0442 -4.9073 -1.8025 0.9789
1.3937 -4.8202 -1.8027 0.9789
1.5659 -4.7674 -1.8028 0.9789
1.7361 -4.7083 -1.8029 0.9789
2.0697 -4.5721 -1.8031 0.9789
2.3926 -4.4122 -1.8033 0.9789
2.5496 -4.3237 -1.8033 0.9789
2.7033 -4.2296 -1.8034 0.9789
2.8535 -4.1300 -1.8035 0.9789
3.0000 -4.0251 -1.8036 0.9789
3.6713 -3.4255 -1.8040 0.9789
3.7920 -3.2916 -1.8040 0.9789
4.1243 -2.8652 -1.8042 0.9789
4.3195 -2.5621 -1.8043 0.9789
4.4088 -2.4054 -1.8044 0.9789
4.5703 -2.0830 -1.8045 0.9789
4.6422 -1.9176 -1.8045 0.9789
4.7680 -1.5797 -1.8046 0.9789
4.8217 -1.4076 -1.8046 0.9789
4.8692 -1.2336 -1.8046 0.9789
4.9738 -0.7030 -1.8047 0.9789
4.9959 -0.5240 -1.8047 0.9789
5.0115 -0.3444 -1.8047 0.9789
5.0207 -0.1642 -1.8047 0.9789
5.0195 0.1964 -1.8048 0.9789
4.9925 0.5560 -1.8047 0.9789
4.9396 0.9128 -1.8047 0.9789
4.9037 1.0895 -1.8047 0.9789
4.8613 1.2648 -1.8047 0.9789
4.8127 1.4385 -1.8047 0.9789
4.5570 2.1123 -1.8045 0.9789
4.4781 2.2745 -1.8045 0.9789
4.3935 2.4337 -1.8044 0.9789
4.3032 2.5898 -1.8044 0.9789
4.1061 2.8917 -1.8043 0.9789
3.9995 3.0371 -1.8042 0.9789
3.8878 3.1786 -1.8042 0.9789
3.3923 3.7018 -1.8039 0.9789
3.2551 3.8186 -1.8027 0.9789
2.9664 4.0338 -1.7989 0.9789
2.8170 4.1336 -1.7971 0.9790
2.6483 4.2028 -1.7847 0.9791
2.4459 4.2093 -1.7491 0.9795
2.2509 4.2153 -1.7168 0.9799
1.7159 4.2619 -1.6506 0.9807
1.5618 4.3206 -1.6506 0.9807
1.0881 4.4627 -1.6503 0.9807
0.7650 4.5288 -1.6501 0.9807
0.6019 4.5531 -1.6500 0.9807
0.4381 4.5716 -1.6499 0.9807
0.2737 4.5841 -1.6499 0.9807
-0.3852 4.5751 -1.6495 0.9807
-0.7123 4.5352 -1.6493 0.9807
-0.8746 4.5064 -1.6492 0.9807
-1.3538 4.3856 -1.6490 0.9807
-1.5103 4.3339 -1.6489 0.9807
-1.8230 4.2275 -1.6540 0.9806
-2.0028 4.2210 -1.6785 0.9803
-2.7638 4.1579 -1.7937 0.9790
-3.3426 3.7332 -1.8003 0.9789
-3.6016 3.4835 -1.8002 0.9789
-3.7242 3.3518 -1.8001 0.9789
-3.9548 3.0758 -1.8000 0.9789
-0.9417 0.6294 -0.4069 0.9952
-0.9690 0.5063 -0.3928 0.9954
-0.9761 0.4662 -0.3886 0.9954
-0.9820 0.4264 -0.3846 0.9955
-0.9868 0.3870 -0.3808 0.9955
-0.9929 0.3093 -0.3736 0.9956
-0.9998 0.2725 -0.3723 0.9956
-1.0059 0.2357 -0.3712 0.9956
-1.0182 0.1253 -0.3686 0.9956
-1.0203 0.0885 -0.3679 0.9957
-1.0214 -0.0216 -0.3670 0.9957
-1.0212 -0.0583 -0.3675 0.9957
-1.0200 -0.0951 -0.3680 0.9957
-1.0178 -0.1319 -0.3687 0.9956
-1.0146 -0.1687 -0.3695 0.9956
-1.0049 -0.2423 -0.3714 0.9956
-0.9986 -0.2790 -0.3725 0.9956
-0.9926 -0.3162 -0.3743 0.9956
-0.9860 -0.3941 -0.3815 0.9955
-0.9811 -0.4335 -0.3853 0.9955
-0.9591 -0.5540 -0.3979 0.9953
-0.9497 -0.5950 -0.4026 0.9952
-0.9398 -0.6369 -0.4079 0.9952
-3.4509 -3.6326 -1.8001 0.9789
-3.1817 -3.8712 -1.8003 0.9789
-3.0408 -3.9830 -1.8003 0.9789
-2.8959 -4.0898 -1.8004 0.9789
-2.5953 -4.2874 -1.8006 0.9789
-2.2812 -4.4630 -1.8007 0.9789
-2.1196 -4.5422 -1.8008 0.9789
-1.7885 -4.6830 -1.8010 0.9789
-1.6193 -4.7444 -1.8011 0.9789
-1.4480 -4.7998 -1.8012 0.9789
-1.1000 -4.8918 -1.8014 0.9789
-0.3708 -4.7703 -1.8018 0.9798
-0.1994 -4.7807 -1.8019 0.9798
-0.0276 -4.7851 -1.8019 0.9798
0.1442 -4.7832 -1.8020 0.9798
0.4870 -4.7610 -1.8022 0.9798
0.9962 -4.6818 -1.8025 0.9797
1.1637 -4.6433 -1.8026 0.9797
1.3296 -4.5987 -1.8027 0.9797
1.4939 -4.5483 -1.8028 0.9797
1.9745 -4.3619 -1.8030 0.9797
2.2826 -4.2094 -1.8032 0.9797
2.4323 -4.1250 -1.8033 0.9797
2.5790 -4.0352 -1.8034 0.9797
2.7223 -3.9402 -1.8034 0.9797
3.2587 -3.5105 -1.8037 0.9797
3.3827 -3.3914 -1.8038 0.9797
3.5024 -3.2679 -1.8039 0.9797
3.6176 -3.1402 -1.8039 0.9797
3.7281 -3.0085 -1.8040 0.9797
3.8338 -2.8728 -1.8041 0.9797
4.0303 -2.5905 -1.8042 0.9797
4.1208 -2.4442 -1.8042 0.9797
4.3601 -1.9872 -1.8044 0.9797
4.5487 -1.5070 -1.8045 0.9797
4.5999 -1.3428 -1.8045 0.9797
4.6452 -1.1768 -1.8045 0.9797
4.6846 -1.0094 -1.8045 0.9797
4.7897 -0.1567 -1.8046 0.9797
4.7886 0.1874 -1.8046 0.9797
4.7628 0.5304 -1.8046 0.9797
4.5391 1.5362 -1.8045 0.9797
4.3474 2.0151 -1.8044 0.9797
4.2721 2.1699 -1.8044 0.9797
4.1914 2.3218 -1.8043 0.9797
4.0138 2.6164 -1.8042 0.9797
3.8155 2.8974 -1.8041 0.9797
3.5976 3.1635 -1.8040 0.9797
3.4816 3.2905 -1.8040 0.9797
3.2363 3.5316 -1.8038 0.9797
3.1074 3.6453 -1.8038 0.9797
2.9743 3.7543 -1.8037 0.9797
2.6921 3.9504 -1.8002 0.9798
2.3975 4.1261 -1.7970 0.9798
2.2434 4.2011 -1.7934 0.9798
2.0558 4.2066 -1.7631 0.9802
1.6975 4.2161 -1.7115 0.9808
1.3574 4.2235 -1.6706 0.9812
1.0381 4.2576 -1.6503 0.9814
0.8845 4.2919 -1.6502 0.9814
0.7298 4.3207 -1.6501 0.9814
0.4179 4.3615 -1.6499 0.9814
0.2616 4.3823 -1.6532 0.9814
0.1039 4.3798 -1.6498 0.9814
-0.0534 4.3805 -1.6497 0.9814
-0.2106 4.3755 -1.6496 0.9815
-0.3675 4.3649 -1.6495 0.9815
-0.6796 4.3268 -1.6493 0.9815
-0.8345 4.2994 -1.6493 0.9815
-0.9882 4.2665 -1.6492 0.9815
-1.1416 4.2316 -1.6505 0.9814
-1.3039 4.2238 -1.6646 0.9813
-1.8163 4.2121 -1.7273 0.9806
-2.1817 4.2017 -1.7828 0.9800
-2.7848 3.8798 -1.7984 0.9798
-2.9248 3.7807 -1.8000 0.9798
-3.0594 3.6742 -1.8004 0.9798
-3.1892 3.5618 -1.8004 0.9798
-3.3149 3.4449 -1.8003 0.9798
-3.4363 3.3236 -1.8002 0.9798
-3.7733 2.9346 -1.8000 0.9798
-0.9022 0.6030 -0.4086 0.9954
-0.9383 0.4481 -0.3916 0.9956
-0.9443 0.4101 -0.3877 0.9956
-0.9493 0.3723 -0.3840 0.9957
-0.9531 0.3349 -0.3804 0.9957
-0.9646 0.2629 -0.3765 0.9957
-0.9707 0.2275 -0.3754 0.9957
-0.9797 0.1565 -0.3736 0.9958
-0.9826 0.1209 -0.3728 0.9958
-0.9858 0.0145 -0.3713 0.9958
-0.9856 -0.0563 -0.3717 0.9958
-0.9844 -0.0918 -0.3723 0.9958
-0.9822 -0.1273 -0.3730 0.9958
-0.9790 -0.1628 -0.3737 0.9958
-0.9749 -0.1983 -0.3746 0.9958
-0.9696 -0.2338 -0.3756 0.9957
-0.9562 -0.3046 -0.3779 0.9957
-0.9371 -0.4550 -0.3923 0.9956
-0.9297 -0.4934 -0.3963 0.9955
-0.9112 -0.5709 -0.4049 0.9954
-3.7542 -2.9586 -1.8000 0.9798
-3.6457 -3.0916 -1.8000 0.9798
-3.5325 -3.2205 -1.8001 0.9798
-3.1661 -3.5820 -1.8003 0.9798
-3.0356 -3.6935 -1.8003 0.9798
-2.9012 -3.8002 -1.8004 0.9798
-2.4762 -4.0906 -1.8006 0.9798
-2.1765 -4.2581 -1.8008 0.9798
-2.0223 -4.3337 -1.8009 0.9798
-1.8655 -4.4037 -1.8010 0.9798
-1.5449 -4.5266 -1.8011 0.9798
-1.3815 -4.5793 -1.8012 0.9798
-0.5418 -4.7536 -1.8017 0.9798
0.1378 -4.5708 -1.8020 0.9805
0.3018 -4.5631 -1.8021 0.9805
0.6284 -4.5302 -1.8023 0.9805
0.7907 -4.5049 -1.8024 0.9805
0.9519 -4.4738 -1.8025 0.9805
1.1120 -4.4370 -1.8026 0.9805
1.7359 -4.2330 -1.8029 0.9805
1.8868 -4.1681 -1.8030 0.9805
2.3243 -3.9417 -1.8032 0.9805
2.4644 -3.8558 -1.8033 0.9805
2.7349 -3.6694 -1.8035 0.9805
2.8650 -3.5690 -1.8035 0.9805
2.9913 -3.4640 -1.8036 0.9805
3.1139 -3.3545 -1.8037 0.9805
3.6634 -2.7451 -1.8040 0.9805
3.7597 -2.6119 -1.8040 0.9805
3.8512 -2.4753 -1.8041 0.9805
4.0190 -2.1928 -1.8042 0.9805
4.0953 -2.0471 -1.8042 0.9805
4.1662 -1.8988 -1.8043 0.9805
4.2318 -1.7481 -1.8043 0.9805
4.2919 -1.5951 -1.8043 0.9805
4.3464 -1.4400 -1.8044 0.9805
4.4762 -0.9645 -1.8044 0.9805
4.5340 -0.6408 -1.8045 0.9805
4.5541 -0.4777 -1.8045 0.9805
4.5767 -0.1497 -1.8045 0.9805
4.5663 0.3432 -1.8045 0.9805
4.5510 0.5068 -1.8045 0.9805
4.4315 1.1529 -1.8044 0.9805
4.3872 1.3113 -1.8044 0.9805
4.3372 1.4679 -1.8044 0.9805
4.2206 1.7752 -1.8043 0.9805
4.1541 1.9255 -1.8043 0.9805
4.0822 2.0734 -1.8043 0.9805
3.9227 2.3608 -1.8042 0.9805
3.7431 2.6360 -1.8041 0.9805
3.5441 2.8976 -1.8040 0.9805
3.3268 3.1442 -1.8039 0.9805
3.2117 3.2615 -1.8038 0.9805
3.0925 3.3746 -1.8038 0.9805
2.8422 3.5875 -1.8036 0.9805
2.7115 3.6871 -1.8036 0.9805
2.4371 3.8676 -1.8014 0.9805
2.0026 4.0977 -1.7973 0.9806
1.8529 4.1642 -1.7961 0.9806
1.6920 4.2024 -1.7852 0.9807
1.5206 4.2066 -1.7627 0.9810
1.1890 4.2134 -1.7252 0.9814
1.0279 4.2161 -1.7101 0.9815
0.7129 4.2204 -1.6867 0.9818
0.5581 4.2219 -1.6782 0.9819
0.4047 4.2230 -1.6718 0.9819
-0.0515 4.2242 -1.6648 0.9820
-0.3555 4.2231 -1.6701 0.9819
-0.8188 4.2186 -1.6935 0.9817
-0.9766 4.2164 -1.7055 0.9816
-1.1368 4.2137 -1.7198 0.9814
-1.4660 4.2069 -1.7556 0.9810
-1.8025 4.1800 -1.7938 0.9806
-1.9525 4.1150 -1.7949 0.9806
-2.1002 4.0447 -1.7960 0.9806
-2.2456 3.9694 -1.7972 0.9806
-2.3883 3.8890 -1.7985 0.9806
-2.5283 3.8036 -1.7998 0.9806
-2.6644 3.7122 -1.8007 0.9805
-2.7959 3.6140 -1.8006 0.9805
-2.9237 3.5111 -1.8005 0.9805
-3.2838 3.1761 -1.8003 0.9805
-3.3956 3.0561 -1.8003 0.9806
-0.8413 0.6543 -0.4200 0.9954
-0.8547 0.6168 -0.4153 0.9955
-0.8871 0.5049 -0.4022 0.9956
-0.9029 0.4312 -0.3943 0.9957
-0.9090 0.3947 -0.3905 0.9957
-0.9181 0.3226 -0.3835 0.9958
-0.9246 0.2880 -0.3816 0.9958
-0.9315 0.2539 -0.3804 0.9959
-0.9374 0.2196 -0.3794 0.9959
-0.9461 0.1511 -0.3776 0.9959
-0.9520 -0.0544 -0.3758 0.9959
-0.9415 -0.1915 -0.3786 0.9959
-0.9364 -0.2258 -0.3796 0.9959
-0.9232 -0.2941 -0.3818 0.9958
-0.9175 -0.3290 -0.3841 0.9958
