ply
format ascii 1.0
element vertex 1543
property float32 x
property float32 y
property float32 z
property float32 I
end_header
1.1173 11.6597 1.6826 0.9538
0.6962 11.6626 1.6783 0.9539
0.2768 11.6655 1.6762 0.9539
-0.9828 11.6741 1.6829 0.9538
-1.8345 11.6799 1.6984 0.9533
-2.2674 11.6828 1.7095 0.9530
-2.7066 11.6858 1.7231 0.9527
-49.4608 68.9097 12.1848 0.7098
-49.4944 63.9771 11.6195 0.7212
-45.0069 54.0503 10.1037 0.7526
-44.6635 49.8819 9.6181 0.7629
-44.7088 43.2426 8.9350 0.7777
-44.7291 40.2571 8.6445 0.7841
-44.7482 37.4560 8.3828 0.7899
-53.0820 35.4807 9.1718 0.7726
-69.6397 36.3878 11.2870 0.7280
-62.9251 27.3260 9.8547 0.7579
-63.8049 19.8755 9.5999 0.7633
-21.9431 -8.7693 3.3945 0.9089
-71.3494 -41.2139 11.8364 0.7168
-66.6909 -41.7855 11.3053 0.7276
-21.9515 -14.8771 3.8093 0.8984
-57.3398 -41.9413 10.2051 0.7504
-34.6551 -29.3875 6.5271 0.8323
-34.4390 -31.3976 6.6945 0.8283
-32.6071 -31.9448 6.5572 0.8315
-32.3604 -34.0642 6.7494 0.8271
-32.9485 -37.2762 7.1467 0.8179
-26.2687 -31.9615 5.9430 0.8460
-24.7791 -37.8016 6.4929 0.8331
-16.3081 -31.9053 5.1472 0.8652
-8.4188 -32.0207 4.7561 0.8748
-7.1024 -31.5841 4.6503 0.8774
-3.4524 -44.4126 5.7078 0.8356
-1.7700 -42.4473 5.4435 0.8425
-0.2517 -43.6124 5.5882 0.8387
6.1702 -44.4782 5.7536 0.8344
7.7885 -44.3745 5.7727 0.8339
8.8816 -41.7409 5.4680 0.8419
10.4531 -41.7100 5.5096 0.8408
13.7147 -41.7538 5.6312 0.8376
18.2366 -44.4701 6.1585 0.8238
19.8041 -43.7492 6.1532 0.8239
23.4923 -43.3227 6.3146 0.8198
33.6884 -41.9674 6.8955 0.8049
61.8574 -71.6317 12.1268 0.6827
61.9871 -66.7776 11.6745 0.6925
59.7511 -59.9046 10.8411 0.7109
61.9080 -57.7633 10.8490 0.7107
61.9851 -46.4467 9.9245 0.7317
59.8761 -41.5960 9.3416 0.7453
59.8972 -38.4986 9.1233 0.7504
61.1783 -36.2868 9.1140 0.7506
66.3161 -36.1813 9.6795 0.7374
46.5172 1.8202 5.9649 0.8288
46.8599 10.4113 6.1506 0.8240
40.1912 10.4568 5.3212 0.8458
40.0837 13.5659 5.4221 0.8431
40.1129 15.2014 5.4964 0.8411
40.2678 16.9371 5.5974 0.8385
40.0981 20.3662 5.7625 0.8341
38.8597 21.5258 5.6920 0.8360
40.1947 24.1904 6.0110 0.8276
40.2171 30.5399 6.4704 0.8158
40.1830 32.8535 6.6505 0.8111
12.0500 11.3885 2.1244 0.9353
10.6256 11.5949 2.0151 0.9385
6.2078 11.6250 1.6886 0.9482
5.6830 11.6286 1.6584 0.9491
5.1760 11.6321 1.6313 0.9500
4.6847 11.6354 1.6072 0.9507
3.2862 11.6450 1.5504 0.9524
1.5410 11.6568 1.5066 0.9537
1.1173 11.6597 1.5008 0.9539
0.2768 11.6655 1.4951 0.9540
-0.5616 11.6712 1.4972 0.9540
-1.8345 11.6799 1.5149 0.9534
-2.2674 11.6828 1.5249 0.9531
-22.5910 39.9330 5.8787 0.8311
-49.4236 74.3541 11.4398 0.6976
-49.4944 63.9771 10.3642 0.7217
-44.6635 49.8819 8.5791 0.7634
-45.1679 40.6520 7.7862 0.7827
-45.1180 37.7655 7.5389 0.7888
-49.2764 35.5607 7.7862 0.7827
-53.0820 35.4806 8.1809 0.7730
-57.4920 35.5107 8.6584 0.7615
-62.4557 35.5446 9.2077 0.7484
-65.2991 28.3569 9.1217 0.7504
-85.4275 26.6111 11.4647 0.6971
-72.2014 19.6775 9.5886 0.7395
-80.8267 9.9477 10.4346 0.7201
-21.9431 -8.7693 3.0278 0.9091
-74.6237 -43.1052 11.0422 0.7064
-66.9131 -41.9247 10.1175 0.7273
-54.8715 -43.2429 8.9516 0.7545
-50.4199 -42.7561 8.4705 0.7660
-34.4390 -31.3976 5.9713 0.8287
-32.3604 -34.0642 6.0202 0.8274
-33.0508 -37.3919 6.3944 0.8177
-26.2655 -31.9575 5.3003 0.8464
-24.3158 -31.8507 5.1344 0.8508
-23.8606 -33.6970 5.2905 0.8466
-25.7013 -39.2086 6.0070 0.8277
-24.8007 -40.9705 6.1365 0.8244
-16.3081 -31.9053 4.5911 0.8655
-15.2559 -32.6921 4.6225 0.8646
-14.1149 -33.3185 4.6364 0.8642
-15.1274 -39.6106 5.4329 0.8428
-14.1637 -41.4989 5.6185 0.8379
-12.8212 -42.4985 5.6877 0.8361
-7.1024 -31.5841 4.1480 0.8776
-5.0605 -44.4016 5.7261 0.8351
-3.4524 -44.4126 5.0192 0.8358
7.8087 -44.4894 5.0894 0.8338
8.8767 -41.7177 4.8057 0.8422
12.8735 -44.5240 5.2221 0.8298
13.9692 -42.5286 5.0437 0.8351
15.4222 -41.8246 5.0227 0.8357
19.8041 -43.7492 5.4109 0.8242
20.8803 -42.0407 5.2889 0.8278
26.7850 -41.9089 5.6040 0.8186
30.8559 -44.6601 6.1162 0.8037
32.6827 -43.8506 6.1621 0.8024
61.6677 -71.4120 10.6311 0.6840
61.9080 -57.7633 9.5401 0.7112
59.8056 -51.9135 8.9230 0.7270
59.8761 -41.5961 8.2146 0.7457
59.8972 -38.4986 8.0226 0.7508
60.9386 -36.1446 7.9831 0.7519
66.3161 -36.1813 8.5118 0.7378
46.8602 10.4114 5.4086 0.8243
40.1129 15.2014 4.8333 0.8414
40.2979 16.9498 4.9258 0.8386
40.0754 18.5763 4.9769 0.8371
40.0981 20.3662 5.0673 0.8344
40.2020 28.3122 5.5402 0.8204
40.2171 30.5399 5.6898 0.8161
40.1829 32.8535 5.8482 0.8115
40.2000 35.3495 6.0315 0.8062
39.1064 36.9599 6.0628 0.8053
11.4126 11.5896 1.8327 0.9366
8.5374 11.6092 1.6237 0.9436
7.3206 11.6175 1.5472 0.9462
5.6830 11.6286 1.4583 0.9492
3.7415 11.6419 1.3778 0.9520
3.2862 11.6450 1.3633 0.9525
0.2768 11.6655 1.3148 0.9541
-0.1421 11.6683 1.3148 0.9541
-0.5616 11.6712 1.3165 0.9541
-0.9828 11.6741 1.3200 0.9539
-2.2674 11.6828 1.3409 0.9532
-49.4236 74.3541 10.0596 0.6981
-43.8578 61.1036 8.4746 0.7388
-43.8625 56.6972 8.0768 0.7494
-44.6381 53.6074 7.8599 0.7552
-48.7551 54.4515 8.2352 0.7451
-45.0782 43.5998 7.0661 0.7769
-46.0367 35.8044 6.5712 0.7908
-53.6441 35.8563 7.2701 0.7713
-69.8151 33.3459 8.7175 0.7324
-72.3131 28.3630 8.7521 0.7315
-63.3476 19.7331 7.4758 0.7656
-66.0803 15.4841 7.6471 0.7609
-68.6065 13.4982 7.8783 0.7547
-80.8286 9.9479 9.1759 0.7205
-61.2748 -41.5275 8.3402 0.7423
-56.8686 -41.5966 7.9387 0.7531
-53.9534 -42.5194 7.7400 0.7584
-32.5992 -31.9370 5.1421 0.8322
-32.3604 -34.0642 5.2939 0.8277
-34.6908 -39.2474 5.9020 0.8099
-26.2622 -31.9536 4.6603 0.8466
-24.3158 -31.8507 4.5150 0.8510
-23.8607 -33.6970 4.6522 0.8469
-25.9309 -39.5588 5.3295 0.8266
-23.2761 -41.7663 5.3874 0.8249
-15.2559 -32.6921 4.0648 0.8648
-8.4160 -32.0099 3.7292 0.8753
-7.1024 -31.5841 3.6475 0.8778
-2.2990 -15.2747 1.7404 0.9397
-5.0605 -44.4016 5.0353 0.8354
-3.4524 -44.4126 4.3329 0.8361
-0.2517 -43.6124 4.2422 0.8392
1.3098 -43.4543 4.2286 0.8397
4.3017 -42.0513 4.1116 0.8438
6.0581 -43.6702 4.2884 0.8376
7.6450 -43.5570 4.3015 0.8372
8.8691 -41.6821 4.1451 0.8426
10.4765 -41.8031 4.1918 0.8410
12.8735 -44.5240 4.5081 0.8301
18.2738 -44.5608 4.6846 0.8240
26.7661 -41.8794 4.8344 0.8189
32.6827 -43.8506 5.3196 0.8027
61.9871 -66.7776 8.8624 0.6934
61.9080 -57.7633 8.2358 0.7116
61.9609 -49.9999 7.7443 0.7262
61.9851 -46.4467 7.5340 0.7325
59.8761 -41.5961 7.0915 0.7460
75.2695 -37.6251 8.1850 0.7131
79.5836 -36.2718 8.5070 0.7036
46.8605 10.4115 4.6692 0.8245
40.1912 10.4568 4.0394 0.8463
40.0909 11.9827 4.0700 0.8452
40.1016 13.5720 4.1179 0.8435
40.1129 15.2014 4.1725 0.8416
40.0981 20.3662 4.3745 0.8346
40.2020 28.3122 4.7827 0.8207
40.2171 30.5399 4.9119 0.8163
40.2000 35.3495 5.2069 0.8064
11.4126 11.5896 1.5821 0.9367
9.1937 11.6047 1.4401 0.9422
7.9143 11.6134 1.3670 0.9451
7.3206 11.6175 1.3356 0.9463
5.2359 11.7667 1.2527 0.9496
4.7389 11.7701 1.2342 0.9503
4.2558 11.7733 1.2177 0.9509
3.7950 11.8084 1.2064 0.9514
1.9686 11.6539 1.1496 0.9536
1.1333 11.8266 1.1556 0.9534
-0.1442 11.8353 1.1513 0.9535
-1.6115 13.3765 1.3105 0.9473
-2.0906 13.3100 1.3105 0.9473
-2.5670 13.2264 1.3105 0.9473
-3.0402 13.1258 1.3105 0.9473
-43.7224 77.2856 8.6370 0.6999
-51.9944 84.6643 9.6641 0.6708
-43.8534 65.9741 7.7055 0.7273
-43.3897 56.0861 6.8973 0.7520
-49.8670 55.6933 7.2714 0.7405
-44.6870 46.4400 6.2688 0.7718
-44.7088 43.2426 6.0500 0.7788
-45.5544 35.4293 5.6133 0.7930
-49.1281 35.4537 5.8930 0.7839
-53.0820 35.4806 6.2104 0.7737
-83.6522 51.6689 9.5636 0.6736
-63.1170 35.9209 7.0638 0.7469
-74.5917 35.6274 8.0405 0.7173
-62.7091 22.0332 6.4651 0.7656
-64.4346 17.5608 6.4960 0.7646
-68.6065 13.4982 6.8011 0.7550
-69.7142 11.1334 6.8669 0.7530
-80.8657 9.9525 7.9250 0.7208
-50.4199 -42.7561 6.4302 0.7667
-32.5952 -31.9332 4.4385 0.8324
-34.9326 -39.5210 5.1305 0.8090
-26.2589 -31.9496 4.0227 0.8469
-24.3158 -31.8507 3.8977 0.8513
-25.9480 -39.5848 4.6038 0.8268
-24.8007 -40.9705 4.6584 0.8249
-23.2761 -41.7663 4.6508 0.8252
-16.3081 -31.9053 3.4853 0.8659
-14.1149 -33.3185 3.5196 0.8647
-15.1458 -39.6585 4.1292 0.8432
-14.1637 -41.4989 4.2651 0.8384
-12.8121 -42.4682 4.3147 0.8367
-8.4146 -32.0046 3.2188 0.8755
-5.0605 -44.4016 4.3468 0.8356
-0.2517 -43.6124 3.5723 0.8394
1.3054 -43.3077 3.5489 0.8404
4.2896 -41.9332 3.4526 0.8444
12.8735 -44.5240 3.7962 0.8303
15.3928 -41.7447 3.6443 0.8365
18.2738 -44.5608 3.9449 0.8242
19.4570 -42.9822 3.8647 0.8275
20.9399 -42.1607 3.8558 0.8278
26.7617 -41.8725 4.0703 0.8192
61.9871 -66.7776 7.4629 0.6937
59.7511 -59.9045 6.9302 0.7121
61.9080 -57.7633 6.9352 0.7119
59.8055 -51.9135 6.4866 0.7277
61.9609 -49.9998 6.5214 0.7265
60.9387 -36.1447 5.8033 0.7525
74.0240 -37.0026 6.7785 0.7174
79.5836 -36.2718 7.1637 0.7040
40.0001 11.9556 3.4195 0.8457
40.1128 15.2014 3.5136 0.8418
40.0738 16.8555 3.5609 0.8399
40.0857 18.5811 3.6189 0.8375
38.8778 21.5358 3.6403 0.8366
40.1949 24.1905 3.8425 0.8284
40.2171 30.5399 4.1362 0.8165
40.2000 35.3495 4.3847 0.8067
39.2179 37.0653 4.4199 0.8053
11.4126 11.5896 1.3323 0.9368
9.2797 11.7131 1.2240 0.9418
6.2966 11.7914 1.0949 0.9478
4.7517 11.8019 1.0421 0.9502
4.2673 11.8052 1.0282 0.9509
3.7950 11.8084 1.0159 0.9514
2.4355 11.8177 0.9883 0.9527
1.5631 11.8236 0.9769 0.9533
1.1333 11.8266 0.9731 0.9534
0.7062 11.8295 0.9707 0.9536
0.2808 11.8324 0.9694 0.9536
-2.6879 13.8494 1.1555 0.9450
-43.7526 84.2606 7.7766 0.6831
-34.5290 56.2248 5.4044 0.7674
-43.9001 66.0444 6.4956 0.7274
-43.6919 60.8724 6.1373 0.7403
-43.5419 56.2828 5.8285 0.7516
-44.6635 49.8819 5.4842 0.7644
-44.6870 46.4400 5.2788 0.7721
-62.4557 35.5446 5.8861 0.7495
-68.0995 35.5831 6.2934 0.7346
-64.4049 30.7618 5.8461 0.7509
-63.7150 27.6690 5.6896 0.7567
-65.7132 25.7744 5.7817 0.7533
-79.7459 12.7354 6.6146 0.7232
-72.2546 -12.0145 5.9995 0.7453
-77.6529 -41.2107 7.2006 0.7027
-66.8822 -41.9053 6.4647 0.7285
-56.7540 -41.5128 5.7594 0.7541
-50.4199 -42.7561 5.4148 0.7670
-34.4390 -31.3976 3.8172 0.8294
-32.5913 -31.9294 3.7371 0.8327
-34.9349 -39.5236 4.3206 0.8092
-26.2557 -31.9456 3.3870 0.8471
-24.3158 -31.8507 3.2822 0.8514
-23.8606 -33.6970 3.3819 0.8473
-24.8007 -40.9705 3.9228 0.8251
-23.2761 -41.7663 3.9164 0.8254
-14.1149 -33.3185 2.9638 0.8648
-8.4131 -31.9992 2.7101 0.8756
-5.9216 -31.5921 2.6327 0.8790
-2.2986 -15.2724 1.2650 0.9399
-1.7680 -42.3990 2.8257 0.8436
-0.2517 -43.6124 2.9041 0.8396
1.3397 -44.4453 2.9608 0.8367
2.7765 -41.9833 2.8016 0.8448
7.8087 -44.4894 3.0077 0.8344
8.8807 -41.7368 2.8413 0.8428
10.4566 -41.7239 2.8642 0.8416
12.8735 -44.5240 3.0862 0.8304
13.7161 -41.7579 2.9267 0.8384
15.3835 -41.7194 2.9608 0.8367
19.4462 -42.9585 3.1399 0.8278
20.9362 -42.1531 3.1340 0.8281
24.1929 -44.6147 3.3794 0.8159
26.8382 -41.9921 3.3184 0.8189
32.6827 -43.8506 3.6416 0.8031
33.6758 -41.9516 3.5821 0.8060
61.9017 -57.7574 5.6374 0.7122
59.7274 -48.1975 5.1104 0.7352
59.8749 -41.5953 4.8545 0.7466
61.0135 -36.1890 4.7236 0.7525
66.3160 -36.1812 5.0302 0.7387
72.1618 -36.0717 5.3719 0.7237
46.8612 10.4116 3.1964 0.8249
40.1924 10.4571 2.7654 0.8466
40.1018 13.5721 2.8190 0.8439
40.1129 15.2015 2.8564 0.8420
40.0742 16.8557 2.8948 0.8401
40.0859 18.5812 2.9420 0.8377
40.0981 20.3662 2.9947 0.8350
40.1817 22.2581 3.0586 0.8318
40.1950 24.1906 3.1238 0.8286
40.2023 28.3124 3.2742 0.8211
40.1571 30.4943 3.3575 0.8170
39.0437 36.9006 3.5772 0.8062
40.2953 40.9201 3.8241 0.7944
40.3166 43.9946 3.9735 0.7872
9.3048 11.7449 0.9977 0.9417
8.6405 11.7494 0.9711 0.9432
8.0099 11.7537 0.9471 0.9446
7.4090 11.7578 0.9254 0.9458
6.8163 11.7308 0.9034 0.9471
6.2966 11.7914 0.8901 0.9478
4.7517 11.8019 0.8472 0.9503
3.7950 11.8084 0.8259 0.9515
3.3333 11.8116 0.8172 0.9520
2.8806 11.8147 0.8097 0.9524
1.9686 11.6539 0.7870 0.9537
1.1333 11.8266 0.7911 0.9535
0.2808 11.8324 0.7881 0.9537
-2.1865 13.9204 0.9383 0.9451
-43.8222 77.4620 5.9261 0.6999
-43.8634 71.4244 5.5812 0.7146
-43.7563 60.9621 4.9967 0.7402
-43.6220 56.3864 4.7470 0.7514
-44.6381 53.6074 4.6450 0.7560
-44.6870 46.4400 4.2914 0.7723
-45.0782 43.5999 4.1759 0.7777
-45.0987 40.5897 4.0401 0.7841
-65.1864 54.5636 5.6605 0.7112
-57.4920 35.5107 4.4996 0.7627
-71.5555 31.0738 5.1945 0.7314
-80.2061 24.9846 5.5938 0.7141
-89.7422 -35.8645 6.4352 0.6788
-74.6236 -43.1052 5.7384 0.7079
-61.2812 -41.5319 4.9293 0.7432
-56.7310 -41.4959 4.6802 0.7544
-55.4669 -43.7121 4.7024 0.7534
-50.4199 -42.7561 4.4019 0.7672
-32.3604 -34.0642 3.1286 0.8283
-34.9349 -39.5236 3.5125 0.8094
-24.3158 -31.8507 2.6682 0.8516
-23.8607 -33.6970 2.7493 0.8474
-25.9480 -39.5848 3.1516 0.8272
-23.2761 -41.7663 3.1838 0.8256
-14.1149 -33.3185 2.4094 0.8650
-15.1458 -39.6585 2.8268 0.8435
-14.1637 -41.4989 2.9198 0.8388
-7.1843 -23.8138 1.6563 0.9051
-7.1024 -31.5841 2.1556 0.8783
-5.9217 -31.5921 2.1403 0.8791
-3.4524 -44.4126 2.2851 0.8366
-1.7675 -42.3869 2.1762 0.8437
-0.2517 -43.6124 2.2372 0.8397
2.8856 -43.6338 2.2432 0.8393
4.4120 -43.1300 2.2240 0.8406
6.1702 -44.4782 2.3034 0.8354
7.8087 -44.4894 2.3170 0.8345
10.5990 -42.2921 2.2365 0.8398
12.8735 -44.5240 2.3775 0.8306
13.9579 -42.4941 2.2944 0.8360
15.6055 -42.3216 2.3138 0.8347
18.2738 -44.5608 2.4706 0.8246
25.0811 -42.5343 2.5329 0.8206
10.4008 -15.0539 0.9386 0.9293
11.2037 -15.0321 0.9617 0.9277
12.7829 -15.9243 1.0475 0.9215
13.3463 -15.4552 1.0475 0.9215
59.7209 -64.3363 4.5029 0.7036
59.7792 -55.7770 4.1940 0.7207
59.7274 -48.1975 3.9370 0.7354
59.9935 -44.9543 3.8456 0.7406
60.6556 -35.9768 3.6176 0.7539
87.5070 -36.1481 4.8567 0.6844
46.8611 10.4116 2.4624 0.8251
40.1924 10.4571 2.1304 0.8468
40.3123 13.6433 2.1831 0.8433
40.1129 15.2015 2.2005 0.8421
40.0981 20.3662 2.3070 0.8352
40.8375 24.5772 2.4449 0.8262
40.1878 26.1960 2.4608 0.8252
40.2174 30.5402 2.5904 0.8169
40.3166 43.9947 3.0611 0.7874
9.3048 11.7449 0.7686 0.9418
8.6405 11.7494 0.7481 0.9433
6.8163 11.7308 0.6960 0.9471
5.7487 11.7632 0.6716 0.9489
5.2359 11.7667 0.6606 0.9497
3.7848 11.7766 0.6345 0.9517
0.7043 11.7975 0.6063 0.9538
0.2800 11.8004 0.6055 0.9538
-1.6766 13.9169 0.7191 0.9454
-2.1865 13.9204 0.7228 0.9451
-9.5521 18.3958 1.0634 0.9203
-43.8727 77.5512 4.5706 0.6999
-44.0320 71.6989 4.3161 0.7139
-43.6220 56.3864 3.6569 0.7516
-45.0069 54.0503 3.6080 0.7545
-49.6484 55.4493 3.8179 0.7422
-45.0782 43.5999 3.2170 0.7779
-45.0987 40.5897 3.1124 0.7843
-53.6440 35.8563 3.3099 0.7723
-69.3176 36.2195 4.0119 0.7311
-62.9251 27.3260 3.5191 0.7597
-62.5241 24.5236 3.4452 0.7641
-62.7091 22.0332 3.4095 0.7663
-63.3476 19.7331 3.4035 0.7666
-66.0802 15.4841 3.4815 0.7620
-68.6065 13.4982 3.5867 0.7557
-73.9209 11.8052 3.8399 0.7409
-77.6496 -41.2090 4.5093 0.7032
-74.6236 -43.1052 4.4207 0.7081
-66.8617 -41.8925 4.0473 0.7290
-56.8854 -41.6089 3.6153 0.7541
-55.4669 -43.7121 3.6226 0.7536
-32.3604 -34.0642 2.4102 0.8285
-26.1739 -31.8461 2.1145 0.8478
-15.4445 -23.5614 1.4451 0.8933
-23.2761 -41.7663 2.4527 0.8257
-14.1637 -41.4989 2.2493 0.8389
-7.1024 -31.5841 1.6606 0.8784
-5.9216 -31.5921 1.6488 0.8792
-2.2983 -15.2702 0.7921 0.9400
-5.0605 -44.4016 2.2924 0.8361
-3.0820 -39.6475 1.4328 0.8529
-1.6562 -39.7186 1.4323 0.8529
1.1963 -39.6907 1.4307 0.8530
5.5121 -39.7343 1.4453 0.8517
6.9867 -39.8059 1.4561 0.8506
9.9833 -39.8354 1.4797 0.8484
11.5226 -39.8519 1.4947 0.8470
14.7064 -39.8834 1.5316 0.8435
16.3629 -39.9012 1.5538 0.8415
19.2717 -42.5729 1.6838 0.8294
20.9884 -42.2583 1.7000 0.8279
24.1929 -44.6147 1.8286 0.8162
26.9204 -42.1207 1.8011 0.8187
29.2608 -42.3515 1.8547 0.8138
12.1967 -16.3644 0.7353 0.9216
13.2028 -16.4474 0.7599 0.9190
13.2106 -15.2981 0.7283 0.9223
59.7511 -59.9046 3.0485 0.7127
59.7792 -55.7770 2.9458 0.7209
59.3983 -51.5600 2.8340 0.7299
59.6512 -48.1360 2.7617 0.7358
66.3159 -36.1812 2.7219 0.7391
71.6339 -35.8078 2.8855 0.7258
79.5810 -36.2706 3.1511 0.7046
54.5212 -22.5220 2.1254 0.7897
40.3014 12.0456 1.5155 0.8450
40.3123 13.6433 1.5334 0.8434
40.1129 15.2015 1.5456 0.8422
40.2444 18.6546 1.5982 0.8373
40.0981 20.3662 1.6204 0.8353
40.1878 26.1960 1.7284 0.8253
40.2023 28.3124 1.7717 0.8213
40.2174 30.5402 1.8195 0.8170
40.2003 35.3497 1.9288 0.8071
40.2957 40.9205 2.0692 0.7946
9.8880 11.6000 0.5492 0.9408
9.2797 11.7131 0.5384 0.9419
7.9882 11.7219 0.5111 0.9448
6.8163 11.7308 0.4888 0.9471
6.2796 11.7596 0.4803 0.9480
4.7517 11.8019 0.4584 0.9504
2.4355 11.8177 0.4347 0.9529
1.9686 11.6539 0.4258 0.9538
1.1333 11.8266 0.4281 0.9536
0.7062 11.8295 0.4270 0.9537
0.2808 11.8324 0.4264 0.9537
-0.1442 11.8353 0.4265 0.9537
-0.5697 11.8382 0.4270 0.9537
-2.1748 13.8459 0.5050 0.9454
-43.9572 71.5771 3.0264 0.7145
-43.7563 60.9621 2.7037 0.7406
-43.6220 56.3864 2.5686 0.7518
-44.6381 53.6074 2.5134 0.7564
-49.1281 35.4536 2.1829 0.7847
-57.4920 35.5107 2.4347 0.7630
-68.0994 35.5830 2.7684 0.7353
-64.4049 30.7618 2.5716 0.7515
-62.5241 24.5235 2.4198 0.7643
-72.2014 19.6775 2.6963 0.7412
-77.6744 -41.2221 3.1683 0.7033
-74.6236 -43.1052 3.1050 0.7083
-66.8515 -41.8861 2.8422 0.7292
-61.2368 -41.5018 2.6653 0.7437
-32.9516 -24.1025 1.4710 0.8492
-55.4669 -43.7121 2.5445 0.7538
-50.4199 -42.7561 2.3819 0.7675
-34.9349 -39.5236 1.9006 0.8097
-26.1246 -31.7861 1.4824 0.8482
-15.4445 -23.5614 1.0151 0.8934
-24.8007 -40.9705 1.7256 0.8256
-14.6707 -31.4381 1.2500 0.8703
-13.6567 -32.2371 1.2614 0.8692
-15.1458 -39.6585 1.5296 0.8437
-14.1637 -41.4989 1.5799 0.8390
-6.2580 -23.8024 0.8868 0.9062
-5.9040 -31.4978 1.1546 0.8796
-2.2981 -15.2690 0.5563 0.9401
-1.6619 -39.8528 0.8289 0.8525
2.6384 -39.8963 0.8309 0.8522
5.5121 -39.7343 0.8336 0.8517
8.4983 -39.9395 0.8485 0.8493
10.0128 -39.9531 0.8559 0.8481
14.7644 -40.0407 0.8868 0.8430
16.4112 -40.0190 0.8988 0.8411
19.9280 -40.1233 0.9310 0.8359
21.7288 -40.0708 0.9472 0.8333
24.8297 -42.1079 1.0158 0.8224
9.9460 -15.5618 0.3838 0.9288
11.3176 -16.3808 0.4137 0.9234
12.1967 -16.3644 0.4241 0.9216
13.1594 -16.3933 0.4368 0.9193
59.7209 -64.3363 1.8242 0.7038
59.7792 -55.7770 1.6990 0.7210
59.6061 -48.0996 1.5917 0.7361
59.8960 -38.4979 1.4796 0.7521
61.1179 -36.2510 1.4767 0.7525
66.3160 -36.1812 1.5699 0.7392
79.5810 -36.2706 1.8174 0.7048
87.5070 -36.1481 1.9675 0.6847
57.6684 -14.6099 1.2362 0.7882
54.1764 10.0110 1.1449 0.8022
45.2608 10.0561 0.9635 0.8307
40.1924 10.4571 0.8630 0.8469
40.7949 24.5516 0.9894 0.8266
40.1878 26.1960 0.9969 0.8254
40.2023 28.3124 1.0218 0.8214
40.2003 35.3497 1.1124 0.8072
40.3005 38.0885 1.1523 0.8010
40.2957 40.9205 1.1934 0.7947
40.5282 44.2255 1.2466 0.7866
9.8880 11.6000 0.3167 0.9408
9.3048 11.7449 0.3114 0.9418
8.6405 11.7494 0.3031 0.9433
8.0099 11.7537 0.2956 0.9447
7.4090 11.7578 0.2888 0.9459
6.8163 11.7308 0.2819 0.9472
6.2966 11.7914 0.2778 0.9479
5.2500 11.7985 0.2684 0.9496
4.2673 11.8052 0.2609 0.9510
3.7950 11.8084 0.2577 0.9516
3.3333 11.8116 0.2550 0.9521
2.8728 11.7828 0.2520 0.9526
2.4355 11.8177 0.2507 0.9529
1.9686 11.6539 0.2456 0.9538
0.7062 11.8295 0.2463 0.9537
0.2808 11.8324 0.2460 0.9538
-0.1442 11.8353 0.2460 0.9537
-0.5697 11.8382 0.2463 0.9537
-2.1798 13.8779 0.2919 0.9453
-43.7874 77.4005 1.8480 0.7006
-44.6381 53.6074 1.4496 0.7565
-44.7088 43.2426 1.2926 0.7797
-44.7482 37.4561 1.2127 0.7918
-45.5543 35.4292 1.1992 0.7938
-49.1280 35.4536 1.2590 0.7847
-53.0819 35.4806 1.3268 0.7746
-57.4919 35.5106 1.4042 0.7631
-62.4556 35.5445 1.4933 0.7501
-68.0994 35.5830 1.5967 0.7354
-71.0075 33.9154 1.6353 0.7299
-22.0381 9.5703 0.4993 0.9083
-69.4154 24.3895 1.5289 0.7450
-79.7459 12.7355 1.6781 0.7239
-89.6560 -35.8300 2.0064 0.6796
-74.6236 -43.1052 1.7909 0.7084
-57.9619 -39.2823 1.4550 0.7557
-49.9481 -39.3629 1.3215 0.7754
-46.5962 -39.5136 1.2696 0.7832
-34.3362 -31.3039 0.9656 0.8304
-24.5973 -24.0977 0.7156 0.8713
-32.2530 -33.9511 0.9731 0.8291
-31.9963 -36.1989 1.0040 0.8242
-25.7763 -31.3623 0.8436 0.8501
-16.0644 -31.4285 0.7335 0.8683
-15.1458 -39.6585 0.8822 0.8438
-14.1166 -41.3609 0.9082 0.8396
-8.2771 -31.4816 0.6764 0.8779
-7.0812 -31.4898 0.6707 0.8789
-2.2979 -15.2679 0.3209 0.9401
-5.0605 -44.4016 0.9287 0.8363
-3.4524 -44.4126 0.2468 0.8368
-1.7477 -41.9131 0.2324 0.8455
-0.2517 -43.6124 0.2416 0.8399
2.0701 -20.2363 0.1127 0.9219
6.1597 -44.4024 0.2484 0.8358
10.5250 -41.9968 0.2399 0.8410
13.8019 -42.0191 0.2451 0.8379
18.2738 -44.5608 0.2669 0.8248
20.9004 -42.0811 0.2603 0.8287
24.8297 -42.1079 0.2708 0.8224
9.9460 -15.5619 0.1023 0.9288
59.8960 -38.4979 0.3945 0.7522
66.3160 -36.1812 0.4186 0.7392
71.1529 -35.5674 0.4407 0.7275
79.4746 -36.2221 0.4839 0.7051
57.6627 -14.6085 0.3296 0.7882
37.2761 0.1195 0.2065 0.8615
52.4383 9.6898 0.2954 0.8079
44.2325 9.8276 0.2511 0.8342
40.1924 10.4571 0.2301 0.8469
40.0909 11.9827 0.2318 0.8459
40.1018 13.5721 0.2346 0.8442
40.1129 15.2015 0.2377 0.8423
40.0742 16.8556 0.2409 0.8404
40.2174 30.5402 0.2798 0.8171
40.2003 35.3498 0.2966 0.8072
22.9298 25.0216 0.1880 0.8731
9.8880 11.6000 0.0845 0.9409
8.6405 11.7494 0.0808 0.9433
6.8163 11.7308 0.0752 0.9472
4.2673 11.8052 0.0696 0.9510
2.8728 11.7828 0.0672 0.9526
2.4355 11.8177 0.0669 0.9529
1.9686 11.6539 0.0655 0.9538
-0.1442 11.8353 0.0656 0.9538
-1.6715 13.8744 0.0774 0.9456
-2.1798 13.8779 0.0778 0.9454
-43.7889 77.4031 0.4927 0.7007
-43.7563 60.9621 0.4158 0.7407
-43.6220 56.3864 0.3950 0.7519
-54.2206 56.3477 0.4332 0.7314
-66.6201 55.7636 0.4814 0.7064
-71.8423 55.8743 0.5043 0.6949
-53.6439 35.8562 0.3575 0.7725
-72.3131 28.3630 0.4304 0.7329
-80.2061 24.9846 0.4655 0.7146
-84.8181 -17.2533 0.4796 0.7074
-90.6207 -36.2156 0.5407 0.6768
-73.9758 -39.2593 0.4640 0.7153
-68.0723 -39.3209 0.4356 0.7302
-62.5651 -39.2005 0.4091 0.7443
-58.1323 -39.3978 0.3891 0.7551
-46.5962 -39.5136 0.3385 0.7832
-31.7775 -31.1321 0.2465 0.8370
-29.5891 -31.1470 0.2380 0.8421
-27.5432 -31.1610 0.2304 0.8467
-25.6216 -31.1741 0.2236 0.8509
-23.8087 -31.1865 0.2174 0.8548
-22.0912 -31.1982 0.2118 0.8582
-20.4578 -31.2093 0.2068 0.8613
-18.8984 -31.2199 0.2022 0.8642
-15.9680 -31.2399 0.1944 0.8691
-11.9411 -31.2674 0.1854 0.8747
-10.6746 -31.2760 0.1831 0.8762
-6.3393 -24.1114 0.1381 0.9051
-5.9040 -31.4978 0.1776 0.8797
-2.2978 -15.2668 0.0855 0.9401
-5.0605 -44.4016 0.2476 0.8363
10.3806 -31.6032 -0.3225 0.8754
41.0877 -69.6793 -0.7844 0.7236
9.9460 -15.5619 -0.1791 0.9288
11.3176 -16.3808 -0.1931 0.9234
12.1967 -16.3644 -0.1979 0.9216
27.4845 -31.8274 -0.4078 0.8452
27.0467 -20.2667 -0.3277 0.8735
46.8918 -30.1394 -0.5405 0.8001
34.6657 -20.5613 -0.3908 0.8511
37.4292 -20.4209 -0.4134 0.8432
40.9171 -20.4534 -0.4436 0.8328
44.9595 -20.4912 -0.4791 0.8207
25.7771 -10.6482 -0.2704 0.8944
25.8164 -9.5948 -0.2671 0.8957
71.3085 -20.8163 -0.7203 0.7429
73.9170 -7.7531 -0.7207 0.7428
37.2728 0.1194 -0.3614 0.8615
44.2325 9.8276 -0.4394 0.8342
40.0909 11.9827 -0.4057 0.8459
40.2932 13.6369 -0.4125 0.8435
40.1129 15.2014 -0.4160 0.8423
40.2775 18.6700 -0.4305 0.8373
40.1818 22.2581 -0.4454 0.8321
26.4374 20.0759 -0.3219 0.8756
40.2003 35.3497 -0.5191 0.8072
22.2819 22.6274 -0.3079 0.8807
22.3076 24.3427 -0.3202 0.8763
9.3048 11.7449 -0.1453 0.9418
8.6405 11.7494 -0.1414 0.9433
8.0099 11.7537 -0.1379 0.9447
7.4090 11.7578 -0.1348 0.9459
6.8163 11.7307 -0.1316 0.9472
4.7517 11.8019 -0.1234 0.9504
4.2673 11.8052 -0.1217 0.9510
3.7950 11.8084 -0.1203 0.9516
3.3333 11.8116 -0.1190 0.9521
2.8728 11.7828 -0.1176 0.9526
1.9686 11.6539 -0.1146 0.9538
1.5631 11.8236 -0.1156 0.9534
1.1333 11.8266 -0.1152 0.9536
0.7062 11.8295 -0.1149 0.9537
-0.5697 11.8382 -0.1149 0.9537
-1.6715 13.8744 -0.1355 0.9456
-2.1798 13.8779 -0.1362 0.9454
-2.6942 13.8814 -0.1371 0.9450
-25.1461 52.9967 -0.5688 0.7908
-29.7907 52.6592 -0.5867 0.7850
-43.8582 65.9813 -0.7682 0.7284
-25.3571 32.7770 -0.4018 0.8472
-29.1206 32.5230 -0.4233 0.8398
-46.4907 48.3145 -0.6502 0.7647
-46.5140 44.9886 -0.6275 0.7719
-45.1156 40.6049 -0.5886 0.7844
-60.1000 50.3061 -0.7600 0.7309
-52.1918 40.5914 -0.6411 0.7676
-62.4556 35.5445 -0.6968 0.7502
-64.4049 30.7618 -0.6921 0.7516
-62.7737 24.6214 -0.6538 0.7636
-63.3476 19.7331 -0.6434 0.7669
-66.0802 15.4841 -0.6581 0.7622
-99.5325 -9.2798 -0.9693 0.6704
-62.7632 -10.4363 -0.6169 0.7753
-70.8812 -19.8066 -0.7136 0.7450
-54.9398 -19.6999 -0.5659 0.7918
-42.6536 -20.7095 -0.4598 0.8272
-42.6433 -22.6309 -0.4681 0.8244
-42.6411 -24.6309 -0.4775 0.8212
-32.7190 -23.9324 -0.3931 0.8503
-25.6933 -23.4243 -0.3371 0.8702
-24.2227 -23.7308 -0.3288 0.8732
-24.2349 -25.5109 -0.3412 0.8687
-24.2480 -27.4329 -0.3550 0.8638
-23.8087 -31.1865 -0.3805 0.8547
-22.0912 -31.1982 -0.3707 0.8582
-15.4007 -23.4945 -0.2724 0.8937
-14.5474 -24.0322 -0.2724 0.8937
-14.5780 -28.5205 -0.3106 0.8797
-13.2422 -31.2585 -0.3292 0.8730
-11.9411 -31.2674 -0.3245 0.8747
-6.1936 -23.5573 -0.2362 0.9072
-5.9071 -26.2686 -0.2611 0.8979
-6.5240 -34.8059 -0.3434 0.8679
-2.2976 -15.2657 -0.1497 0.9401
-5.5946 -71.9698 -1.8002 0.7491
-3.0084 -72.1463 -1.8008 0.7491
2.1757 -72.1834 -1.8010 0.7490
1.6029 -24.2376 -0.6058 0.9074
4.2790 -20.1100 -0.5127 0.9210
5.0417 -20.1175 -0.5172 0.9204
5.8021 -20.0671 -0.5209 0.9198
6.6124 -20.1309 -0.5284 0.9187
7.4260 -20.1390 -0.5353 0.9177
8.2621 -20.1473 -0.5430 0.9166
10.9383 -20.1716 -0.5722 0.9123
11.9002 -20.1812 -0.5843 0.9105
13.1594 -16.3933 -0.5242 0.9193
9.4665 -10.1981 -0.3470 0.9458
9.8425 -9.8678 -0.3476 0.9458
10.5621 -9.8549 -0.3603 0.9438
11.3441 -9.8471 -0.3746 0.9417
27.0467 -20.2667 -0.8429 0.8735
32.0454 -20.5970 -0.9500 0.8586
34.5829 -20.5123 -1.0027 0.8514
37.8974 -20.6764 -1.0766 0.8414
41.1912 -20.5904 -1.1484 0.8317
24.9733 -11.3821 -0.6844 0.8960
26.2716 -9.7640 -0.6990 0.8939
28.7862 -9.5372 -0.7563 0.8857
29.4389 -6.3430 -0.7510 0.8865
66.8204 -11.9050 -1.6926 0.7622
47.7057 -6.7428 -1.2015 0.8247
71.8399 -7.5352 -1.8014 0.7490
38.0641 -1.2451 -0.9498 0.8587
37.2802 0.1195 -0.9297 0.8614
72.0308 5.4134 -1.8014 0.7490
65.4115 9.6734 -1.6490 0.7675
47.5525 8.7870 -1.2060 0.8241
40.1924 10.4571 -1.0357 0.8469
31.7608 12.0363 -0.8470 0.8729
31.5538 14.6262 -0.8673 0.8701
31.6520 17.5331 -0.9024 0.8652
31.5722 19.0010 -0.9190 0.8629
31.6284 20.6166 -0.9415 0.8598
26.1934 18.4466 -0.7990 0.8797
25.9454 19.7023 -0.8124 0.8778
23.5158 22.2250 -0.8069 0.8786
9.8880 11.6000 -0.3801 0.9408
9.3048 11.7449 -0.3737 0.9418
8.6405 11.7494 -0.3637 0.9433
6.2966 11.7914 -0.3334 0.9479
5.7643 11.7950 -0.3274 0.9488
5.2500 11.7985 -0.3220 0.9496
2.8728 11.7828 -0.3025 0.9526
2.4355 11.8177 -0.3009 0.9529
1.9686 11.6539 -0.2947 0.9538
1.1333 11.8266 -0.2963 0.9536
-0.5697 11.8382 -0.2956 0.9537
-1.1678 13.8710 -0.3471 0.9458
-1.6715 13.8744 -0.3485 0.9456
-2.1798 13.8779 -0.3503 0.9453
-18.8147 69.7406 -1.8014 0.7490
-23.3679 60.0304 -1.6065 0.7728
-24.9264 52.5335 -1.4501 0.7924
-9.5467 18.3855 -0.5166 0.9205
-13.8380 24.4606 -0.7009 0.8936
-36.6036 55.0674 -1.6490 0.7675
-17.6390 24.5750 -0.7544 0.8860
-18.3181 23.6782 -0.7466 0.8871
-20.8910 25.0887 -0.8142 0.8775
-21.0528 23.5126 -0.7871 0.8814
-47.2788 45.7284 -1.6403 0.7686
-44.7291 40.2571 -1.5007 0.7860
-45.5543 35.4292 -1.4392 0.7938
-53.0819 35.4806 -1.5923 0.7746
-56.2568 34.7478 -1.6490 0.7675
-58.6049 30.6220 -1.6490 0.7675
-60.6508 26.3384 -1.6490 0.7675
-62.3842 21.9191 -1.6490 0.7675
-63.1309 19.6656 -1.6490 0.7675
-63.7961 17.3868 -1.6490 0.7675
-65.2955 10.4277 -1.6490 0.7675
-65.8754 5.7161 -1.6490 0.7675
-72.1413 3.6571 -1.8014 0.7490
-72.2178 -1.5282 -1.8014 0.7490
-72.1164 -4.1195 -1.8014 0.7490
-57.3950 -9.5437 -1.4510 0.7923
-55.4953 -11.2886 -1.4123 0.7972
-64.2811 -15.4979 -1.6490 0.7675
-62.2829 -19.8403 -1.6301 0.7699
-54.9398 -19.6999 -1.4555 0.7917
-45.0494 -19.9075 -1.2283 0.8211
-42.7772 -22.7020 -1.2077 0.8238
-42.7815 -24.7120 -1.2321 0.8206
-42.7468 -26.7832 -1.2580 0.8172
-42.8205 -29.0205 -1.2900 0.8130
-32.7190 -23.9324 -1.0109 0.8503
-32.7452 -27.7679 -1.0707 0.8422
-25.6933 -23.4243 -0.8671 0.8701
-24.2227 -23.7308 -0.8457 0.8731
-24.2349 -25.5109 -0.8775 0.8687
-44.4880 -54.1291 -1.7473 0.7555
-40.7210 -57.5080 -1.7573 0.7543
-15.4007 -23.4945 -0.7006 0.8937
-14.5617 -26.1293 -0.7460 0.8872
-14.5780 -28.5205 -0.7988 0.8797
-27.8699 -65.7873 -1.7818 0.7514
-25.5361 -66.8652 -1.7850 0.7510
-7.1050 -23.5511 -0.6135 0.9063
-13.2733 -70.8134 -1.7967 0.7496
-2.2974 -15.2645 -0.3850 0.9401
-8.1705 -71.6882 -1.7994 0.7492
-3.3040 -42.5032 -1.7134 0.8431
-1.7765 -42.6022 -1.7137 0.8431
-0.2461 -42.6419 -1.7139 0.8431
1.6029 -24.2376 -0.9763 0.9073
2.8040 -20.2128 -0.8202 0.9216
3.6506 -20.7984 -0.8487 0.9189
5.8021 -20.0671 -0.8396 0.9198
6.6510 -20.2487 -0.8566 0.9182
11.0023 -20.2896 -0.9277 0.9117
12.1671 -20.6337 -0.9628 0.9086
12.1967 -16.3644 -0.8203 0.9215
8.8543 -10.2533 -0.5445 0.9472
9.2816 -9.9989 -0.5483 0.9468
10.0441 -6.4558 -0.4799 0.9533
10.8796 -6.4530 -0.5084 0.9506
24.9732 -10.3161 -1.0860 0.8975
25.4623 -9.4632 -1.0918 0.8970
28.7706 -9.5320 -1.2182 0.8857
26.3459 -6.6746 -1.0923 0.8969
44.8198 0.1436 -1.8014 0.8358
40.7761 4.5414 -1.6490 0.8485
40.3452 7.4552 -1.6490 0.8485
32.1712 10.8880 -1.3651 0.8729
31.6545 17.5345 -1.4544 0.8651
31.6415 19.0428 -1.4843 0.8626
26.6182 17.3508 -1.2770 0.8806
25.8790 21.1586 -1.3435 0.8747
31.6064 27.7928 -1.6916 0.8449
26.6445 29.0753 -1.5851 0.8540
9.8880 11.6000 -0.6126 0.9408
9.3048 11.7449 -0.6022 0.9418
7.4090 11.7578 -0.5586 0.9459
6.8163 11.7308 -0.5453 0.9471
5.7643 11.7950 -0.5276 0.9488
5.2500 11.7985 -0.5190 0.9496
4.7517 11.8019 -0.5113 0.9503
4.2673 11.8052 -0.5045 0.9510
2.4355 11.8177 -0.4850 0.9528
1.1333 11.8266 -0.4775 0.9536
0.7062 11.8295 -0.4763 0.9537
-0.1442 11.8353 -0.4757 0.9537
-1.1677 13.8710 -0.5595 0.9458
-1.6715 13.8744 -0.5617 0.9456
-2.6942 13.8814 -0.5683 0.9450
-9.2578 39.9701 -1.6490 0.8485
-11.6743 43.2730 -1.8014 0.8358
-13.2201 42.8260 -1.8014 0.8358
-9.2026 26.4081 -1.1240 0.8941
-16.2586 41.7672 -1.8014 0.8358
-13.8087 22.4852 -1.0605 0.8998
-17.5220 24.4120 -1.2077 0.8867
-20.8910 25.0887 -1.3122 0.8775
-31.0771 32.2963 -1.8014 0.8358
-21.0133 18.9124 -1.1363 0.8930
-20.9335 15.1068 -1.0376 0.9018
-23.5873 14.5690 -1.1143 0.8950
-35.6579 20.2935 -1.6490 0.8485
-38.7084 13.6004 -1.6490 0.8485
-39.1717 12.2022 -1.6490 0.8485
-39.5845 10.7882 -1.6490 0.8485
-40.2564 7.9203 -1.6490 0.8485
-40.5148 6.4702 -1.6490 0.8485
-40.7210 5.0117 -1.6490 0.8485
-44.2497 3.8396 -1.7852 0.8371
-44.7626 2.2692 -1.8014 0.8358
-44.6265 -4.1607 -1.8014 0.8358
-43.9206 -8.9341 -1.8014 0.8358
-43.1664 -12.0623 -1.8014 0.8358
-42.7056 -13.6039 -1.8014 0.8358
-41.0166 -14.7075 -1.7513 0.8399
-38.0985 -15.2257 -1.6490 0.8485
-37.5274 -16.5835 -1.6490 0.8485
-34.2630 -23.2209 -1.6636 0.8473
-32.7190 -23.9324 -1.6293 0.8502
-24.2227 -23.7308 -1.3629 0.8731
-24.2349 -25.5109 -1.4142 0.8686
-26.5910 -32.3536 -1.6832 0.8456
-15.4007 -23.4945 -1.1291 0.8936
-14.5474 -24.0322 -1.1291 0.8936
-14.5617 -26.1293 -1.2023 0.8871
-16.5283 -39.0142 -1.7030 0.8440
-15.1337 -39.6245 -1.7048 0.8438
-7.1050 -23.5511 -0.9887 0.9062
-6.1936 -23.5573 -0.9790 0.9071
-7.8450 -41.8533 -1.7115 0.8433
-1.2688 -30.4278 -1.6891 0.8851
-0.1758 -30.4686 -1.6899 0.8851
0.9184 -30.4700 -1.6908 0.8850
1.6029 -24.2376 -1.3472 0.9073
2.0492 -20.0321 -1.1169 0.9225
2.8040 -20.2128 -1.1318 0.9215
4.3886 -20.6250 -1.1696 0.9190
5.0755 -20.2522 -1.1580 0.9198
11.0023 -20.2896 -1.2801 0.9117
12.1780 -20.6522 -1.3298 0.9084
7.9393 -10.6522 -0.7369 0.9482
7.9703 -9.9291 -0.7062 0.9503
8.3770 -9.7007 -0.7109 0.9499
8.9946 -9.6897 -0.7333 0.9484
9.6570 -9.6817 -0.7584 0.9467
11.1048 -9.6394 -0.8156 0.9428
9.4705 -6.5791 -0.6396 0.9549
10.6312 -6.3057 -0.6856 0.9517
11.7321 -6.4009 -0.7413 0.9479
28.9860 -14.4893 -1.7973 0.8783
25.4575 -9.4614 -1.5063 0.8969
26.4135 -7.7106 -1.5261 0.8956
26.2976 -6.6623 -1.5046 0.8970
31.9752 -5.6968 -1.8014 0.8780
32.4024 -2.2264 -1.8014 0.8780
32.4614 -1.0618 -1.8014 0.8780
32.4539 1.2699 -1.8014 0.8780
32.3874 2.4340 -1.8014 0.8780
31.9380 5.9017 -1.8014 0.8780
31.7056 7.0443 -1.8014 0.8780
31.4323 8.1779 -1.8014 0.8780
30.7646 10.4120 -1.8014 0.8780
30.3710 11.5096 -1.8014 0.8780
29.4670 13.6589 -1.8014 0.8780
28.9577 14.7079 -1.8014 0.8780
28.4111 15.7379 -1.8014 0.8780
27.8278 16.7476 -1.8014 0.8780
27.2087 17.7357 -1.8014 0.8780
25.8773 18.2240 -1.7555 0.8809
17.6733 13.4207 -1.2308 0.9149
24.3902 21.4473 -1.8014 0.8780
22.7886 23.1419 -1.8014 0.8780
21.9432 23.9450 -1.8014 0.8780
9.8880 11.6000 -0.8454 0.9408
9.3048 11.7449 -0.8311 0.9417
8.6405 11.7494 -0.8089 0.9432
8.0099 11.7537 -0.7889 0.9446
7.4090 11.7578 -0.7708 0.9458
6.8163 11.7308 -0.7525 0.9471
6.2796 11.7596 -0.7394 0.9480
5.7487 11.7632 -0.7262 0.9489
4.7389 11.7701 -0.7037 0.9504
3.7848 11.7766 -0.6861 0.9517
0.7062 11.8295 -0.6573 0.9536
0.2808 11.8324 -0.6565 0.9537
-1.1677 13.8710 -0.7721 0.9458
-1.6715 13.8744 -0.7751 0.9456
-2.1798 13.8779 -0.7792 0.9453
-2.6942 13.8814 -0.7843 0.9449
-8.7694 28.4083 -1.6490 0.8877
-11.7817 30.2665 -1.8014 0.8780
-13.9229 29.3432 -1.8014 0.8780
-13.7691 22.4207 -1.4593 0.9000
-20.3608 22.7397 -1.6929 0.8849
-21.4692 20.7652 -1.6566 0.8872
-21.7137 14.5137 -1.4486 0.9007
-22.4529 13.8683 -1.4637 0.8997
-31.3358 8.5402 -1.8014 0.8780
-32.0723 5.1220 -1.8014 0.8780
-32.2355 3.9674 -1.8014 0.8780
-32.3571 2.8077 -1.8014 0.8780
-32.4371 1.6444 -1.8014 0.8780
-32.4752 0.4789 -1.8014 0.8780
-32.4259 -1.8523 -1.8014 0.8780
-31.8270 -6.4741 -1.8014 0.8780
-30.9465 -9.8580 -1.8014 0.8780
-30.5727 -10.9626 -1.8014 0.8780
-30.1595 -12.0529 -1.8014 0.8780
-29.2170 -14.1857 -1.8014 0.8780
-27.7169 -14.7095 -1.7404 0.8819
-25.7665 -14.8836 -1.6504 0.8876
-23.9967 -17.5524 -1.6490 0.8877
-21.9707 -20.0305 -1.6490 0.8877
-19.9924 -22.6183 -1.6743 0.8861
-19.1748 -23.3302 -1.6749 0.8861
-17.4654 -24.6655 -1.6763 0.8860
-12.8098 -27.4502 -1.6801 0.8857
-11.8218 -27.9056 -1.6809 0.8857
-10.8176 -28.3254 -1.6817 0.8856
-9.7986 -28.7093 -1.6825 0.8856
-7.1050 -23.5511 -1.3644 0.9062
-6.1936 -23.5573 -1.3510 0.9070
-5.9071 -26.2686 -1.4933 0.8977
-5.5997 -29.8744 -1.6858 0.8854
-2.2971 -15.2623 -0.8560 0.9400
-1.8488 -23.7841 -1.6881 0.9088
-0.1378 -23.8738 -1.6894 0.9087
0.7196 -23.8726 -1.6900 0.9087
1.5766 -23.8405 -1.6907 0.9086
3.5536 -20.2461 -1.4546 0.9209
4.3856 -20.6107 -1.4911 0.9190
5.0767 -20.2570 -1.4778 0.9197
6.6510 -20.2487 -1.5082 0.9181
7.5990 -20.6082 -1.5543 0.9157
8.3194 -20.2870 -1.5516 0.9158
11.8367 -20.0734 -1.6490 0.9108
13.2464 -19.1725 -1.6490 0.9108
7.8706 -10.5600 -0.9320 0.9486
10.3446 -9.6520 -1.0012 0.9448
8.8631 -7.1522 -0.8059 0.9554
9.1762 -6.3748 -0.7906 0.9562
9.4674 -6.0851 -0.7964 0.9559
11.2937 -6.1617 -0.9104 0.9497
22.7707 -11.3824 -1.8014 0.9030
23.1646 -10.5577 -1.8014 0.9030
23.5287 -9.7194 -1.8014 0.9030
23.8624 -8.8686 -1.8014 0.9030
24.1654 -8.0063 -1.8014 0.9030
24.4372 -7.1337 -1.8014 0.9030
24.8860 -5.3620 -1.8014 0.9030
25.0625 -4.4652 -1.8014 0.9030
25.4570 0.0816 -1.8014 0.9030
25.3856 1.9078 -1.8014 0.9030
25.3007 2.8178 -1.8014 0.9030
25.0334 4.6258 -1.8014 0.9030
24.8512 5.5214 -1.8014 0.9030
24.6369 6.4099 -1.8014 0.9030
24.3910 7.2902 -1.8014 0.9030
24.1136 8.1610 -1.8014 0.9030
23.0965 10.7060 -1.8014 0.9030
22.6973 11.5282 -1.8014 0.9030
21.8117 13.1269 -1.8014 0.9030
21.3264 13.9014 -1.8014 0.9030
17.7135 12.4747 -1.5331 0.9168
17.4999 15.3884 -1.6490 0.9108
16.3508 16.6043 -1.6490 0.9108
9.8880 11.6000 -1.0786 0.9407
9.3048 11.7449 -1.0603 0.9417
8.0099 11.7537 -1.0065 0.9446
6.7527 11.6213 -0.9511 0.9475
5.6830 11.6286 -0.9159 0.9494
5.1760 11.6321 -0.9009 0.9502
2.8400 11.6480 -0.8484 0.9531
1.9686 11.6539 -0.8363 0.9537
1.1173 11.6597 -0.8288 0.9541
-0.1421 11.6683 -0.8257 0.9543
-0.5616 11.6712 -0.8268 0.9542
-1.1678 13.8710 -0.9850 0.9457
-2.1798 13.8779 -0.9941 0.9452
-2.6942 13.8814 -1.0006 0.9449
-5.2583 22.7025 -1.6490 0.9108
-6.8735 22.2667 -1.6490 0.9108
-7.6684 22.0056 -1.6490 0.9108
-8.4534 21.7161 -1.6490 0.9108
-9.2274 21.3987 -1.6490 0.9108
-13.3222 21.6930 -1.8014 0.9030
-14.8442 20.6813 -1.8014 0.9030
-16.2898 19.5630 -1.8014 0.9030
-16.9815 18.9656 -1.8014 0.9030
-18.2985 17.6984 -1.8014 0.9030
-20.0950 15.6287 -1.8014 0.9030
-20.3774 14.7055 -1.7782 0.9041
-20.3897 13.6287 -1.7354 0.9063
-20.4132 11.6175 -1.6620 0.9101
-20.7493 10.8419 -1.6566 0.9104
-21.1251 10.0901 -1.6566 0.9104
-21.9296 8.6014 -1.6669 0.9099
-24.0178 8.4388 -1.8014 0.9030
-24.3052 7.5712 -1.8014 0.9030
-24.5613 6.6939 -1.8014 0.9030
-25.2665 3.1097 -1.8014 0.9030
-25.3618 2.2007 -1.8014 0.9030
-25.3472 -2.3632 -1.8014 0.9030
-25.1123 -4.1757 -1.8014 0.9030
-24.9462 -5.0744 -1.8014 0.9030
-24.5179 -6.8512 -1.8014 0.9030
-24.2562 -7.7269 -1.8014 0.9030
-23.9632 -8.5926 -1.8014 0.9030
-23.6393 -9.4472 -1.8014 0.9030
-23.2849 -10.2897 -1.8014 0.9030
-22.9006 -11.1189 -1.8014 0.9030
-22.0438 -12.7333 -1.8014 0.9030
-21.5725 -13.5163 -1.8014 0.9030
-17.7733 -15.0718 -1.6490 0.9108
-17.2208 -15.7001 -1.6490 0.9108
-16.6462 -16.3081 -1.6490 0.9108
-15.4333 -17.4604 -1.6490 0.9108
-14.7965 -18.0031 -1.6490 0.9108
-14.1408 -18.5227 -1.6490 0.9108
-12.7754 -19.4895 -1.6490 0.9108
-9.1609 -21.6247 -1.6619 0.9101
-6.8629 -22.7485 -1.6814 0.9091
-5.2259 -23.2392 -1.6855 0.9089
-2.2855 -15.1852 -1.0866 0.9403
-2.7004 -23.6934 -1.6874 0.9088
-1.4844 -19.0961 -1.6490 0.9260
-0.7980 -19.1371 -1.6490 0.9260
-0.1105 -19.1534 -1.6490 0.9260
0.5771 -19.1450 -1.6490 0.9260
3.3112 -18.8653 -1.6490 0.9260
3.9863 -18.7343 -1.6490 0.9260
5.3201 -18.4000 -1.6490 0.9260
7.2673 -17.7214 -1.6490 0.9260
9.1304 -16.8375 -1.6490 0.9260
9.7289 -16.4989 -1.6490 0.9260
10.3149 -16.1390 -1.6490 0.9260
10.8875 -15.7583 -1.6490 0.9260
7.8827 -10.5763 -1.1356 0.9484
7.9114 -9.8556 -1.0881 0.9505
8.8644 -9.5495 -1.1218 0.9490
9.6066 -9.6313 -1.1711 0.9469
8.2040 -7.6547 -0.9660 0.9560
8.0940 -7.0259 -0.9227 0.9579
8.4567 -6.3368 -0.9098 0.9585
10.3029 -6.1110 -1.0313 0.9530
11.1880 -6.1040 -1.0972 0.9501
19.0396 -8.6776 -1.8014 0.9194
19.6131 -7.2893 -1.8014 0.9194
19.8621 -6.5806 -1.8014 0.9194
20.0856 -5.8634 -1.8014 0.9194
20.2831 -5.1386 -1.8014 0.9194
20.4545 -4.4072 -1.8014 0.9194
20.5995 -3.6698 -1.8014 0.9194
20.8097 -2.1827 -1.8014 0.9194
20.9079 0.8181 -1.8014 0.9194
20.8650 1.5681 -1.8014 0.9194
20.7953 2.3161 -1.8014 0.9194
20.6988 3.0611 -1.8014 0.9194
20.5755 3.8021 -1.8014 0.9194
20.4258 4.5382 -1.8014 0.9194
20.2497 5.2685 -1.8014 0.9194
19.2872 8.1124 -1.8014 0.9194
18.9836 8.7995 -1.8014 0.9194
15.2540 11.5835 -1.6490 0.9260
14.3836 12.6481 -1.6490 0.9260
9.3048 11.7449 -1.2900 0.9416
7.4090 11.7578 -1.1965 0.9457
6.7527 11.6213 -1.1572 0.9475
6.2078 11.6250 -1.1346 0.9485
4.6846 11.6354 -1.0799 0.9509
3.7415 11.6419 -1.0528 0.9521
3.2863 11.6450 -1.0417 0.9526
2.8400 11.6480 -1.0322 0.9530
2.4012 11.6510 -1.0241 0.9534
1.9686 11.6539 -1.0175 0.9537
1.5410 11.6568 -1.0123 0.9539
0.6962 11.6626 -1.0059 0.9542
-0.1421 11.6683 -1.0046 0.9542
-1.6715 13.8744 -1.2031 0.9454
-2.1798 13.8779 -1.2094 0.9452
-4.3219 18.6597 -1.6490 0.9260
-4.9889 18.4925 -1.6490 0.9260
-5.6495 18.3015 -1.6490 0.9260
-6.9480 17.8491 -1.6490 0.9260
-12.2008 16.9985 -1.8014 0.9194
-13.9575 15.5883 -1.8014 0.9194
-14.5081 15.0773 -1.8014 0.9194
-15.0400 14.5467 -1.8014 0.9194
-15.5524 13.9975 -1.8014 0.9194
-16.0449 13.4302 -1.8014 0.9194
-16.5166 12.8456 -1.8014 0.9194
-17.3957 11.6275 -1.8014 0.9194
-18.1851 10.3494 -1.8014 0.9194
-19.1923 8.3345 -1.8014 0.9194
-19.4791 7.6402 -1.8014 0.9194
-19.9771 6.2230 -1.8014 0.9194
-20.1876 5.5019 -1.8014 0.9194
-20.3720 4.7737 -1.8014 0.9194
-20.5303 4.0393 -1.8014 0.9194
-20.6620 3.2997 -1.8014 0.9194
-20.8455 1.8088 -1.8014 0.9194
-20.8970 1.0594 -1.8014 0.9194
-20.9192 -0.4426 -1.8014 0.9194
-20.8335 -1.9424 -1.8014 0.9194
-20.7504 -2.6890 -1.8014 0.9194
-20.5040 -4.1708 -1.8014 0.9194
-19.6959 -7.0624 -1.8014 0.9194
-18.4824 -9.8087 -1.8014 0.9194
-17.3208 -11.7387 -1.8014 0.9194
-16.4340 -12.9512 -1.8014 0.9194
-15.9584 -13.5328 -1.8014 0.9194
-15.4624 -14.0969 -1.8014 0.9194
-14.8979 -14.5953 -1.7955 0.9197
-13.9726 -14.7083 -1.7466 0.9218
-13.0098 -14.7186 -1.6912 0.9242
-12.1616 -14.7972 -1.6490 0.9260
-11.6226 -15.2242 -1.6490 0.9260
-10.5004 -16.0189 -1.6490 0.9260
-9.3241 -16.7310 -1.6490 0.9260
-8.0996 -17.3568 -1.6490 0.9260
-5.5321 -18.3374 -1.6490 0.9260
-4.2022 -18.6870 -1.6490 0.9260
-3.5287 -18.8258 -1.6490 0.9260
-1.2595 -16.2031 -1.6490 0.9367
0.4896 -16.2446 -1.6490 0.9367
1.6539 -16.1676 -1.6490 0.9367
4.5142 -15.6125 -1.6490 0.9367
5.0717 -15.4404 -1.6490 0.9367
5.6226 -15.2484 -1.6490 0.9367
7.3124 -14.7229 -1.6680 0.9360
7.9806 -14.7172 -1.6987 0.9349
8.6745 -14.7108 -1.7328 0.9336
10.0621 -14.5637 -1.7961 0.9313
8.1521 -10.9377 -1.3841 0.9466
8.8644 -9.5495 -1.3220 0.9490
7.8054 -7.2828 -1.0832 0.9580
7.7988 -6.7696 -1.0478 0.9593
8.2449 -6.1781 -1.0454 0.9594
8.8212 -6.1281 -1.0898 0.9577
9.5073 -6.1108 -1.1467 0.9556
10.2808 -6.0978 -1.2128 0.9531
11.1993 -6.1102 -1.2945 0.9500
16.4091 -6.7784 -1.8014 0.9311
16.6418 -6.1850 -1.8014 0.9311
17.0427 -4.9751 -1.8014 0.9311
17.2103 -4.3601 -1.8014 0.9311
17.3557 -3.7395 -1.8014 0.9311
17.4788 -3.1141 -1.8014 0.9311
17.5793 -2.4847 -1.8014 0.9311
17.7445 -0.5804 -1.8014 0.9311
17.7404 0.6942 -1.8014 0.9311
17.7041 1.3305 -1.8014 0.9311
17.6449 1.9652 -1.8014 0.9311
17.5630 2.5973 -1.8014 0.9311
17.4584 3.2261 -1.8014 0.9311
17.1820 4.4703 -1.8014 0.9311
16.8170 5.6916 -1.8014 0.9311
14.4901 7.3596 -1.6490 0.9367
14.2166 7.8751 -1.6490 0.9367
13.2876 9.3578 -1.6490 0.9367
12.5820 10.2870 -1.6490 0.9367
10.6256 11.5949 -1.5958 0.9387
8.0099 11.7537 -1.4432 0.9444
7.4090 11.7578 -1.4101 0.9457
6.2078 11.6250 -1.3372 0.9484
5.1760 11.6321 -1.2918 0.9501
3.7415 11.6419 -1.2407 0.9520
3.2863 11.6450 -1.2277 0.9525
1.5410 11.6568 -1.1930 0.9538
0.2768 11.6655 -1.1840 0.9542
-0.1421 11.6683 -1.1840 0.9542
-0.5616 11.6712 -1.1856 0.9541
-1.1678 13.8710 -1.4124 0.9456
-2.6942 13.8814 -1.4348 0.9447
-4.7937 15.5289 -1.6490 0.9367
-6.4353 14.9236 -1.6490 0.9367
-8.5050 13.8489 -1.6490 0.9367
-8.9966 13.5347 -1.6490 0.9367
-9.4767 13.2030 -1.6490 0.9367
-10.8635 14.0424 -1.8014 0.9311
-11.3606 13.6433 -1.8014 0.9311
-12.7615 12.3430 -1.8014 0.9311
-13.6142 11.3956 -1.8014 0.9311
-14.3967 10.3895 -1.8014 0.9311
-14.7603 9.8660 -1.8014 0.9311
-16.0204 7.6519 -1.8014 0.9311
-16.5281 6.4828 -1.8014 0.9311
-16.7502 5.8853 -1.8014 0.9311
-17.1292 4.6684 -1.8014 0.9311
-17.2858 4.0505 -1.8014 0.9311
-17.6210 2.1687 -1.8014 0.9311
-17.7312 0.8989 -1.8014 0.9311
-17.7251 -1.0125 -1.8014 0.9311
-17.6773 -1.6481 -1.8014 0.9311
-17.6068 -2.2816 -1.8014 0.9311
-17.5135 -2.9121 -1.8014 0.9311
-17.3977 -3.5389 -1.8014 0.9311
-17.2594 -4.1612 -1.8014 0.9311
-16.9164 -5.3887 -1.8014 0.9311
-16.7121 -5.9925 -1.8014 0.9311
-16.4862 -6.5885 -1.8014 0.9311
-15.9710 -7.7544 -1.8014 0.9311
-15.6824 -8.3227 -1.8014 0.9311
-15.3735 -8.8803 -1.8014 0.9311
-15.0448 -9.4264 -1.8014 0.9311
-14.6968 -9.9604 -1.8014 0.9311
-13.1199 -11.9613 -1.8014 0.9311
-12.2279 -12.8718 -1.8014 0.9311
-11.7580 -13.3024 -1.8014 0.9311
-10.7733 -14.1117 -1.8014 0.9311
-10.2395 -14.4606 -1.7978 0.9312
-9.6368 -14.7015 -1.7836 0.9318
-7.5246 -14.7211 -1.6775 0.9357
-6.8748 -14.7321 -1.6495 0.9367
-6.3395 -14.9646 -1.6490 0.9367
-5.2495 -15.3808 -1.6490 0.9367
-4.1325 -15.7178 -1.6490 0.9367
-3.5656 -15.8560 -1.6490 0.9367
-2.9941 -15.9738 -1.6490 0.9367
-2.2825 -15.1652 -1.5561 0.9402
-1.8404 -16.1475 -1.6490 0.9367
-0.6135 -14.7130 -1.7212 0.9424
0.4435 -14.7131 -1.7205 0.9424
2.5816 -14.7085 -1.7455 0.9416
3.6850 -14.7036 -1.7718 0.9408
4.7939 -14.5948 -1.7956 0.9400
5.3227 -14.4350 -1.7983 0.9399
7.3467 -13.5482 -1.8014 0.9398
8.7606 -12.6799 -1.8014 0.9398
8.3278 -11.1735 -1.6288 0.9454
8.2601 -9.5653 -1.4772 0.9504
8.8644 -9.5494 -1.5229 0.9489
10.8839 -10.9119 -1.8014 0.9398
7.7825 -6.7555 -1.2045 0.9593
7.9092 -6.3824 -1.1879 0.9599
8.8488 -6.1473 -1.2594 0.9575
9.5134 -6.1147 -1.3218 0.9555
10.2965 -6.1072 -1.3993 0.9529
14.2444 -5.8842 -1.8014 0.9398
14.4465 -5.3691 -1.8014 0.9398
14.7945 -4.3188 -1.8014 0.9398
15.0662 -3.2462 -1.8014 0.9398
15.1730 -2.7033 -1.8014 0.9398
15.2603 -2.1569 -1.8014 0.9398
15.3279 -1.6077 -1.8014 0.9398
15.4037 -0.5039 -1.8014 0.9398
15.4002 0.6026 -1.8014 0.9398
15.3172 1.7059 -1.8014 0.9398
15.2461 2.2547 -1.8014 0.9398
15.1554 2.8005 -1.8014 0.9398
15.0451 3.3427 -1.8014 0.9398
14.9154 3.8806 -1.8014 0.9398
13.1925 4.9995 -1.6490 0.9448
13.0046 5.4699 -1.6490 0.9448
12.7998 5.9332 -1.6490 0.9448
11.8189 7.7040 -1.6490 0.9448
11.2357 8.5321 -1.6490 0.9448
10.9222 8.9299 -1.6490 0.9448
10.2534 9.6905 -1.6490 0.9448
9.8989 10.0524 -1.6490 0.9448
8.7608 11.0583 -1.6490 0.9448
8.3583 11.3656 -1.6490 0.9448
7.3206 11.6175 -1.6050 0.9462
6.7527 11.6213 -1.5710 0.9473
5.6830 11.6286 -1.5128 0.9492
5.1760 11.6321 -1.4881 0.9500
4.6846 11.6354 -1.4661 0.9507
4.2071 11.6387 -1.4465 0.9514
3.7415 11.6419 -1.4293 0.9519
3.2863 11.6450 -1.4143 0.9524
2.8400 11.6480 -1.4013 0.9529
1.9686 11.6539 -1.3814 0.9535
1.1173 11.6597 -1.3691 0.9539
0.2768 11.6655 -1.3639 0.9541
-0.1421 11.6683 -1.3639 0.9541
-1.5989 13.2724 -1.5625 0.9476
-2.5471 13.1235 -1.5625 0.9476
-3.0165 13.0236 -1.5625 0.9476
-4.1613 13.4804 -1.6490 0.9448
-6.0478 12.7461 -1.6490 0.9448
-8.2265 11.4613 -1.6490 0.9448
-9.0276 10.8416 -1.6490 0.9448
-9.4110 10.5105 -1.6490 0.9448
-10.6863 11.1055 -1.8014 0.9398
-11.0780 10.7147 -1.8014 0.9398
-11.4555 10.3102 -1.8014 0.9398
-12.1657 9.4617 -1.8014 0.9398
-12.4975 9.0189 -1.8014 0.9398
-12.8132 8.5645 -1.8014 0.9398
-13.3946 7.6231 -1.8014 0.9398
-13.6596 7.1374 -1.8014 0.9398
-13.9070 6.6425 -1.8014 0.9398
-14.1365 6.1390 -1.8014 0.9398
-14.3478 5.6276 -1.8014 0.9398
-14.5405 5.1089 -1.8014 0.9398
-15.1220 2.9752 -1.8014 0.9398
-15.2191 2.4305 -1.8014 0.9398
-15.2965 1.8826 -1.8014 0.9398
-15.4085 -0.3260 -1.8014 0.9398
-15.2032 -2.5280 -1.8014 0.9398
-15.1026 -3.0721 -1.8014 0.9398
-14.8433 -4.1477 -1.8014 0.9398
-13.3455 -7.7088 -1.8014 0.9398
-13.0602 -8.1829 -1.8014 0.9398
-12.7580 -8.6464 -1.8014 0.9398
-12.1048 -9.5395 -1.8014 0.9398
-11.7545 -9.9679 -1.8014 0.9398
-11.3892 -10.3834 -1.8014 0.9398
-11.0091 -10.7855 -1.8014 0.9398
-10.6149 -11.1737 -1.8014 0.9398
-10.2069 -11.5476 -1.8014 0.9398
-8.9064 -12.5779 -1.8014 0.9398
-8.4491 -12.8895 -1.8014 0.9398
-7.9810 -13.1845 -1.8014 0.9398
-7.5026 -13.4625 -1.8014 0.9398
-7.0145 -13.7232 -1.8014 0.9398
-6.5173 -13.9661 -1.8014 0.9398
-6.0118 -14.1911 -1.8014 0.9398
-5.4918 -14.3801 -1.7992 0.9399
-4.9643 -14.5453 -1.7964 0.9400
-4.4328 -14.6935 -1.7939 0.9401
-3.8656 -14.7027 -1.7769 0.9406
-0.5670 -13.5983 -1.8014 0.9466
0.4100 -13.6039 -1.8014 0.9466
0.8981 -13.5805 -1.8014 0.9466
1.3850 -13.5395 -1.8014 0.9466
1.8702 -13.4810 -1.8014 0.9466
2.3529 -13.4052 -1.8014 0.9466
2.8325 -13.3121 -1.8014 0.9466
4.2472 -12.9304 -1.8014 0.9466
4.7086 -12.7697 -1.8014 0.9466
6.0541 -12.1895 -1.8014 0.9466
7.7364 -11.1975 -1.8014 0.9466
8.1334 -10.9126 -1.8014 0.9466
8.5198 -10.6136 -1.8014 0.9466
8.4001 -9.7274 -1.7011 0.9495
9.2594 -9.9750 -1.8014 0.9466
9.6115 -9.6362 -1.8014 0.9466
7.7772 -6.7509 -1.3631 0.9593
7.8950 -6.3709 -1.3428 0.9599
9.5287 -6.1245 -1.4992 0.9553
12.1739 -6.0854 -1.8014 0.9466
12.3845 -5.6445 -1.8014 0.9466
12.5791 -5.1963 -1.8014 0.9466
12.9195 -4.2804 -1.8014 0.9466
13.1933 -3.3424 -1.8014 0.9466
13.3048 -2.8667 -1.8014 0.9466
13.3991 -2.3872 -1.8014 0.9466
13.4762 -1.9047 -1.8014 0.9466
13.6029 -0.4450 -1.8014 0.9466
13.6101 0.0436 -1.8014 0.9466
13.5997 0.5321 -1.8014 0.9466
13.5719 1.0200 -1.8014 0.9466
13.5265 1.5065 -1.8014 0.9466
13.4637 1.9911 -1.8014 0.9466
13.3836 2.4731 -1.8014 0.9466
13.2862 2.9519 -1.8014 0.9466
11.6502 4.4150 -1.6490 0.9510
11.3034 5.2395 -1.6490 0.9510
11.1080 5.6419 -1.6490 0.9510
10.6746 6.4243 -1.6490 0.9510
10.1862 7.1735 -1.6490 0.9510
9.6453 7.8859 -1.6490 0.9510
9.0546 8.5576 -1.6490 0.9510
8.7416 8.8771 -1.6490 0.9510
8.4173 9.1852 -1.6490 0.9510
7.7366 9.7655 -1.6490 0.9510
7.3811 10.0369 -1.6490 0.9510
7.0161 10.2954 -1.6490 0.9510
6.2593 10.7722 -1.6490 0.9510
5.4703 11.1935 -1.6490 0.9510
5.0650 11.3827 -1.6490 0.9510
4.2071 11.6387 -1.6380 0.9513
2.8400 11.6480 -1.5869 0.9528
1.9686 11.6539 -1.5643 0.9534
1.1173 11.6597 -1.5503 0.9538
-0.1421 11.6683 -1.5445 0.9540
-0.5616 11.6712 -1.5466 0.9539
-0.9904 11.7639 -1.5625 0.9535
-1.4120 11.7208 -1.5625 0.9535
-2.7066 11.6858 -1.5876 0.9528
-4.9332 11.4404 -1.6490 0.9510
-5.7414 11.0570 -1.6490 0.9510
-7.6234 9.8541 -1.6490 0.9510
-7.9722 9.5741 -1.6490 0.9510
-8.3107 9.2818 -1.6490 0.9510
-8.6386 8.9775 -1.6490 0.9510
-10.1162 9.1048 -1.8014 0.9466
-10.7434 8.3555 -1.8014 0.9466
-11.0364 7.9645 -1.8014 0.9466
