ply
format ascii 1.0
element vertex 1547
property float32 x
property float32 y
property float32 z
property float32 I
end_header
3.7289 -56.3845 28.1835 0.7768
5.7784 -56.4880 28.3207 0.7758
9.9203 -56.5199 28.6205 0.7738
15.9440 -55.1436 28.6297 0.7737
18.5851 -56.5814 29.7036 0.7663
20.4049 -55.3372 29.4162 0.7683
9.8753 11.5850 7.5924 0.9342
8.1047 11.8929 7.1780 0.9377
6.9156 11.9017 6.8654 0.9403
5.6769 11.6162 6.4484 0.9438
5.1706 11.6199 6.3433 0.9447
4.6799 11.6236 6.2495 0.9455
4.2209 11.6770 6.1928 0.9460
2.8535 11.7035 6.0082 0.9476
2.4126 11.7068 5.9615 0.9480
1.9780 11.7100 5.9231 0.9483
1.5485 11.7132 5.8928 0.9486
-0.5612 11.6625 5.8235 0.9491
-0.9821 11.6657 5.8389 0.9490
-1.4058 11.6688 5.8620 0.9488
-1.8333 11.6720 5.8928 0.9486
-2.2660 11.6752 5.9317 0.9482
-3.6071 11.6852 6.0994 0.9468
-4.5514 11.6923 6.2578 0.9455
-27.4633 -31.0705 20.6824 0.8308
-23.7414 -31.0983 19.5137 0.8396
-22.0295 -31.1111 19.0129 0.8433
-18.8468 -31.1348 18.1520 0.8499
-15.3667 -30.0638 16.8397 0.8599
-14.2005 -30.4304 16.7485 0.8606
-10.5412 -30.8850 16.2765 0.8643
-7.1474 -31.7840 16.2483 0.8645
-6.2022 -33.0889 16.7906 0.8603
-8.2777 -54.9986 27.7397 0.7799
-6.4277 -56.3971 28.3104 0.7759
-2.3018 -55.1988 26.5112 0.7826
3.7289 -56.3843 27.1162 0.7783
5.7785 -56.4881 27.2484 0.7773
9.9203 -56.5200 27.5368 0.7752
12.0290 -56.5327 27.7356 0.7738
13.7457 -54.8482 27.1339 0.7781
9.8753 11.5850 7.3049 0.9347
6.7451 11.6082 6.4425 0.9422
5.6769 11.6161 6.2043 0.9443
3.7591 11.6967 5.8956 0.9469
2.4153 11.7198 5.7421 0.9483
1.9931 11.7994 5.7424 0.9483
0.6957 11.6532 5.6020 0.9495
0.2766 11.6563 5.5951 0.9496
-2.2808 11.7518 5.7445 0.9483
-2.7050 11.6785 5.7525 0.9482
-3.6071 11.6852 5.8685 0.9472
-4.0535 11.6321 5.9111 0.9468
-4.5514 11.6923 6.0209 0.9459
-29.5020 -31.0553 20.5550 0.8269
-23.7414 -31.0983 18.7749 0.8406
-21.9606 -31.0138 18.2358 0.8448
-16.9782 -30.4654 16.7363 0.8566
-15.7807 -30.8736 16.6385 0.8574
-13.2529 -31.2838 16.3037 0.8601
-9.4464 -31.3122 15.6946 0.8649
-8.2349 -31.3212 15.5409 0.8662
-7.3111 -32.5122 15.9912 0.8626
-6.4277 -56.3972 27.2385 0.7774
-2.3010 -55.1806 25.4746 0.7840
-0.3216 -55.7130 25.6985 0.7824
1.6611 -55.1089 25.4310 0.7844
3.7087 -56.0795 25.9236 0.7807
7.8381 -56.5016 26.3114 0.7778
12.0290 -56.5328 26.6600 0.7752
13.7460 -54.8492 26.0821 0.7795
15.9596 -55.1975 26.5032 0.7764
18.5861 -56.5845 27.4720 0.7692
20.5680 -55.7797 27.4222 0.7696
9.2018 11.6148 6.8350 0.9368
7.9049 11.5996 6.4747 0.9400
6.7451 11.6082 6.1927 0.9426
5.1705 11.6199 5.8664 0.9455
4.6799 11.6235 5.7797 0.9463
3.7977 11.8167 5.7251 0.9468
2.4453 11.8654 5.5880 0.9480
1.5694 11.8719 5.5237 0.9486
-0.1420 11.6594 5.3784 0.9499
-0.5612 11.6625 5.3857 0.9499
-3.2020 11.8688 5.6703 0.9473
-3.6649 11.8722 5.7311 0.9467
-4.5514 11.6922 5.7873 0.9462
-32.1433 -31.4905 20.7558 0.8202
-27.4633 -31.0706 19.1276 0.8330
-21.2329 -29.9860 16.9477 0.8506
-19.9125 -30.3775 16.7539 0.8521
-18.4812 -30.5309 16.4618 0.8545
-13.2529 -31.2838 15.6714 0.8610
-11.9511 -31.2935 15.4512 0.8628
-4.1358 -12.1176 5.9059 0.9452
-8.1579 -31.0283 14.7985 0.8682
-6.5823 -43.7337 20.3997 0.8230
-0.3226 -55.8908 24.7548 0.7831
1.6607 -55.0970 24.4139 0.7857
7.8381 -56.5017 25.2646 0.7792
9.8592 -56.1720 25.2593 0.7792
11.9723 -56.2664 25.4787 0.7775
15.9553 -55.1827 25.4419 0.7778
18.5333 -56.4237 26.3040 0.7712
20.5674 -55.7782 26.3305 0.7710
9.1764 11.5828 6.5450 0.9374
8.5269 11.5949 6.3746 0.9390
7.9048 11.5996 6.2171 0.9404
6.7451 11.6082 5.9463 0.9430
6.2009 11.6122 5.8305 0.9440
5.6768 11.6161 5.7264 0.9450
5.1705 11.6199 5.6330 0.9459
4.6799 11.6235 5.5497 0.9467
4.2207 11.6765 5.4991 0.9471
3.3357 11.8201 5.4397 0.9477
2.8921 11.8621 5.4077 0.9480
2.0049 11.8687 5.3312 0.9487
1.5694 11.8719 5.3039 0.9490
1.1379 11.8751 5.2837 0.9491
0.6957 11.6531 5.1704 0.9502
0.2766 11.6563 5.1641 0.9503
-2.3098 11.9008 5.3693 0.9483
-54.6501 61.0353 36.2858 0.6988
-34.1148 -31.1021 20.4466 0.8171
-29.5021 -31.0554 18.9718 0.8291
-23.0222 -30.1563 16.8038 0.8471
-21.5758 -30.4703 16.5363 0.8493
-20.1771 -30.7812 16.3011 0.8513
-17.4170 -31.2528 15.8465 0.8551
-13.1267 -30.9860 14.9046 0.8631
-9.4322 -31.2651 14.4640 0.8669
-8.2686 -31.4496 14.4026 0.8674
-6.8143 -36.3547 16.3821 0.8506
-1.7841 -42.7847 18.1908 0.8302
-0.2470 -42.7962 18.1802 0.8303
1.2903 -42.8076 18.1930 0.8302
12.0290 -56.5329 24.5529 0.7779
13.7465 -54.8513 24.0215 0.7821
15.9512 -55.1686 24.3957 0.7791
20.5669 -55.7767 25.2535 0.7723
9.8752 11.5849 6.4666 0.9360
9.1821 11.5901 6.2813 0.9378
7.9048 11.5995 5.9629 0.9408
7.3120 11.6039 5.8264 0.9421
5.6768 11.6161 5.4923 0.9454
4.6799 11.6235 5.3229 0.9470
4.2207 11.6763 5.2742 0.9475
3.8101 11.8552 5.2898 0.9473
2.8921 11.8621 5.1866 0.9483
2.4453 11.8654 5.1464 0.9487
-0.5612 11.6625 4.9600 0.9505
-1.0011 11.8910 5.0692 0.9495
-1.4329 11.8942 5.0892 0.9493
-1.8687 11.8975 5.1160 0.9490
-3.6768 11.9110 5.2954 0.9473
-4.5514 11.6922 5.3299 0.9469
-55.3053 61.7670 35.2197 0.6975
-36.6616 -31.0890 20.4197 0.8115
-32.3464 -31.6894 19.2361 0.8214
-26.4634 -29.9393 16.9744 0.8406
-23.6953 -31.0380 16.5881 0.8439
-22.1052 -31.2179 16.2494 0.8468
-15.8342 -30.9787 14.7793 0.8597
-14.5265 -31.1290 14.5926 0.8613
-13.2460 -31.2688 14.4258 0.8628
-10.9525 -32.0901 14.4040 0.8630
-9.6079 -31.8473 14.1311 0.8654
-7.1636 -38.2181 16.5179 0.8445
-5.9994 -39.8612 17.1239 0.8393
-4.8736 -42.7617 18.2828 0.8294
-3.3383 -42.9441 17.5279 0.8303
1.2958 -42.9896 17.5017 0.8305
2.8429 -42.9872 17.5310 0.8302
5.9590 -42.9558 17.6474 0.8292
7.5344 -42.9265 17.7351 0.8284
20.5664 -55.7753 24.1904 0.7736
9.8752 11.5849 6.1945 0.9364
9.1821 11.5900 6.0171 0.9381
7.9426 11.6549 5.7393 0.9409
7.4291 11.7897 5.6706 0.9416
6.8754 11.8324 5.5688 0.9426
5.6768 11.6161 5.2612 0.9457
2.4374 11.8268 4.9138 0.9492
1.9983 11.8300 4.8822 0.9495
1.5695 11.8723 4.8732 0.9496
0.6957 11.6531 4.7504 0.9508
0.2766 11.6562 4.7446 0.9509
-0.1420 11.6594 4.7449 0.9509
-0.5612 11.6625 4.7513 0.9508
-1.8688 11.8978 4.9009 0.9493
-2.3022 11.8621 4.9171 0.9492
-3.2020 11.8687 5.0024 0.9483
-4.5514 11.6922 5.1057 0.9473
-51.3029 66.3148 34.1182 0.6962
-51.3663 61.6876 32.6657 0.7070
-55.4092 61.8831 33.8013 0.6986
-63.6203 61.5340 36.0172 0.6823
-36.4997 -30.9517 19.4742 0.8133
-28.4952 -29.9956 16.8358 0.8364
-27.0214 -30.5706 16.6031 0.8385
-25.4513 -30.9669 16.3113 0.8411
-22.1052 -31.2179 15.5658 0.8477
-13.8089 -32.5962 14.4055 0.8582
-12.6294 -33.0695 14.4049 0.8582
-11.3802 -33.3433 14.3369 0.8589
-8.3040 -31.5840 13.2893 0.8685
-7.3565 -39.2469 16.2488 0.8416
-4.8907 -42.9112 17.5749 0.8298
1.2901 -42.8037 16.6701 0.8321
2.8315 -42.8151 16.7034 0.8318
4.4104 -43.1143 16.8710 0.8302
5.9826 -43.1260 16.9487 0.8295
10.8127 -43.1449 17.3147 0.8262
17.6047 -42.9292 18.0619 0.8194
19.4416 -42.9482 18.3520 0.8168
9.8752 11.5849 5.9258 0.9367
9.1821 11.5900 5.7560 0.9385
8.0576 11.8237 5.5698 0.9404
5.6768 11.6161 5.0330 0.9460
4.2206 11.6760 4.8330 0.9481
3.8102 11.8556 4.8476 0.9480
3.3467 11.8590 4.7968 0.9485
2.9103 11.9366 4.7828 0.9486
2.0174 11.9433 4.7151 0.9493
1.5793 11.9465 4.6910 0.9496
0.6957 11.6531 4.5444 0.9511
-0.5612 11.6625 4.5452 0.9511
-1.4419 11.9690 4.6930 0.9496
-51.4526 77.4064 36.1821 0.6710
-51.3037 66.3158 32.6387 0.6978
-51.3678 61.6894 31.2496 0.7085
-55.1699 61.6158 32.1954 0.7012
-63.6864 61.5978 34.4906 0.6836
-68.4804 61.6336 35.8648 0.6734
-46.5847 38.9932 23.6487 0.7705
-49.1440 35.4651 23.5920 0.7709
-36.9930 -31.3700 18.8812 0.8120
-30.8057 -30.1800 16.7879 0.8310
-29.3826 -30.9297 16.6071 0.8327
-27.5576 -31.1773 16.1981 0.8364
-25.6360 -31.1916 15.7170 0.8409
-23.8229 -31.2052 15.2828 0.8449
-21.9127 -30.9461 14.7609 0.8498
-15.5454 -33.3123 14.3102 0.8540
-14.1167 -33.3230 14.0879 0.8561
-12.7301 -33.3333 13.8900 0.8580
-11.3802 -33.3434 13.7150 0.8597
-9.6751 -32.0703 13.0400 0.8661
-8.3040 -31.5840 12.7128 0.8692
-7.7048 -34.2629 13.6708 0.8601
-7.0628 -37.6799 14.9234 0.8483
-4.9059 -43.0449 16.8649 0.8303
-1.7959 -43.0681 16.0281 0.8320
1.2799 -42.4609 15.7956 0.8342
2.8088 -42.4723 15.8271 0.8339
4.4104 -43.1143 16.1150 0.8311
5.9826 -43.1260 16.1893 0.8304
9.1524 -43.0135 16.3519 0.8289
12.4000 -42.8864 16.5998 0.8265
14.1855 -43.1871 16.9025 0.8237
15.9294 -43.2000 17.1204 0.8216
9.8752 11.5849 5.6603 0.9371
8.0576 11.8236 5.3202 0.9408
7.4533 11.8281 5.1984 0.9421
6.8754 11.8324 5.0885 0.9433
6.3001 11.7980 4.9732 0.9445
5.1705 11.6198 4.7291 0.9472
4.6798 11.6235 4.6591 0.9479
4.2205 11.6758 4.6164 0.9484
3.8340 11.9298 4.6593 0.9479
3.3467 11.8590 4.5818 0.9488
2.0174 11.9433 4.5038 0.9496
1.5793 11.9465 4.4808 0.9499
0.2766 11.6562 4.3354 0.9515
-0.5612 11.6625 4.3415 0.9514
-1.0073 11.9658 4.4650 0.9500
-1.4419 11.9690 4.4827 0.9499
-2.7746 11.9789 4.5721 0.9489
-3.2326 11.9824 4.6147 0.9484
-3.6999 11.9858 4.6642 0.9479
-51.2657 71.4243 32.6909 0.6872
-51.3044 66.3168 31.1766 0.6992
-59.2405 61.5645 31.7687 0.6945
-63.6862 61.5977 32.9449 0.6852
-49.1540 35.4723 22.5394 0.7721
-53.1029 35.4946 23.7502 0.7614
-35.1665 -29.8212 17.1447 0.8214
-33.2800 -30.3410 16.7454 0.8252
-31.7877 -31.1421 16.5467 0.8270
-29.6034 -31.1621 15.9821 0.8324
-27.5577 -31.1773 15.4723 0.8373
-25.3920 -30.8947 14.8698 0.8431
-23.7417 -31.0987 14.5481 0.8462
-22.3221 -31.5242 14.3628 0.8480
-17.7763 -31.8975 13.5780 0.8557
-15.5454 -33.3124 13.6690 0.8548
-14.1168 -33.3230 13.4566 0.8569
-7.2239 -38.5399 14.5800 0.8459
-3.2862 -42.2740 15.0350 0.8353
-1.6925 -40.5874 14.4042 0.8416
5.8739 -42.3421 15.1577 0.8341
9.1814 -43.1499 15.6429 0.8293
10.6588 -42.5308 15.5472 0.8302
12.3392 -42.6759 15.7521 0.8282
13.9780 -42.5554 15.8827 0.8269
19.5703 -43.2327 16.8272 0.8176
21.4794 -43.2469 17.1220 0.8147
23.4212 -43.1916 17.4219 0.8118
27.4876 -43.0083 18.0988 0.8052
9.8752 11.5849 5.3977 0.9374
9.2010 11.6138 5.2538 0.9391
8.6916 11.8189 5.2020 0.9396
7.4290 11.7896 4.9412 0.9426
5.6768 11.6160 4.5844 0.9466
4.2204 11.6757 4.4022 0.9487
2.0175 11.9432 4.2949 0.9499
1.5793 11.9465 4.2729 0.9501
1.1451 11.9497 4.2566 0.9503
0.6957 11.6531 4.1394 0.9517
-4.0543 11.6343 4.3687 0.9491
-51.2664 71.4253 31.1750 0.6886
-55.4779 61.9598 29.4900 0.7026
-46.5150 48.3397 23.7874 0.7522
-46.5402 45.0139 22.9586 0.7597
-46.5637 41.9082 22.2133 0.7665
-47.1671 39.4807 21.8106 0.7702
-37.9486 -29.9063 17.1324 0.8146
-35.8803 -30.4265 16.6813 0.8190
-29.6034 -31.1621 15.2408 0.8333
-27.3866 -30.9837 14.6630 0.8390
-25.8065 -31.3992 14.4116 0.8416
-22.5612 -31.8618 13.8433 0.8473
-17.7763 -31.8975 12.9482 0.8564
-12.7302 -33.3334 12.6522 0.8595
-11.3803 -33.3435 12.4928 0.8611
-9.6726 -32.0619 11.8748 0.8675
-8.3040 -31.5841 11.5799 0.8706
-7.4832 -39.9231 14.4027 0.8417
-4.8354 -42.4256 15.1409 0.8343
-3.1914 -41.0551 13.8989 0.8404
-1.7142 -41.1096 13.8875 0.8405
2.7173 -41.0881 13.8985 0.8404
4.1961 -41.0192 13.9172 0.8402
5.6765 -40.9193 13.9435 0.8400
7.1591 -40.7881 13.9774 0.8396
11.7724 -40.7158 14.3055 0.8362
17.7213 -43.2135 15.7644 0.8210
21.1125 -42.5081 16.0197 0.8184
25.5190 -43.2770 16.9574 0.8089
27.6513 -43.2645 17.3305 0.8051
9.8752 11.5848 5.1380 0.9378
8.0578 11.8240 4.8295 0.9414
6.9186 11.9068 4.6480 0.9435
5.6768 11.6160 4.3638 0.9469
5.1705 11.6198 4.2927 0.9477
4.6798 11.6234 4.2292 0.9485
0.6957 11.6531 3.9402 0.9519
0.2766 11.6562 3.9354 0.9520
-0.1420 11.6593 3.9356 0.9520
-1.0073 11.9658 4.0530 0.9506
-1.8805 11.9722 4.0905 0.9501
-3.6999 11.9858 4.2339 0.9484
-4.5514 11.6921 4.2348 0.9484
-51.3432 61.6599 27.0821 0.7127
-46.4884 51.9200 23.5225 0.7451
-46.9557 39.3037 20.6680 0.7722
-50.0334 36.1069 20.8257 0.7707
-53.7319 35.9151 21.8141 0.7612
-57.5192 35.5274 22.8189 0.7517
-36.6855 -31.1093 16.2349 0.8162
-31.4888 -30.8493 14.8788 0.8302
-29.5528 -31.1088 14.4826 0.8343
-26.1647 -31.8350 13.9086 0.8403
-24.1414 -31.6223 13.4281 0.8454
-23.0282 -32.5214 13.4500 0.8452
-17.7763 -31.8975 12.3252 0.8571
-16.3117 -31.9124 12.0967 0.8596
-15.5454 -33.3124 12.4078 0.8562
-12.7302 -33.3334 12.0434 0.8602
-9.6714 -32.0578 11.3019 0.8682
-8.3040 -31.5842 11.0227 0.8712
-7.6287 -40.6992 13.9762 0.8396
-4.6687 -40.9635 13.9157 0.8403
-3.2583 -41.9150 13.4800 0.8381
-1.7393 -41.7097 13.3853 0.8392
-0.2409 -41.7428 13.3845 0.8392
1.2644 -41.9486 13.4564 0.8384
2.7543 -41.6478 13.3830 0.8392
5.8240 -41.9826 13.5901 0.8369
7.3707 -41.9941 13.6707 0.8360
8.9042 -41.8470 13.7181 0.8355
10.4383 -41.6510 13.7679 0.8350
13.5199 -41.1606 13.8913 0.8336
15.0685 -40.8653 13.9653 0.8328
16.7897 -40.9417 14.1884 0.8304
29.0507 -42.0474 16.3868 0.8068
40.4239 15.3193 13.8609 0.8339
9.8751 11.5848 4.8809 0.9381
7.4290 11.7896 4.4681 0.9431
6.9186 11.9068 4.4155 0.9438
4.6798 11.6234 4.0176 0.9487
2.9103 11.9366 3.9394 0.9497
2.4607 11.9399 3.9088 0.9501
1.5695 11.8722 3.8398 0.9509
-0.1420 11.6593 3.7387 0.9522
-0.5612 11.6624 3.7437 0.9521
-2.3022 11.8620 3.8744 0.9505
-3.2326 11.9823 3.9793 0.9492
-4.0545 11.6349 3.9506 0.9496
-4.5514 11.6921 4.0229 0.9487
-51.3675 61.6890 25.7393 0.7138
-50.8587 49.1909 22.6869 0.7429
-46.5648 41.9092 20.0870 0.7686
-46.6075 36.2483 18.9317 0.7803
-49.1537 35.4721 19.4359 0.7752
-57.8882 35.7554 21.8163 0.7514
-62.4907 35.5645 23.0545 0.7393
-36.6856 -31.1094 15.4227 0.8171
-33.8967 -30.9033 14.7074 0.8247
-32.1137 -31.4615 14.4148 0.8279
-28.1926 -31.8956 13.6493 0.8363
-24.1387 -31.6187 12.7548 0.8461
-20.8114 -31.7488 12.1720 0.8526
-17.7763 -31.8976 11.7085 0.8578
-15.5454 -33.3125 11.7870 0.8569
-12.7302 -33.3335 11.4409 0.8608
-8.3040 -31.5842 10.4712 0.8718
-7.8056 -34.7110 11.4076 0.8612
-3.2583 -41.9150 12.7770 0.8388
-1.7483 -41.9263 12.7530 0.8391
1.2644 -41.9487 12.7546 0.8391
5.8240 -41.9826 12.8813 0.8376
7.3708 -41.9941 12.9577 0.8367
12.1523 -42.0297 13.2966 0.8328
17.0647 -41.6125 13.6687 0.8286
20.3933 -41.0602 13.9331 0.8256
40.9414 15.5154 13.3062 0.8327
40.1199 18.5969 13.4392 0.8312
9.8751 11.5848 4.6263 0.9383
9.2006 11.6133 4.5028 0.9399
8.7462 11.8932 4.4867 0.9401
8.1082 11.8979 4.3758 0.9416
7.4290 11.7896 4.2350 0.9434
6.3604 11.9109 4.1037 0.9451
5.6768 11.6160 3.9293 0.9474
5.1705 11.6198 3.8652 0.9482
4.2203 11.6752 3.7730 0.9494
3.3467 11.8590 3.7449 0.9498
2.4607 11.9399 3.7050 0.9503
2.0174 11.9432 3.6811 0.9506
1.5793 11.9465 3.6623 0.9509
1.1451 11.9497 3.6483 0.9511
0.6957 11.6530 3.5478 0.9524
-0.5612 11.6624 3.5485 0.9524
-1.0074 11.9657 3.6494 0.9510
-1.4419 11.9690 3.6638 0.9508
-1.8805 11.9722 3.6831 0.9506
-3.2326 11.9823 3.7718 0.9494
-3.6999 11.9858 3.8123 0.9489
-46.5419 45.0155 19.6784 0.7628
-46.5653 41.9096 19.0395 0.7696
-46.5873 38.9954 18.4639 0.7757
-46.7228 36.3380 17.9887 0.7808
-49.1535 35.4720 18.4221 0.7761
-68.1446 35.6066 23.3668 0.7251
-36.5513 -30.9955 14.5648 0.8184
-33.8637 -33.1759 14.4076 0.8202
-31.5330 -33.1933 13.9142 0.8258
-28.2343 -31.9428 12.9566 0.8367
-26.1648 -31.8351 12.5236 0.8417
-24.1646 -31.6527 12.1026 0.8466
-25.2667 -35.6827 13.2879 0.8329
-19.3017 -31.8863 11.3278 0.8557
-17.7763 -31.8976 11.0979 0.8584
-15.5454 -33.3125 11.1722 0.8575
-13.9722 -32.9817 10.8859 0.8609
-12.5997 -32.9919 10.7330 0.8627
-8.3040 -31.5842 9.9251 0.8724
-7.7369 -41.2763 12.7629 0.8390
-6.3051 -41.8923 12.8750 0.8377
-1.7358 -41.6276 11.9719 0.8408
4.2629 -41.6722 12.0368 0.8400
8.9379 -42.0058 12.3404 0.8363
12.1523 -42.0298 12.5717 0.8335
13.8094 -42.0421 12.7156 0.8318
19.0552 -42.0946 13.2773 0.8251
20.8885 -42.0571 13.4934 0.8225
22.5453 -41.5763 13.5902 0.8213
24.4090 -41.3945 13.8084 0.8187
26.1741 -40.9531 13.9658 0.8169
28.2313 -40.8615 14.2712 0.8133
58.1055 -43.5397 20.8636 0.7392
58.0091 -37.2851 19.8148 0.7505
61.3973 -36.4167 20.5121 0.7430
45.7385 15.4797 13.8750 0.8179
39.2456 16.5071 12.2340 0.8376
39.4428 18.2830 12.4921 0.8345
39.6641 20.1458 12.7831 0.8310
42.1322 25.3564 14.1299 0.8149
40.5674 26.4434 13.9146 0.8175
9.8751 11.5848 4.3741 0.9386
9.2005 11.6132 4.2573 0.9402
8.7462 11.8932 4.2421 0.9404
7.4290 11.7896 4.0042 0.9437
6.9186 11.9068 3.9570 0.9443
6.3208 11.8368 3.8558 0.9457
4.6798 11.6234 3.6005 0.9492
4.2202 11.6750 3.5672 0.9496
3.3466 11.8589 3.5407 0.9500
2.4607 11.9399 3.5030 0.9505
2.0174 11.9432 3.4804 0.9508
1.1451 11.9497 3.4494 0.9513
-1.4419 11.9689 3.4641 0.9511
-2.3022 11.8619 3.4721 0.9510
-2.7745 11.9789 3.5332 0.9501
-4.0547 11.6355 3.5406 0.9500
-4.5513 11.6921 3.6052 0.9491
-51.1210 71.2227 25.1915 0.6943
-51.3080 66.3214 24.0943 0.7054
-46.7233 36.3384 17.0082 0.7817
-54.1502 39.0779 19.1884 0.7574
-63.1653 35.9484 20.8838 0.7390
-68.1583 35.6138 22.0974 0.7261
-72.7612 34.7531 23.1700 0.7149
-65.0383 28.2437 20.3745 0.7445
-65.5382 23.0272 19.9607 0.7489
-67.9881 18.5292 20.2486 0.7458
-74.9117 11.9634 21.7983 0.7293
-28.2308 -31.9389 12.2487 0.8374
-26.1649 -31.8351 11.8408 0.8424
-25.6787 -36.2646 12.7683 0.8312
-20.7456 -31.6484 10.8737 0.8543
-15.5455 -33.3126 10.5632 0.8581
-14.1168 -33.3232 10.3990 0.8602
-12.6663 -33.1662 10.2015 0.8626
-9.6677 -32.0456 9.6181 0.8700
-8.3040 -31.5843 9.3840 0.8729
-7.8056 -34.7112 10.2232 0.8624
-7.7369 -41.2763 12.0671 0.8396
-3.3048 -42.5142 11.5527 0.8380
-0.2460 -42.6359 11.5511 0.8380
2.8132 -42.5379 11.5496 0.8381
4.3380 -42.4066 11.5488 0.8381
5.8571 -42.2207 11.5480 0.8381
12.0948 -41.8308 11.7970 0.8349
13.7155 -41.7561 11.9072 0.8335
17.2514 -42.0677 12.3181 0.8283
19.0552 -42.0947 12.5184 0.8257
22.8417 -42.1229 12.9818 0.8199
24.8473 -42.1378 13.2529 0.8165
26.6771 -41.7401 13.4206 0.8144
28.8773 -41.7964 13.7633 0.8102
57.8909 -40.2170 19.0970 0.7467
58.1297 -37.3626 18.7210 0.7510
82.1519 -44.8212 25.3537 0.6785
84.1123 -42.0455 25.4762 0.6773
45.7383 15.4797 13.0819 0.8186
38.6129 16.2410 11.3487 0.8406
38.7938 17.9822 11.5842 0.8376
15.8512 10.3324 5.1262 0.9246
40.1450 28.2720 13.3025 0.8159
9.8751 11.5848 4.1241 0.9389
9.2003 11.6130 4.0139 0.9404
8.7462 11.8932 3.9996 0.9407
7.4290 11.7896 3.7753 0.9439
6.9186 11.9068 3.7308 0.9445
6.3604 11.9109 3.6582 0.9456
5.6768 11.6160 3.5027 0.9478
3.8340 11.9297 3.3948 0.9494
3.3466 11.8589 3.3383 0.9502
2.0174 11.9432 3.2815 0.9510
1.1450 11.9497 3.2522 0.9515
0.6957 11.6530 3.1627 0.9528
0.2766 11.6561 3.1588 0.9528
-0.1420 11.6593 3.1590 0.9528
-1.8805 11.9722 3.2833 0.9510
-2.3022 11.8619 3.2736 0.9512
-3.2326 11.9823 3.3623 0.9499
-4.5513 11.6921 3.3992 0.9493
-51.0214 76.7577 24.9702 0.6825
-51.2701 71.4305 23.8209 0.6946
-51.3087 66.3223 22.7174 0.7065
-46.8589 48.6972 18.3090 0.7557
-50.9037 49.2344 19.1861 0.7457
-49.1533 35.4719 16.4221 0.7779
-57.5304 35.5344 18.3196 0.7556
-67.1757 32.0852 20.1686 0.7345
-66.4560 28.8594 19.6287 0.7406
-69.2417 24.3285 19.8832 0.7378
-70.8515 22.0706 20.1049 0.7353
-36.9934 -31.3704 13.1407 0.8179
-33.8638 -33.1760 12.8435 0.8216
-28.2274 -31.9350 11.5472 0.8381
-26.1649 -31.8352 11.1640 0.8430
-24.2014 -31.7009 10.8051 0.8477
-25.9865 -36.6993 12.1828 0.8300
-19.2139 -31.7412 10.0521 0.8575
-17.6954 -31.7525 9.8481 0.8602
-16.3034 -31.8961 9.7047 0.8620
-15.5455 -33.3126 9.9594 0.8587
-14.1648 -33.4364 9.8379 0.8603
-13.2337 -34.6520 10.0493 0.8575
-8.3041 -31.5843 8.8476 0.8734
-7.8057 -34.7113 9.6388 0.8629
-6.3454 -42.1600 11.5507 0.8380
-1.7972 -43.1001 10.9842 0.8369
-0.2488 -43.1116 10.9778 0.8370
1.2998 -43.1232 10.9855 0.8369
4.4137 -43.1463 11.0437 0.8361
7.5771 -43.1699 11.1604 0.8345
9.2978 -43.6969 11.3757 0.8316
10.8278 -43.2052 11.3416 0.8321
12.2225 -42.2724 11.2048 0.8339
13.8342 -42.1177 11.2882 0.8328
17.2412 -42.0428 11.5706 0.8290
18.9908 -41.9523 11.7259 0.8269
26.9406 -42.1523 12.7382 0.8134
29.1347 -42.1690 13.0511 0.8093
31.4425 -42.1866 13.3974 0.8048
33.7874 -42.0907 13.7435 0.8003
57.9878 -43.4514 18.4508 0.7415
57.8903 -40.2166 17.9486 0.7476
61.2342 -36.3199 18.1285 0.7454
49.5900 14.8218 13.1790 0.8076
42.4838 25.5680 12.6257 0.8149
40.0315 32.7296 13.1666 0.8078
40.4470 35.5667 13.7145 0.8007
9.8751 11.5847 3.8761 0.9391
9.2002 11.6129 3.7725 0.9407
8.7462 11.8931 3.7591 0.9409
7.4290 11.7895 3.5483 0.9441
6.3604 11.9109 3.4382 0.9458
5.6768 11.6159 3.2921 0.9480
4.2201 11.6747 3.1610 0.9500
3.7100 11.5443 3.0876 0.9512
3.2587 11.5476 3.0552 0.9517
2.8356 11.6304 3.0482 0.9518
2.3980 11.6357 3.0251 0.9521
1.9660 11.6389 3.0056 0.9524
1.5391 11.6421 2.9902 0.9527
1.1159 11.6453 2.9788 0.9529
0.2765 11.6515 2.9677 0.9530
-0.1420 11.6546 2.9678 0.9530
-0.5610 11.6577 2.9719 0.9530
-1.4052 11.6640 2.9915 0.9527
-1.8326 11.6672 3.0073 0.9524
-2.2650 11.6704 3.0271 0.9521
-2.7038 11.6732 3.0510 0.9517
-3.5803 11.5985 3.0909 0.9511
-14.2038 18.3600 5.9107 0.9086
-47.1143 52.6190 17.9845 0.7471
-46.5888 38.9967 15.4703 0.7782
-53.1130 35.5013 16.2672 0.7682
-58.1396 35.9107 17.4004 0.7542
-62.5225 35.5826 18.3179 0.7431
-68.1580 35.6136 19.5815 0.7280
-70.0067 30.4013 19.4342 0.7298
-64.4145 25.2650 17.6185 0.7516
-65.0211 20.2544 17.3411 0.7550
-66.0443 17.9995 17.4303 0.7539
-67.6213 15.8452 17.6849 0.7508
-70.0854 13.7892 18.1881 0.7447
-82.0126 13.0974 21.1476 0.7098
-34.8571 -31.7788 12.0107 0.8231
-33.8639 -33.1761 12.0713 0.8223
-31.3805 -33.0328 11.6015 0.8286
-28.2240 -31.9312 10.8517 0.8387
-26.1649 -31.8352 10.4928 0.8436
-26.2667 -37.0949 11.5737 0.8289
-17.6955 -31.7525 9.2559 0.8607
-16.3014 -31.8921 9.1201 0.8626
-15.5455 -33.3126 9.3606 0.8592
-14.4832 -37.9238 10.3368 0.8457
-9.6653 -32.0377 8.5210 0.8710
-7.8057 -34.7114 9.0593 0.8634
-6.4928 -43.1392 11.1083 0.8352
-1.8187 -43.6142 10.4096 0.8357
1.2637 -41.9241 10.0021 0.8416
10.9105 -43.5351 10.7028 0.8315
12.2422 -42.3407 10.5105 0.8342
21.4815 -43.2512 11.5161 0.8199
22.8999 -42.2302 11.4559 0.8207
24.7984 -42.0549 11.6424 0.8181
28.9278 -41.8694 12.1358 0.8112
31.4401 -42.1834 12.5460 0.8055
57.9434 -43.4182 17.2664 0.7425
57.9666 -40.2696 16.8314 0.7481
58.1285 -37.3618 16.4782 0.7527
73.9912 -40.3688 20.0998 0.7071
40.2475 12.0295 10.0173 0.8414
40.3624 13.6603 10.1614 0.8393
40.4925 15.3453 10.3263 0.8369
38.2007 16.0676 9.8826 0.8433
38.2129 17.7130 10.0439 0.8410
40.0124 22.1643 10.9078 0.8285
15.8486 10.3307 4.5114 0.9252
38.7024 27.2561 11.2883 0.8231
38.9969 29.6133 11.6769 0.8176
9.8751 11.5847 3.6301 0.9393
8.7462 11.8931 3.5205 0.9411
7.4290 11.7895 3.3230 0.9443
6.9186 11.9067 3.2839 0.9449
6.3604 11.9109 3.2200 0.9460
5.6347 11.5299 3.0603 0.9486
5.1684 11.6151 3.0317 0.9491
4.6779 11.6187 2.9868 0.9498
3.2818 11.6291 2.8815 0.9515
2.3980 11.6357 2.8330 0.9523
1.5391 11.6421 2.8004 0.9529
1.1159 11.6452 2.7897 0.9530
0.2765 11.6515 2.7793 0.9532
-0.9817 11.6608 2.7906 0.9530
-1.4052 11.6640 2.8016 0.9528
-1.8326 11.6672 2.8164 0.9526
-2.2650 11.6704 2.8349 0.9523
-3.6056 11.6804 2.9151 0.9510
-4.5495 11.6874 2.9908 0.9497
-51.2716 71.4325 20.9681 0.6966
-51.3428 61.6594 19.1339 0.7190
-46.4920 51.9240 16.6204 0.7508
-46.5674 41.9115 14.9402 0.7729
-46.7248 36.3396 14.1155 0.7840
-53.1129 35.5012 15.2346 0.7690
-57.5301 35.5342 16.1251 0.7572
-63.1647 35.9481 17.3313 0.7417
-72.5011 34.6288 19.1601 0.7186
-65.1484 22.8903 16.4668 0.7528
-68.9972 16.1676 16.8993 0.7472
-70.0858 13.7892 17.0336 0.7455
-74.9118 11.9634 18.0904 0.7320
-62.4633 -42.3330 17.9940 0.7332
-58.3050 -42.6473 17.2263 0.7430
-36.9935 -31.3705 11.5666 0.8192
-34.8519 -31.7741 11.2466 0.8237
-33.8639 -33.1761 11.3050 0.8229
-24.1638 -31.6517 9.4961 0.8490
-25.2439 -41.7026 11.6248 0.8184
-17.7764 -31.8978 8.7081 0.8606
-15.6391 -36.9165 9.5608 0.8480
-7.8057 -34.7115 8.4843 0.8639
-7.7369 -41.2764 10.0145 0.8414
-6.5594 -43.5818 10.5099 0.8342
-4.9610 -43.5278 10.4472 0.8351
-3.3495 -43.0886 9.6127 0.8377
4.4663 -43.6610 9.7618 0.8354
6.0585 -43.6729 9.8068 0.8347
7.3271 -41.7458 9.4271 0.8406
10.9549 -43.7123 10.0232 0.8314
12.0764 -41.7673 9.6705 0.8368
13.7204 -41.7711 9.7791 0.8351
19.2354 -42.4929 10.3746 0.8260
21.5760 -43.4413 10.7884 0.8197
24.8410 -42.1271 10.8777 0.8184
29.4810 -42.6702 11.5357 0.8085
31.3599 -42.0758 11.6720 0.8065
33.6379 -41.9045 11.9519 0.8024
73.8948 -40.3162 18.7229 0.7083
79.3368 -36.1594 19.3926 0.6996
39.5872 10.2996 9.0982 0.8457
39.6706 11.8570 9.2093 0.8439
39.7756 13.4617 9.3399 0.8419
38.1912 16.0636 9.2153 0.8439
38.2126 17.7128 9.3680 0.8415
39.6310 21.9530 10.0768 0.8306
38.2359 23.0115 9.9259 0.8329
38.1747 28.9889 10.6615 0.8217
44.7322 45.4258 14.1801 0.7701
8.7462 11.8931 3.2836 0.9413
8.1081 11.8979 3.2024 0.9427
6.7423 11.6034 2.9849 0.9465
6.1983 11.6074 2.9268 0.9475
5.6745 11.6113 2.8745 0.9484
4.6779 11.6187 2.7858 0.9500
4.2011 11.6223 2.7487 0.9506
3.7363 11.6257 2.7161 0.9512
3.2818 11.6291 2.6876 0.9517
2.8361 11.6324 2.6631 0.9521
1.9660 11.6389 2.6254 0.9528
0.6954 11.6483 2.5955 0.9533
0.2765 11.6515 2.5923 0.9534
-0.5610 11.6577 2.5959 0.9533
-0.9817 11.6608 2.6028 0.9532
-1.4052 11.6640 2.6131 0.9530
-1.8325 11.6672 2.6268 0.9528
-3.1502 11.6770 2.6901 0.9516
-3.6056 11.6804 2.7189 0.9511
-4.0715 11.6838 2.7520 0.9506
-51.3671 61.6885 17.8548 0.7197
-46.4925 51.9247 15.5022 0.7516
-46.5195 48.3445 14.9226 0.7596
-50.6896 49.0272 15.6852 0.7490
-46.6105 36.2506 13.1335 0.7851
-58.6466 39.2001 15.6899 0.7490
-69.4639 24.4066 16.3762 0.7396
-71.3125 22.2142 16.6132 0.7363
-81.7539 22.2809 18.8470 0.7066
-75.5594 17.7053 17.2612 0.7276
-76.6287 15.0765 17.3706 0.7261
-77.2875 12.3428 17.4082 0.7256
-67.6342 -42.3765 17.7522 0.7210
-62.8768 -42.6132 16.8943 0.7325
-57.9550 -42.3913 15.9707 0.7451
-33.8640 -33.1762 10.5443 0.8234
-26.1650 -31.8353 9.1655 0.8446
-20.7337 -31.6302 8.4120 0.8564
-25.2727 -41.7504 10.8550 0.8187
-16.2974 -31.8842 7.9644 0.8635
-15.5774 -33.3811 8.1933 0.8599
-15.8627 -37.4444 9.0449 0.8465
-8.3041 -31.5844 7.2638 0.8747
-7.8057 -34.7116 7.9134 0.8643
-7.7369 -41.2765 9.3407 0.8419
-6.5594 -43.5819 9.8027 0.8348
-4.9610 -43.5280 9.7442 0.8357
-3.3495 -43.0887 8.9239 0.8382
-1.8187 -43.6143 9.0134 0.8367
2.7747 -41.9570 8.6823 0.8422
4.4663 -43.6611 9.0623 0.8359
6.0585 -43.6729 9.1041 0.8352
10.9549 -43.7123 9.3050 0.8319
12.0754 -41.7638 8.9767 0.8373
13.7082 -41.7341 9.0704 0.8358
16.1325 -43.7509 9.6284 0.8266
17.5955 -42.9068 9.5756 0.8274
21.7572 -43.8063 10.0995 0.8189
23.1674 -42.7237 10.0353 0.8200
31.6772 -42.5016 10.9452 0.8053
58.0604 -37.3181 14.2513 0.7543
73.9711 -40.3578 17.3992 0.7088
73.9960 -36.9886 17.0815 0.7133
46.6752 10.3703 9.8727 0.8226
40.0478 10.4195 8.5445 0.8445
39.1137 11.6906 8.4293 0.8464
39.2095 13.2701 8.5472 0.8445
38.2122 17.7126 8.6966 0.8420
38.4191 19.5134 8.8975 0.8386
38.3520 23.0814 9.2426 0.8329
15.8461 10.3291 3.9057 0.9257
38.3143 31.3256 10.2189 0.8170
37.6734 33.1278 10.3586 0.8147
44.9146 45.6109 13.2176 0.7699
41.6491 45.4486 12.7289 0.7774
6.7423 11.6033 2.7710 0.9467
6.1983 11.6074 2.7170 0.9477
5.1684 11.6151 2.6250 0.9494
4.2011 11.6222 2.5518 0.9508
2.3980 11.6357 2.4531 0.9526
1.9660 11.6389 2.4373 0.9529
1.5391 11.6421 2.4248 0.9532
0.6954 11.6483 2.4095 0.9535
0.2765 11.6515 2.4065 0.9535
-0.1420 11.6546 2.4067 0.9535
-0.9817 11.6608 2.4163 0.9533
-1.4052 11.6640 2.4258 0.9531
-1.8326 11.6671 2.4386 0.9529
-2.7038 11.6736 2.4742 0.9522
-3.1502 11.6770 2.4973 0.9518
-3.6056 11.6804 2.5241 0.9513
-51.0443 71.1159 18.0752 0.6994
-51.3115 66.3259 17.3151 0.7100
-51.3427 61.6592 16.5675 0.7206
-47.1160 52.6209 14.5843 0.7494
-46.5903 38.9979 12.5455 0.7802
-53.1127 35.5011 13.1912 0.7703
-62.5024 35.5712 14.8494 0.7455
-70.6112 30.6638 15.8955 0.7302
-65.0225 20.2548 14.0624 0.7572
-67.6051 -42.3583 16.4730 0.7219
-61.9329 -41.9736 15.4483 0.7367
-36.5395 -28.7959 9.6061 0.8269
-34.8416 -31.7647 9.7353 0.8248
-32.7991 -34.5261 9.8331 0.8232
-28.2140 -31.9199 8.7966 0.8403
-26.5381 -37.4783 9.4823 0.8290
-26.5694 -40.5329 10.0072 0.8204
-17.7765 -31.8979 7.5401 0.8614
-14.8526 -43.5172 9.4945 0.8288
-9.6618 -32.0261 6.9073 0.8723
-8.3041 -31.5844 6.7433 0.8751
-6.5594 -43.5819 9.1003 0.8353
1.2655 -41.9852 8.0079 0.8428
2.7765 -41.9837 8.0215 0.8425
7.3269 -41.7441 8.0800 0.8415
12.0762 -41.7666 8.2888 0.8377
17.5835 -42.8774 8.8350 0.8280
21.7572 -43.8063 9.3248 0.8194
30.3079 -43.8669 10.1649 0.8048
57.9871 -37.2709 13.1416 0.7553
74.1353 -37.0583 15.8010 0.7136
79.6405 -36.2978 16.6857 0.7002
46.6750 10.3702 9.1153 0.8231
40.0477 10.4194 7.8891 0.8449
38.1830 16.0602 7.8971 0.8448
38.2119 17.7125 8.0295 0.8424
38.4488 19.5286 8.2214 0.8390
38.3852 23.1013 8.5410 0.8332
15.8449 10.3283 3.6058 0.9259
38.2969 33.6760 9.7224 0.8125
39.9434 37.7510 10.4779 0.7995
8.5233 11.5901 2.7428 0.9431
7.9015 11.5947 2.6750 0.9445
6.1983 11.6074 2.5086 0.9478
5.6745 11.6113 2.4638 0.9487
4.6779 11.6187 2.3878 0.9503
3.2254 11.4295 2.2641 0.9528
2.3568 11.4360 2.2260 0.9536
1.9323 11.4391 2.2117 0.9539
1.5126 11.4422 2.2004 0.9541
1.0967 11.4453 2.1920 0.9543
0.6835 11.4484 2.1865 0.9544
0.2717 11.4515 2.1838 0.9544
-0.1395 11.4545 2.1839 0.9544
-0.5514 11.4576 2.1869 0.9544
-2.2262 11.4701 2.2275 0.9535
-3.0961 11.4764 2.2662 0.9527
-3.5437 11.4796 2.2904 0.9523
-4.0715 11.6838 2.3588 0.9509
-4.5495 11.6874 2.3910 0.9502
-51.2737 71.4356 16.7638 0.6990
-51.3121 66.3267 15.9871 0.7107
-46.4937 51.9259 13.2878 0.7529
-46.5206 48.3456 12.7910 0.7609
-46.5908 38.9983 11.5833 0.7808
-46.7262 36.3407 11.2852 0.7858
-49.1528 35.4715 11.5560 0.7813
-57.5298 35.5340 12.8912 0.7593
-73.9851 35.3376 15.6312 0.7161
-65.0427 28.2456 13.5188 0.7492
-64.4168 25.2659 13.1916 0.7545
-64.4755 22.6538 13.0286 0.7571
-74.9120 11.9635 14.4626 0.7342
-72.7277 -42.0100 16.0121 0.7103
-64.0493 -40.1304 14.4095 0.7351
-60.1733 -40.7810 13.8581 0.7438
-56.7591 -41.5166 13.4066 0.7510
-36.9937 -31.3707 9.2471 0.8208
-34.8364 -31.7600 8.9872 0.8253
-33.8641 -33.1763 9.0380 0.8244
-26.1651 -31.8354 7.8561 0.8455
-26.5698 -40.5335 9.2398 0.8209
-25.2728 -41.7505 9.3042 0.8198
-16.2934 -31.8765 6.8250 0.8644
-16.2285 -38.3079 7.9315 0.8442
-13.6718 -35.7990 7.3057 0.8555
-14.8526 -43.5172 8.7663 0.8292
-7.4846 -33.2834 6.5038 0.8703
-1.8037 -43.2552 7.5719 0.8388
-0.2476 -42.8993 7.5032 0.8401
1.2652 -41.9754 7.3448 0.8432
2.7781 -42.0083 7.3633 0.8429
4.4280 -43.2861 7.6102 0.8380
6.0047 -43.2852 7.6430 0.8374
7.3214 -41.7130 7.4071 0.8420
16.0748 -43.5944 8.1265 0.8281
17.5715 -42.8481 8.0995 0.8286
19.0890 -42.1695 8.0959 0.8286
21.7573 -43.8064 8.5547 0.8199
23.1551 -42.7008 8.4957 0.8210
24.7649 -41.9981 8.5274 0.8204
27.9140 -43.6754 9.0657 0.8102
31.3105 -42.0095 9.1637 0.8084
33.7314 -42.0209 9.4244 0.8035
60.0836 -48.4850 13.5033 0.7309
57.9059 -40.2274 12.3317 0.7510
60.7716 -36.0456 12.3579 0.7506
73.3782 -36.6798 14.3479 0.7167
79.2236 -36.1077 15.2274 0.7022
40.0475 10.4194 7.2374 0.8453
37.5769 11.2313 6.8594 0.8528
37.9160 12.8323 7.0010 0.8500
38.2225 14.4850 7.1490 0.8471
38.1992 16.0670 7.2479 0.8451
38.2115 17.7123 7.3662 0.8428
38.2245 19.4146 7.4983 0.8402
38.5319 27.1360 8.2427 0.8258
38.3138 31.3252 8.6557 0.8179
39.1300 36.9822 9.4167 0.8036
38.2593 38.8525 9.5369 0.8014
9.1783 11.5852 2.5851 0.9417
7.9015 11.5947 2.4540 0.9446
7.3090 11.5991 2.3978 0.9458
6.7423 11.6033 2.3471 0.9470
5.0797 11.4157 2.1853 0.9505
4.5976 11.4193 2.1530 0.9512
2.8160 11.5496 2.0792 0.9529
2.3870 11.5824 2.0683 0.9531
1.5378 11.6329 2.0523 0.9535
1.1159 11.6452 2.0461 0.9536
-0.1420 11.6546 2.0385 0.9538
-1.8283 11.6399 2.0608 0.9533
-2.2550 11.6188 2.0700 0.9531
-2.6851 11.5927 2.0812 0.9528
-4.0015 11.4829 2.1268 0.9518
-4.4712 11.4862 2.1558 0.9512
-51.3669 61.6883 14.0399 0.7218
-46.5211 48.3461 11.7346 0.7615
-65.2203 54.5919 14.8756 0.7080
-46.7267 36.3410 10.3532 0.7863
-57.5295 35.5339 11.8265 0.7599
-67.1822 32.0883 13.0216 0.7391
-66.3197 28.8001 12.6458 0.7456
-67.7842 26.5866 12.7347 0.7440
-71.6301 22.3131 13.1218 0.7374
-81.7563 22.2816 14.8206 0.7089
-77.9752 18.2714 14.0072 0.7224
-69.6016 -40.2043 14.0582 0.7215
-65.6062 -41.1058 13.5407 0.7302
-61.2097 -41.4834 12.9325 0.7406
-56.3548 -41.2208 12.2117 0.7531
-36.5238 -28.7835 8.1332 0.8279
-28.2074 -31.9124 7.4492 0.8412
-25.7617 -33.7446 7.4252 0.8416
-26.6811 -37.6802 8.0751 0.8290
-26.7036 -40.7376 8.5193 0.8205
-25.2728 -41.7505 8.5357 0.8202
-17.7765 -31.8979 6.3868 0.8622
-16.2914 -31.8726 6.2605 0.8647
-15.6734 -33.5866 6.4824 0.8603
-16.2670 -38.3988 7.2937 0.8442
-13.6076 -39.8696 7.3681 0.8428
-6.4497 -42.8531 7.5794 0.8386
-3.3495 -43.0888 6.8820 0.8394
-1.8187 -43.6144 6.9510 0.8379
-0.2482 -42.9979 6.8470 0.8402
2.7783 -42.0116 6.7044 0.8432
6.0585 -43.6730 7.0209 0.8365
7.3196 -41.7029 6.7421 0.8424
15.8627 -43.0192 7.3011 0.8305
17.5628 -42.8270 7.3708 0.8290
19.0809 -42.1515 7.3677 0.8291
21.3935 -43.0739 7.6583 0.8230
27.2016 -42.5608 8.0434 0.8150
30.3079 -43.8671 8.4903 0.8058
31.3113 -42.0107 8.3433 0.8088
33.7299 -42.0191 8.5800 0.8039
59.8683 -64.4952 14.0127 0.7002
58.0692 -43.5124 11.5546 0.7453
61.1019 -36.2415 11.3124 0.7500
66.4182 -36.2370 12.0479 0.7361
38.2253 12.9370 6.4260 0.8492
38.2372 14.4906 6.5113 0.8474
38.4756 23.1557 7.1507 0.8337
15.8425 10.3267 3.0113 0.9263
38.3308 26.9944 7.4654 0.8270
38.2952 31.3100 7.8767 0.8184
38.3312 33.7062 8.1279 0.8132
38.5003 36.3870 8.4355 0.8069
40.0871 43.7442 9.4481 0.7864
9.8711 11.5801 2.4230 0.9402
8.3770 11.3912 2.2516 0.9443
6.1514 11.5195 2.0795 0.9485
5.6646 11.5910 2.0543 0.9491
4.2011 11.6222 1.9679 0.9512
3.7363 11.6257 1.9445 0.9517
3.2818 11.6291 1.9241 0.9522
2.3980 11.6356 1.8918 0.9530
1.9660 11.6388 1.8796 0.9533
1.1159 11.6452 1.8628 0.9537
0.6954 11.6483 1.8581 0.9538
-0.5610 11.6577 1.8585 0.9538
-0.9817 11.6608 1.8634 0.9537
-1.4052 11.6639 1.8708 0.9535
-1.8325 11.6671 1.8806 0.9533
-2.2650 11.6703 1.8930 0.9530
-2.7038 11.6736 1.9081 0.9526
-4.0715 11.6838 1.9702 0.9511
-51.0844 76.8526 14.6947 0.6881
-51.2751 71.4374 14.0023 0.7004
-51.3135 66.3285 13.3536 0.7120
-51.3668 61.6882 12.7826 0.7224
-46.8906 48.7301 10.7686 0.7604
-46.9158 45.3772 10.3934 0.7677
-46.6124 36.2521 9.4030 0.7873
-49.1526 35.4714 9.6521 0.7823
-58.1388 35.9102 10.8814 0.7582
-68.1570 35.6131 12.2454 0.7324
-71.2390 30.9364 12.3673 0.7301
-72.5675 28.4628 12.4124 0.7293
-65.0239 20.2553 10.8449 0.7589
-66.0471 18.0002 10.9007 0.7578
-71.6547 11.4433 11.5546 0.7453
-76.5570 -40.6291 13.8010 0.7040
-71.6775 -41.4034 13.1810 0.7151
-66.1490 -41.4460 12.4301 0.7289
-57.5128 -42.0678 11.3466 0.7493
-36.5293 -28.7879 7.4060 0.8283
-34.8263 -31.7508 7.5044 0.8262
-26.1651 -31.8355 6.5618 0.8463
-25.2729 -41.7505 7.7713 0.8206
-17.7765 -31.8980 5.8148 0.8625
-16.2895 -31.8688 5.6992 0.8651
-15.6737 -33.5873 5.9020 0.8606
-14.7677 -43.2685 7.2802 0.8310
-9.6584 -32.0147 5.3249 0.8733
-7.4851 -33.2859 5.4327 0.8709
-6.4613 -42.9305 6.9131 0.8387
-4.9682 -43.5909 6.9862 0.8372
-3.3495 -43.0888 6.2084 0.8398
-1.8187 -43.6145 6.2706 0.8383
1.2655 -41.9861 6.0340 0.8439
4.4663 -43.6612 6.3047 0.8375
6.0585 -43.6731 6.3337 0.8368
10.8677 -43.3642 6.4219 0.8347
13.7253 -41.7859 6.3180 0.8372
23.1457 -42.6835 6.9749 0.8218
24.7243 -41.9293 6.9923 0.8214
27.1921 -42.5458 7.2534 0.8154
30.0472 -43.4897 7.5933 0.8077
31.3107 -42.0098 7.5265 0.8092
60.0167 -55.9986 11.7914 0.7177
59.3880 -51.5511 11.2968 0.7278
58.1440 -37.3718 9.9289 0.7563
66.4183 -36.2371 10.8686 0.7366
73.3761 -36.6787 11.7840 0.7178
79.5850 -36.2725 12.5638 0.7023
40.8893 10.6384 6.0693 0.8430
38.3267 11.4554 5.7463 0.8507
38.2250 12.9369 5.7970 0.8495
38.1987 16.0668 5.9529 0.8458
37.7854 20.9306 6.2050 0.8398
36.9658 22.2471 6.1976 0.8400
38.3302 26.9940 6.7345 0.8274
38.3127 31.3243 7.1089 0.8187
38.5002 36.3870 7.6097 0.8073
39.3030 42.8885 8.3566 0.7905
7.3090 11.5991 1.9694 0.9461
6.7422 11.6033 1.9278 0.9472
5.6745 11.6112 1.8565 0.9491
4.6779 11.6187 1.7992 0.9506
4.2011 11.6222 1.7753 0.9513
3.7363 11.6257 1.7542 0.9519
2.8361 11.6324 1.7199 0.9528
2.3980 11.6356 1.7066 0.9531
1.9660 11.6388 1.6956 0.9534
1.1159 11.6452 1.6805 0.9538
0.2765 11.6514 1.6742 0.9540
-0.9817 11.6608 1.6810 0.9538
-1.8325 11.6671 1.6965 0.9534
-2.2650 11.6703 1.7077 0.9531
-2.7038 11.6736 1.7213 0.9527
-3.6056 11.6803 1.7560 0.9518
-4.0715 11.6838 1.7774 0.9512
-51.2758 71.4385 12.6319 0.7009
-51.3141 66.3294 12.0467 0.7126
-47.1183 52.6235 10.1468 0.7517
-46.6129 36.2525 8.4826 0.7877
-49.1525 35.4713 8.7073 0.7827
-57.5293 35.5338 9.7134 0.7609
-74.6631 35.6615 11.8859 0.7158
-65.0448 28.2465 10.1867 0.7508
-64.4185 25.2666 9.9400 0.7561
-67.6241 15.8459 9.9773 0.7553
-71.6430 11.4414 10.4219 0.7459
-24.1458 2.9717 3.4947 0.9064
-34.1862 -15.1070 5.3690 0.8598
-77.9247 -41.3549 12.6726 0.7001
-71.3469 -41.2124 11.8359 0.7168
-63.6740 -43.1535 11.0495 0.7328
-36.5499 -28.8040 6.6848 0.8286
-34.1472 -33.4537 6.8670 0.8243
-34.8497 -36.6846 7.2685 0.8151
-25.7624 -33.7456 6.0987 0.8423
-26.6818 -37.6812 6.6325 0.8298
-17.7766 -31.8980 5.2457 0.8628
-16.2875 -31.8650 5.1407 0.8654
-15.6740 -33.5879 5.3244 0.8609
-15.8457 -41.4913 6.3801 0.8357
-14.8526 -43.5173 6.6053 0.8304
-7.4264 -33.0247 4.8625 0.8722
-6.4916 -43.1313 6.2656 0.8384
1.2654 -41.9833 5.3818 0.8442
2.7781 -42.0073 5.3942 0.8439
4.5505 -44.4839 5.7295 0.8350
7.3200 -41.7051 5.4254 0.8430
11.1606 -44.5331 5.8825 0.8310
12.0765 -41.7675 5.5709 0.8392
16.4355 -44.5724 6.0870 0.8257
17.5520 -42.8007 5.9273 0.8298
19.0365 -42.0534 5.9147 0.8301
21.5396 -43.3681 6.2044 0.8226
23.1413 -42.6755 6.2203 0.8222
33.7385 -42.0298 6.9058 0.8047
59.3988 -59.5514 10.7772 0.7123
59.3881 -51.5512 10.0764 0.7282
57.9814 -40.2799 9.0460 0.7522
79.7248 -36.3362 11.2262 0.7023
44.7519 3.3633 5.7503 0.8345
46.4676 10.3242 6.0991 0.8253
40.7446 10.6007 5.3945 0.8438
38.4073 11.4795 5.1363 0.8507
38.4003 14.5524 5.2617 0.8474
38.1983 16.0666 5.3097 0.8461
38.2105 17.7119 5.3964 0.8438
38.3872 19.4973 5.5167 0.8406
37.2106 22.3944 5.5647 0.8393
38.3611 38.9558 7.0053 0.8021
8.5233 11.5900 1.8434 0.9436
7.9015 11.5947 1.7978 0.9450
7.3090 11.5991 1.7567 0.9462
6.1983 11.6073 1.6860 0.9483
5.6745 11.6112 1.6559 0.9492
5.1684 11.6150 1.6289 0.9500
4.6779 11.6187 1.6048 0.9507
4.2011 11.6222 1.5835 0.9514
3.2818 11.6290 1.5482 0.9524
1.9660 11.6388 1.5124 0.9535
1.1159 11.6451 1.4989 0.9539
0.6954 11.6483 1.4952 0.9540
-0.1420 11.6545 1.4934 0.9541
-0.5610 11.6576 1.4954 0.9540
-0.9817 11.6608 1.4994 0.9539
-1.4052 11.6639 1.5053 0.9537
-1.8325 11.6671 1.5132 0.9535
-4.0715 11.6838 1.5853 0.9513
-51.1281 71.2326 11.2348 0.7022
-51.3148 66.3301 10.7454 0.7131
-46.4959 51.9284 8.9310 0.7550
-46.5477 45.0212 8.2975 0.7702
-46.5709 41.9147 8.0281 0.7767
-46.7281 36.3421 7.5850 0.7876
-57.5292 35.5337 8.6640 0.7613
-68.1566 35.6129 9.8533 0.7334
-65.6914 28.5273 9.1765 0.7492
-69.1774 24.3059 9.3950 0.7440
-83.3893 19.5401 10.9742 0.7079
-71.6521 11.4429 9.2972 0.7463
-23.8286 -8.5443 3.2435 0.9030
-77.9308 -41.3582 11.3044 0.7006
-71.6799 -41.4048 10.6066 0.7162
-23.8428 -14.9388 3.6051 0.8927
-52.7834 -41.5973 8.6110 0.7626
-36.9939 -31.3709 6.2149 0.8223
-34.8162 -31.7416 6.0367 0.8270
-34.9498 -36.7900 6.5019 0.8149
-26.7048 -40.7394 6.2415 0.8217
-16.2856 -31.8612 4.5848 0.8656
-15.6292 -33.4920 4.7356 0.8615
-16.7675 -39.5802 5.5078 0.8408
-15.8457 -41.4914 5.6908 0.8360
-9.6561 -32.0073 4.2837 0.8739
-7.5368 -40.2088 5.2417 0.8479
-3.3495 -43.0889 4.8696 0.8403
4.4492 -43.4936 4.9261 0.8386
6.1727 -44.4961 5.0615 0.8346
7.3162 -41.6835 4.7684 0.8434
11.1606 -44.5332 5.1729 0.8313
13.7319 -41.8060 4.9580 0.8377
16.4355 -44.5724 5.3526 0.8259
19.0381 -42.0570 5.2016 0.8304
22.1657 -44.6287 5.6145 0.8183
24.7291 -41.9373 5.4855 0.8220
30.3080 -43.8672 6.0076 0.8068
33.7299 -42.0191 6.0711 0.8050
60.0826 -64.7260 9.9506 0.7008
59.3989 -59.5515 9.4770 0.7128
58.0468 -37.3093 7.7748 0.7575
61.0271 -36.1972 7.9947 0.7516
66.4186 -36.2372 8.5249 0.7374
73.3748 -36.6780 9.2427 0.7188
47.1633 10.4787 5.4436 0.8233
38.4371 11.4884 4.5201 0.8509
38.4300 14.5637 4.6305 0.8475
38.1980 16.0665 4.6691 0.8464
37.2404 22.4124 4.8973 0.8395
38.5386 29.2652 5.4523 0.8230
38.2940 31.3091 5.5732 0.8195
38.0935 36.0026 5.9057 0.8098
37.1428 37.7187 5.9645 0.8081
38.4489 41.9565 6.4121 0.7953
9.1783 11.5852 1.6653 0.9422
6.7422 11.6033 1.5121 0.9474
5.6745 11.6112 1.4561 0.9493
5.1684 11.6150 1.4324 0.9501
3.7363 11.6256 1.3759 0.9520
2.3980 11.6356 1.3386 0.9533
1.9660 11.6388 1.3300 0.9536
1.5390 11.6420 1.3231 0.9538
1.1159 11.6451 1.3181 0.9540
-0.1420 11.6545 1.3132 0.9542
-0.9817 11.6607 1.3185 0.9540
-1.4052 11.6639 1.3237 0.9538
-3.1502 11.6769 1.3627 0.9525
-3.6056 11.6803 1.3773 0.9520
-4.0715 11.6838 1.3941 0.9514
-51.9139 84.5333 11.1773 0.6708
-51.2772 71.4404 9.9082 0.7019
-46.3682 55.6852 8.1646 0.7470
-46.4964 51.9290 7.8537 0.7553
-46.9173 45.3787 7.3544 0.7689
-46.9408 42.2476 7.1156 0.7755
-62.5015 35.5706 8.1028 0.7487
-80.3393 28.2277 9.5945 0.7098
-57.6375 -42.1591 8.0460 0.7502
-36.9940 -31.3709 5.4651 0.8226
-34.2587 -33.5629 5.4037 0.8244
-34.9502 -36.7904 5.7176 0.8152
-26.7052 -40.7400 5.4886 0.8219
-25.2729 -41.7507 5.4989 0.8216
-17.7766 -31.8981 4.1145 0.8633
-16.7791 -39.6074 4.8466 0.8410
-15.8248 -41.4366 4.9977 0.8365
-14.8527 -43.5175 5.1810 0.8310
-7.4860 -33.2897 3.8445 0.8717
-7.5371 -40.2106 4.6095 0.8482
-6.6826 -44.4003 5.0591 0.8347
-5.0618 -44.4124 5.0365 0.8353
-3.3495 -43.0890 4.2038 0.8406
-0.2565 -44.4482 4.3235 0.8364
1.2631 -41.9055 4.0779 0.8449
2.7808 -42.0490 4.0989 0.8442
4.5505 -44.4840 4.3494 0.8355
11.1607 -44.5332 4.4656 0.8315
12.0594 -41.7085 4.2231 0.8399
13.7397 -41.8298 4.2826 0.8378
16.4355 -44.5725 4.6208 0.8262
19.0451 -42.0724 4.4920 0.8306
22.1657 -44.6287 4.8469 0.8185
23.1327 -42.6596 4.7202 0.8228
24.7137 -41.9113 4.7326 0.8224
27.1637 -42.5014 4.9062 0.8165
31.2939 -41.9871 5.0935 0.8102
60.0819 -64.7253 8.5900 0.7012
60.0061 -55.9888 7.9828 0.7190
59.3883 -51.5513 7.6493 0.7290
58.0696 -43.5127 7.0581 0.7470
57.9173 -40.2354 6.8595 0.7532
61.1023 -36.2418 6.9101 0.7516
73.3741 -36.6778 7.9789 0.7192
79.7252 -36.3364 8.5221 0.7032
60.1903 4.5235 5.8711 0.7846
38.2130 11.4214 3.8794 0.8519
38.1977 16.0664 4.0307 0.8466
38.4468 19.5275 4.1943 0.8409
37.7756 20.9252 4.2004 0.8407
36.9660 22.2472 4.1965 0.8408
15.8376 10.3236 1.8389 0.9268
38.5315 27.1357 4.5840 0.8275
38.5697 29.2889 4.7107 0.8231
38.2936 31.3087 4.8112 0.8197
9.1783 11.5852 1.4376 0.9423
8.5233 11.5900 1.3994 0.9438
7.9015 11.5946 1.3648 0.9452
7.3090 11.5991 1.3335 0.9464
6.2563 11.7159 1.2919 0.9480
5.1684 11.6150 1.2366 0.9502
4.7321 11.7532 1.2324 0.9504
3.3198 11.7637 1.1889 0.9521
2.4323 11.8023 1.1721 0.9527
1.9942 11.8055 1.1646 0.9530
1.5611 11.8088 1.1586 0.9533
1.1318 11.8119 1.1542 0.9534
0.2804 11.8183 1.1499 0.9536
-1.4253 11.8310 1.1591 0.9532
-1.8588 11.8342 1.1652 0.9530
-3.9760 12.8800 1.3111 0.9473
-4.4366 12.7314 1.3114 0.9473
-45.9208 55.1480 6.9803 0.7495
-46.5487 45.0221 6.2990 0.7709
-46.6143 36.2536 5.7439 0.7887
-49.1523 35.4711 5.8959 0.7838
-85.5209 48.6713 9.5712 0.6734
-85.5505 44.7015 9.3888 0.6785
-74.6625 35.6612 8.0481 0.7171
-65.0469 28.2474 6.8978 0.7520
-64.4202 25.2672 6.7308 0.7572
-64.4785 22.6549 6.6475 0.7598
-67.6253 15.8461 6.7559 0.7564
-70.0890 13.7899 6.9481 0.7505
-82.6624 10.1736 8.1010 0.7155
-91.8644 -36.7126 9.6226 0.6719
-68.1979 -42.7297 7.8280 0.7237
-63.2414 -42.8603 7.4309 0.7356
-57.6282 -42.1522 6.9448 0.7506
-34.8063 -31.7325 4.5813 0.8275
-28.1913 -31.8942 4.1404 0.8428
-25.7634 -33.7469 4.1297 0.8431
-28.0172 -39.5671 4.7158 0.8230
-25.2730 -41.7507 4.7470 0.8219
-16.2817 -31.8537 3.4796 0.8661
-16.7974 -39.6507 4.1885 0.8411
-15.8458 -41.4914 4.3201 0.8365
-9.6539 -31.9998 3.2511 0.8743
-7.4863 -33.2909 3.3190 0.8719
-3.3495 -43.0890 3.5400 0.8408
-1.8530 -44.4364 3.6429 0.8365
-0.2518 -43.6245 3.5733 0.8394
1.2650 -41.9673 3.4390 0.8449
2.7766 -41.9849 3.4464 0.8446
4.5505 -44.4841 3.6626 0.8357
6.1727 -44.4962 3.6795 0.8350
7.3262 -41.7404 3.4711 0.8436
11.1607 -44.5333 3.7604 0.8317
12.0720 -41.7519 3.5599 0.8399
13.7222 -41.7767 3.6017 0.8382
16.4355 -44.5725 3.8911 0.8264
17.5360 -42.7616 3.7856 0.8307
19.1007 -42.1954 3.7938 0.8304
23.1284 -42.6517 3.9741 0.8231
31.2849 -41.9751 4.2880 0.8105
33.7479 -42.0415 4.4158 0.8054
58.3274 -67.5439 7.3097 0.6990
60.0812 -64.7245 7.2335 0.7016
59.3990 -59.5517 6.8894 0.7135
60.0171 -55.9989 6.7234 0.7193
60.0613 -48.4670 6.3215 0.7336
57.9563 -43.4279 5.9319 0.7478
57.9798 -40.2788 5.7825 0.7533
73.3735 -36.6774 6.7189 0.7195
79.7254 -36.3365 7.1764 0.7035
46.6726 10.3697 3.9161 0.8254
39.7736 10.3481 3.3662 0.8479
38.2088 11.4201 3.2664 0.8521
38.1738 12.9196 3.3010 0.8507
38.1853 14.4709 3.3447 0.8488
38.1066 16.0280 3.3861 0.8471
37.8871 20.9870 3.5476 0.8404
37.0658 22.3073 3.5434 0.8406
38.3289 26.9930 3.8398 0.8285
38.3449 29.1182 3.9437 0.8243
38.3114 31.3233 4.0534 0.8199
38.3110 33.6884 4.1786 0.8149
38.6179 42.1409 4.6818 0.7950
9.8697 11.5784 1.2462 0.9408
9.4339 12.8283 1.3043 0.9381
5.1683 11.6150 1.0413 0.9503
4.2613 11.7887 1.0267 0.9509
3.7898 11.7921 1.0145 0.9515
3.3198 11.7637 1.0012 0.9521
2.4323 11.8022 0.9870 0.9528
1.5611 11.8087 0.9756 0.9533
0.2804 11.8183 0.9683 0.9537
-0.1440 11.8214 0.9683 0.9537
-0.5690 11.8246 0.9697 0.9536
-0.9957 11.8278 0.9722 0.9535
-1.4253 11.8310 0.9761 0.9533
-3.7552 13.9195 1.1809 0.9438
-4.2981 13.9236 1.1936 0.9432
-44.8642 73.0540 7.0220 0.7089
-45.7897 59.1884 6.1294 0.7406
-46.5243 48.3494 5.4959 0.7639
-46.5724 41.9160 5.1322 0.7777
-46.5942 39.0011 4.9770 0.7836
-46.6147 36.2539 4.8369 0.7890
-49.1521 35.4710 4.9648 0.7841
-53.1118 35.5005 5.2326 0.7738
-68.1562 35.6126 6.2987 0.7345
-66.0938 25.9237 5.8151 0.7521
-40.8410 6.5223 3.3876 0.8471
-82.6362 10.1704 6.8196 0.7159
-71.3418 -41.2095 6.7483 0.7185
-68.8137 -43.1155 6.6514 0.7219
-57.6189 -42.1454 5.8472 0.7509
-52.6959 -41.5283 5.4955 0.7639
-36.9941 -31.3710 3.9729 0.8231
-34.2594 -33.5636 3.9284 0.8249
-34.9510 -36.7912 4.1565 0.8157
-28.1881 -31.8906 3.4862 0.8430
-26.1653 -31.8357 3.3753 0.8476
-26.7060 -40.7412 3.9901 0.8224
-17.7766 -31.8982 2.9911 0.8637
-15.6752 -33.5905 3.0362 0.8618
-15.8458 -41.4915 3.6379 0.8367
-8.3042 -31.5847 2.6750 0.8772
-7.5378 -40.2142 3.3512 0.8486
-5.0618 -44.4125 3.6613 0.8358
-3.3495 -43.0891 2.8778 0.8409
1.2656 -41.9876 2.7971 0.8450
2.7760 -41.9761 2.8012 0.8448
6.1727 -44.4962 2.9912 0.8352
8.8797 -41.7318 2.8410 0.8428
11.1607 -44.5333 3.0570 0.8319
12.0767 -41.7683 2.8951 0.8400
13.7122 -41.7461 2.9259 0.8385
16.4355 -44.5726 3.1633 0.8266
22.1658 -44.6288 3.3180 0.8189
27.1449 -42.4721 3.3564 0.8170
30.3082 -43.8674 3.5504 0.8076
58.3275 -67.5440 5.9424 0.6992
57.9310 -46.7479 4.9568 0.7420
58.1402 -37.3693 4.6021 0.7580
66.4189 -36.2374 5.0380 0.7384
73.3728 -36.6771 5.4621 0.7198
79.6695 -36.3110 5.8299 0.7040
46.6749 10.3702 3.1837 0.8256
40.0467 10.4192 2.7554 0.8471
38.2238 12.9365 2.6870 0.8506
38.2354 14.4899 2.7227 0.8488
38.1972 16.0662 2.7593 0.8469
38.2221 19.4134 2.8546 0.8421
38.3202 23.0622 2.9781 0.8359
38.3287 26.9929 3.1216 0.8287
38.3446 29.1179 3.2060 0.8245
38.2376 33.6238 3.3905 0.8154
38.0079 35.9217 3.4823 0.8109
37.1416 37.7175 3.5248 0.8088
9.8696 11.5784 1.0131 0.9408
6.8238 11.7436 0.9044 0.9470
4.7449 11.7850 0.8459 0.9503
4.2613 11.7886 0.8347 0.9510
3.7898 11.7921 0.8248 0.9516
3.3198 11.7637 0.8139 0.9522
2.8767 11.7989 0.8087 0.9525
2.4323 11.8022 0.8024 0.9528
1.9942 11.8055 0.7972 0.9531
1.1319 11.8119 0.7901 0.9535
-0.1440 11.8214 0.7872 0.9537
-0.5690 11.8246 0.7883 0.9537
-1.8588 11.8342 0.7977 0.9531
-2.2975 11.8374 0.8029 0.9528
-3.2231 13.9155 0.9511 0.9443
-45.6302 80.6579 6.1706 0.6897
-11.3461 18.4753 1.4437 0.9168
-45.1963 67.9944 5.4365 0.7209
-45.8511 59.2677 4.9896 0.7405
-46.1648 55.4409 4.8039 0.7488
-46.4981 51.9308 4.6415 0.7562
-46.5497 45.0231 4.3122 0.7713
-46.7300 36.3436 3.9419 0.7887
-75.7559 54.6698 6.2207 0.6876
-73.8635 28.9711 5.2831 0.7276
-81.9712 25.5344 5.7169 0.7088
-40.8368 6.5216 2.7535 0.8472
-91.7644 -36.6727 6.5802 0.6729
-77.5467 -41.1543 5.8457 0.7033
-68.8138 -43.1156 5.4072 0.7221
-57.6096 -42.1386 4.7527 0.7512
-52.7375 -41.5612 4.4710 0.7640
-36.9941 -31.3710 3.2298 0.8233
-34.7964 -31.7235 3.1354 0.8280
-34.2598 -33.5640 3.1936 0.8251
-34.9514 -36.7916 3.3791 0.8159
-26.1653 -31.8357 2.7439 0.8477
-25.7641 -33.7478 2.8272 0.8435
-28.0173 -39.5672 3.2283 0.8234
-17.7766 -31.8982 2.4316 0.8638
-16.2779 -31.8462 2.3815 0.8664
-15.6754 -33.5911 2.4683 0.8619
-9.5972 -31.8120 2.2126 0.8753
-8.3042 -31.5847 2.1746 0.8773
-7.4868 -33.2933 2.2723 0.8721
-7.5381 -40.2160 2.7245 0.8487
-4.5094 -39.5656 2.6516 0.8525
-3.3495 -43.0891 2.2170 0.8411
-0.2565 -44.4484 2.2801 0.8369
1.2998 -43.1237 2.2131 0.8413
4.4818 -43.8127 2.2592 0.8383
6.1727 -44.4962 2.3044 0.8353
