ply
format ascii 1.0
element vertex 1552
property float32 x
property float32 y
property float32 z
property float32 I
end_header
-67.9581 35.5092 2.7627 0.7357
-67.9893 32.4739 2.7148 0.7396
-64.8302 25.4281 2.5091 0.7567
-64.9858 22.8332 2.4818 0.7590
-69.2402 21.5686 2.6130 0.7481
-91.6475 -36.6259 3.5560 0.6737
-71.6065 -41.3624 2.9795 0.7182
-68.9758 -43.2171 2.9327 0.7220
-37.0583 -31.4255 1.7507 0.8233
-34.7752 -31.7042 1.6955 0.8283
-34.5617 -33.8597 1.7433 0.8239
-37.5734 -39.5517 1.9656 0.8038
-16.9902 -23.9943 1.0593 0.8890
-26.9985 -41.1875 1.7744 0.8211
-15.9795 -34.2425 1.3615 0.8596
-16.8078 -39.6753 1.5525 0.8416
-9.5016 -31.4951 1.1853 0.8766
-8.2825 -31.5023 1.1736 0.8778
-7.6986 -34.2352 1.2643 0.8690
-6.6840 -44.4099 1.6181 0.8355
-3.0987 -39.8621 0.8309 0.8522
4.0847 -39.9305 0.8341 0.8516
6.9792 -39.7634 0.8389 0.8508
8.5067 -39.9790 0.8494 0.8491
10.0289 -40.0174 0.8573 0.8478
11.5594 -39.9790 0.8648 0.8466
13.8024 -42.0206 0.9191 0.8378
16.4344 -40.0755 0.9001 0.8409
18.1255 -40.0411 0.9134 0.8387
7.7265 -15.5567 0.3610 0.9329
9.6556 -16.3746 0.3950 0.9268
10.4685 -16.3794 0.4040 0.9252
29.9761 -40.2192 1.0424 0.8182
57.5579 -62.0062 1.7581 0.7128
57.5833 -57.7313 1.6945 0.7216
57.6070 -53.7502 1.6373 0.7296
57.1751 -49.6302 1.5733 0.7387
57.8085 -43.3171 1.5011 0.7490
57.8098 -37.1570 1.4281 0.7596
61.0508 -36.2112 1.4751 0.7528
63.4810 -31.7324 1.4748 0.7528
95.5656 -27.8975 2.0688 0.6715
70.8232 -10.0102 1.4864 0.7511
39.2345 10.2079 0.8425 0.8503
37.8437 11.3110 0.8208 0.8538
37.8526 12.8108 0.8304 0.8522
37.8618 14.3483 0.8414 0.8504
37.8408 19.2197 0.8820 0.8438
37.9328 22.8291 0.9200 0.8377
37.9109 30.9959 1.0176 0.8221
38.0382 38.6280 1.1266 0.8050
38.0497 44.6372 1.2189 0.7908
38.0509 48.0293 1.2733 0.7826
37.9317 51.5798 1.3305 0.7740
9.4853 13.9187 0.3500 0.9348
7.3844 11.7188 0.2878 0.9461
6.8298 11.7540 0.2825 0.9471
6.2784 11.7573 0.2770 0.9481
5.7474 11.7605 0.2720 0.9490
1.8347 4.5569 0.1021 0.9805
3.7814 11.7662 0.2568 0.9518
1.9947 11.8088 0.2489 0.9532
1.5614 11.8113 0.2476 0.9535
1.1320 11.8139 0.2466 0.9536
0.7054 11.8164 0.2460 0.9537
-0.1436 11.7896 0.2450 0.9539
-0.5690 11.8240 0.2460 0.9537
-1.4251 11.8291 0.2476 0.9534
-1.8584 11.8317 0.2489 0.9532
-2.7417 11.8369 0.2525 0.9526
-3.7423 13.8716 0.2986 0.9441
-5.0596 11.7334 0.2655 0.9502
-47.0062 83.0902 1.9838 0.6825
-47.3332 65.9455 1.6868 0.7227
-46.3659 59.9332 1.5746 0.7385
-46.9237 52.4062 1.4618 0.7547
-46.9453 48.7870 1.4070 0.7627
-46.9841 42.2865 1.3136 0.7765
-47.0016 39.3422 1.2737 0.7825
-62.3348 35.4758 1.4905 0.7505
-67.9583 35.5092 1.5934 0.7358
-73.9081 32.0955 1.6744 0.7244
-80.5117 28.2883 1.7734 0.7108
-89.1087 24.2854 1.9193 0.6911
-86.0364 -17.5010 1.8245 0.7038
-78.1476 -41.4732 1.8385 0.7019
-62.7401 -39.3101 1.5386 0.7436
-35.1874 -23.8474 0.8833 0.8436
-36.9477 -31.3316 1.0067 0.8238
-34.4408 -31.3993 0.9685 0.8299
-34.4548 -33.7550 1.0023 0.8245
-27.7425 -31.3864 0.8705 0.8457
-25.9321 -31.5519 0.8487 0.8493
-17.4691 -26.6498 0.6622 0.8803
-17.5254 -31.4473 0.7481 0.8659
-16.0784 -31.4559 0.7341 0.8682
-16.8078 -39.6752 0.8954 0.8416
-8.2825 -31.5023 0.6769 0.8778
-7.6989 -34.2365 0.7292 0.8690
-1.8531 -44.4385 0.2464 0.8370
2.8523 -43.1303 0.2395 0.8412
9.4699 -44.5059 0.2521 0.8336
11.1563 -44.5160 0.2543 0.8323
13.8023 -42.0205 0.2451 0.8378
8.8646 -16.3475 0.1030 0.9283
9.6555 -16.3746 0.1053 0.9268
10.4685 -16.3794 0.1077 0.9252
57.5000 -71.6307 0.5089 0.6925
57.5014 -57.6491 0.4512 0.7220
57.6494 -46.5206 0.4105 0.7436
57.7119 -43.2447 0.3996 0.7494
57.8445 -37.1792 0.3810 0.7595
61.0506 -36.2111 0.3933 0.7528
19.9934 -10.9082 0.1262 0.9129
19.9885 -9.9917 0.1238 0.9145
21.2198 -9.6714 0.1292 0.9109
94.0001 -31.1434 0.5487 0.6729
38.6171 0.1237 0.2140 0.8569
43.9821 9.7719 0.2496 0.8351
38.5252 10.0233 0.2206 0.8528
37.8207 15.9078 0.2273 0.8486
37.8304 17.5357 0.2310 0.8464
37.8404 19.2195 0.2352 0.8439
37.9217 21.0062 0.2402 0.8408
37.9324 22.8288 0.2453 0.8377
38.5438 25.1244 0.2549 0.8319
37.9350 26.7157 0.2571 0.8306
37.9476 28.8165 0.2640 0.8265
37.9246 33.3486 0.2798 0.8171
38.0216 35.9347 0.2899 0.8112
38.0504 48.0287 0.3395 0.7826
9.4853 13.9187 0.0933 0.9348
7.3844 11.7188 0.0768 0.9461
6.8298 11.7541 0.0753 0.9471
6.2784 11.7573 0.0739 0.9481
5.7474 11.7605 0.0725 0.9490
1.8345 4.5565 0.0272 0.9805
4.2637 11.7953 0.0695 0.9511
3.7815 11.7662 0.0685 0.9518
3.3303 11.8008 0.0679 0.9521
2.8779 11.8035 0.0673 0.9526
2.4331 11.8062 0.0668 0.9529
1.9947 11.8088 0.0664 0.9532
1.1321 11.8139 0.0658 0.9536
0.7054 11.8165 0.0656 0.9538
0.2804 11.8190 0.0655 0.9538
-1.4251 11.8291 0.0660 0.9535
-1.8584 11.8317 0.0664 0.9532
-2.2969 11.8343 0.0668 0.9529
-47.0077 83.0928 0.5290 0.6826
-46.0573 74.9968 0.4876 0.7032
-46.3676 59.9355 0.4199 0.7385
-46.1068 55.3713 0.3993 0.7496
-50.4821 56.3803 0.4193 0.7388
-47.3721 39.6523 0.3423 0.7811
-47.6439 37.0544 0.3344 0.7855
-53.5530 35.7954 0.3569 0.7729
-63.4505 36.1107 0.4045 0.7467
-81.9568 35.5907 0.4951 0.6995
-82.2419 22.4139 0.4723 0.7111
-74.7419 11.9363 0.4194 0.7388
-54.5325 -15.2383 0.3137 0.7973
-91.8322 -36.6997 0.5479 0.6733
-63.0205 -39.4858 0.4121 0.7427
-54.0132 -39.5080 0.3708 0.7651
-34.1770 -31.1588 0.2562 0.8311
-31.8191 -31.1728 0.2468 0.8368
-27.5760 -31.1980 0.2307 0.8466
-25.6507 -31.2095 0.2238 0.8508
-22.1142 -31.2306 0.2120 0.8581
-20.4781 -31.2403 0.2070 0.8612
-18.9163 -31.2496 0.2024 0.8641
-15.9819 -31.2671 0.1946 0.8690
-14.5948 -31.2753 0.1912 0.8711
-9.4446 -31.3060 0.1812 0.8774
-8.2825 -31.5022 0.1805 0.8778
-6.6840 -44.4097 0.2488 0.8356
7.7262 -15.5561 -0.1684 0.9329
5.5709 -10.2734 -0.1133 0.9543
6.8717 -9.9460 -0.1172 0.9528
7.4098 -9.9418 -0.1202 0.9516
38.9282 -48.4948 -0.6030 0.7798
29.5578 -31.8421 -0.4213 0.8405
36.7565 -31.9060 -0.4720 0.8231
44.6573 -33.4626 -0.5411 0.7999
44.6764 -31.0368 -0.5275 0.8044
32.4472 -20.8554 -0.3740 0.8570
18.8494 -11.1802 -0.2125 0.9161
19.1594 -9.5773 -0.2077 0.9179
20.8947 -9.5232 -0.2227 0.9122
23.0014 -9.5016 -0.2413 0.9052
93.9993 -31.1431 -0.9602 0.6729
94.0213 -27.4467 -0.9497 0.6758
42.4456 -10.7533 -0.4246 0.8393
71.6981 -7.5204 -0.6990 0.7495
38.6170 0.1237 -0.3745 0.8569
53.0339 9.7999 -0.5230 0.8059
43.9824 9.7720 -0.4369 0.8351
38.5249 10.0232 -0.3860 0.8528
37.8204 15.9077 -0.3978 0.8486
38.0317 19.3167 -0.4136 0.8431
36.5669 23.8358 -0.4232 0.8398
38.1391 28.9619 -0.4644 0.8257
38.1162 33.5171 -0.4922 0.8162
38.0215 35.9345 -0.5073 0.8112
29.7566 32.4712 -0.4271 0.8385
22.0348 25.8497 -0.3294 0.8730
20.4848 25.8567 -0.3199 0.8764
9.4853 13.9187 -0.1633 0.9348
6.8299 11.7541 -0.1318 0.9471
5.2345 11.7636 -0.1248 0.9498
3.7814 11.7662 -0.1198 0.9518
2.8779 11.8036 -0.1178 0.9526
1.9947 11.8088 -0.1161 0.9532
1.5614 11.8114 -0.1155 0.9535
1.1320 11.8139 -0.1151 0.9536
-0.1436 11.7896 -0.1143 0.9539
-0.9956 11.8266 -0.1151 0.9536
-1.4251 11.8292 -0.1155 0.9535
-1.8584 11.8317 -0.1161 0.9532
-2.2969 11.8343 -0.1169 0.9529
-2.7417 11.8370 -0.1178 0.9526
-3.7423 13.8717 -0.1393 0.9441
-4.2831 13.8749 -0.1408 0.9436
-4.8362 13.8782 -0.1425 0.9429
-37.6086 72.4282 -0.7913 0.7215
-37.3366 56.1701 -0.6540 0.7635
-27.5151 38.3346 -0.4576 0.8280
-28.1432 36.3783 -0.4460 0.8319
-31.0398 37.2768 -0.4704 0.8236
-47.5237 49.3880 -0.6646 0.7602
-47.3726 39.6527 -0.5990 0.7810
-47.6444 37.0548 -0.5853 0.7855
-54.3625 39.2311 -0.6501 0.7648
-62.3353 35.4760 -0.6955 0.7506
-67.9588 35.5095 -0.7435 0.7359
-64.5168 28.0172 -0.6820 0.7548
-71.4371 25.0999 -0.7342 0.7387
-71.6355 22.3148 -0.7275 0.7407
-66.3386 18.0797 -0.6667 0.7595
-67.8737 15.9044 -0.6760 0.7566
-70.2532 13.8222 -0.6943 0.7510
-74.7426 11.9364 -0.7339 0.7388
-69.8592 -6.5132 -0.6803 0.7553
-60.6356 -10.0825 -0.5960 0.7820
-86.5530 -17.6062 -0.8565 0.7024
-81.9364 -19.7545 -0.8173 0.7138
-54.5263 -15.2366 -0.5490 0.7973
-49.4148 -19.7481 -0.5160 0.8083
-44.8625 -21.7820 -0.4836 0.8191
-44.7943 -23.7724 -0.4917 0.8164
-44.8454 -25.9042 -0.5022 0.8129
-34.9299 -23.6729 -0.4092 0.8447
-34.9411 -25.5577 -0.4198 0.8410
-34.9529 -27.5455 -0.4315 0.8369
-27.6513 -23.4483 -0.3515 0.8650
-26.4375 -24.1028 -0.3469 0.8667
-25.6506 -31.2094 -0.3917 0.8508
-16.7576 -23.6658 -0.2812 0.8905
-16.7690 -25.5819 -0.2966 0.8848
-17.4201 -31.2585 -0.3470 0.8666
-13.2527 -31.2833 -0.3294 0.8729
-8.9974 -23.5594 -0.2445 0.9040
-8.7173 -33.1561 -0.3324 0.8718
-8.7516 -38.9180 -0.3868 0.8525
-5.6174 -72.2626 -1.8076 0.7483
-0.1156 -20.0310 -0.4996 0.9230
2.7902 -20.1131 -0.5064 0.9220
6.6171 -20.1455 -0.5288 0.9187
7.4311 -20.1528 -0.5357 0.9176
8.2436 -20.1022 -0.5418 0.9167
9.1286 -20.1660 -0.5520 0.9152
5.4397 -10.0316 -0.2846 0.9554
5.8304 -9.8875 -0.2863 0.9551
6.3069 -9.8680 -0.2921 0.9542
7.3668 -9.8841 -0.3074 0.9519
17.5937 -20.3738 -0.6713 0.8979
23.6107 -20.4950 -0.7797 0.8824
25.3060 -20.4209 -0.8109 0.8780
17.8979 -11.5037 -0.5306 0.9184
17.9547 -9.7959 -0.5101 0.9214
21.1296 -7.0005 -0.5551 0.9148
22.0362 -6.4328 -0.5725 0.9122
66.0905 -14.2401 -1.6860 0.7630
41.5168 -7.3969 -1.0517 0.8447
73.6593 -5.0612 -1.8413 0.7442
73.7830 -2.4135 -1.8410 0.7442
38.6292 0.1238 -0.9634 0.8568
73.5721 5.5292 -1.8399 0.7444
66.7784 9.8755 -1.6835 0.7633
38.5246 10.0231 -0.9927 0.8528
37.8427 11.3107 -0.9850 0.8538
37.8516 12.8105 -0.9966 0.8522
38.0522 14.4205 -1.0148 0.8497
29.3033 13.5830 -0.8055 0.8788
29.4671 14.9666 -0.8242 0.8761
29.5063 16.3446 -0.8412 0.8737
24.5163 17.2655 -0.7478 0.8869
23.7724 18.0522 -0.7444 0.8874
23.8189 19.4743 -0.7673 0.8842
29.3836 25.8382 -0.9758 0.8551
29.3259 27.7162 -1.0063 0.8509
29.4341 29.8905 -1.0462 0.8455
24.2975 26.5141 -0.8969 0.8660
20.4854 25.8574 -0.8227 0.8763
9.4853 13.9188 -0.4200 0.9348
7.3845 11.7189 -0.3454 0.9461
5.7474 11.7605 -0.3264 0.9490
4.2637 11.7953 -0.3128 0.9511
3.7815 11.7663 -0.3082 0.9518
2.8779 11.8036 -0.3030 0.9526
2.4331 11.8062 -0.3006 0.9529
1.9947 11.8088 -0.2987 0.9532
0.7054 11.8165 -0.2952 0.9537
0.2804 11.8190 -0.2948 0.9538
-0.1436 11.7896 -0.2940 0.9539
-4.2831 13.8749 -0.3621 0.9436
-4.8362 13.8782 -0.3665 0.9429
-23.8166 61.1832 -1.6373 0.7690
-5.0598 11.7337 -0.3186 0.9502
-23.1770 48.8466 -1.3483 0.8055
-23.0897 37.5978 -1.1003 0.8382
-27.2723 37.9962 -1.1664 0.8293
-31.8589 35.5812 -1.1911 0.8261
-19.8975 20.6781 -0.7156 0.8915
-20.7601 20.0792 -0.7203 0.8909
-23.1691 20.8526 -0.7774 0.8827
-49.0496 35.3970 -1.5085 0.7850
-58.4570 27.9210 -1.6156 0.7717
-61.0971 21.4667 -1.6150 0.7717
-62.4727 17.0261 -1.6148 0.7718
-38.7864 9.0885 -0.9935 0.8527
-64.2730 7.9103 -1.6150 0.7717
-64.5216 5.5986 -1.6151 0.7717
-47.5125 0.7007 -1.1850 0.8269
-70.7625 -1.4973 -1.7651 0.7534
-70.6770 -4.0373 -1.7654 0.7533
-70.5024 -6.5732 -1.7658 0.7533
-60.8745 -10.1222 -1.5390 0.7812
-69.4451 -14.1262 -1.7673 0.7531
-63.0875 -15.2102 -1.6184 0.7713
-49.4145 -19.7480 -1.3271 0.8082
-44.7947 -23.7727 -1.2647 0.8164
-34.9302 -23.6731 -1.0523 0.8446
-34.9415 -25.5580 -1.0796 0.8410
-34.9533 -27.5458 -1.1098 0.8369
-27.6512 -23.4483 -0.9041 0.8650
-26.4378 -24.1031 -0.8922 0.8666
-26.4486 -25.9114 -0.9234 0.8623
-45.7600 -51.7704 -1.7231 0.7585
-44.0370 -53.5803 -1.7296 0.7577
-16.7578 -23.6661 -0.7232 0.8904
-16.7692 -25.5822 -0.7628 0.8848
-34.3454 -61.6289 -1.7595 0.7540
-32.2095 -63.0149 -1.7649 0.7534
-30.0146 -64.3186 -1.7701 0.7528
-27.7639 -65.5374 -1.7750 0.7522
-8.9974 -23.5593 -0.6289 0.9040
-18.2742 -69.5055 -1.7923 0.7501
-15.7996 -70.2594 -1.7959 0.7497
-13.2921 -70.9136 -1.7993 0.7492
-10.7562 -71.4662 -1.8023 0.7489
0.6092 -20.2107 -0.8127 0.9222
1.3742 -20.7796 -0.8370 0.9200
2.8830 -20.7822 -0.8433 0.9194
3.5418 -20.1793 -0.8234 0.9213
5.9749 -20.6645 -0.8646 0.9175
6.8349 -20.8083 -0.8803 0.9161
7.4744 -20.2705 -0.8683 0.9171
8.2436 -20.1021 -0.8732 0.9167
9.2169 -20.3612 -0.8983 0.9144
5.2313 -10.5328 -0.4727 0.9540
6.2523 -9.7826 -0.4666 0.9546
7.2919 -9.7836 -0.4904 0.9523
7.8401 -9.7668 -0.5034 0.9511
17.8944 -20.7219 -1.1004 0.8962
20.1515 -20.2033 -1.1469 0.8921
27.4531 -20.5712 -1.3788 0.8717
17.8191 -11.4532 -0.8514 0.9187
17.8264 -9.7259 -0.8162 0.9219
18.8188 -9.4070 -0.8456 0.9192
20.8273 -9.4925 -0.9199 0.9124
22.8302 -9.4309 -0.9928 0.9058
20.2225 -7.5158 -0.8671 0.9173
20.2303 -6.7025 -0.8566 0.9182
44.4248 -9.5719 -1.8265 0.8337
45.4085 -1.4854 -1.8260 0.8337
45.2888 3.4036 -1.8254 0.8338
41.3137 4.6012 -1.6707 0.8467
40.8624 7.5508 -1.6701 0.8467
35.7905 13.5634 -1.5383 0.8579
29.4202 12.3744 -1.2828 0.8801
29.3506 16.2582 -1.3485 0.8743
23.6540 16.6583 -1.1628 0.8906
14.6018 11.0883 -0.7369 0.9292
29.4109 25.8622 -1.5741 0.8549
23.7865 27.9046 -1.4737 0.8635
23.7418 29.9678 -1.5366 0.8581
19.9939 27.1878 -1.3564 0.8736
6.8299 11.7541 -0.5464 0.9470
5.7474 11.7606 -0.5261 0.9489
1.8340 4.5552 -0.1974 0.9805
3.7815 11.7663 -0.4967 0.9517
3.3303 11.8009 -0.4928 0.9521
1.9947 11.8088 -0.4813 0.9532
1.1321 11.8140 -0.4770 0.9536
0.7054 11.8165 -0.4758 0.9537
-0.5690 11.8241 -0.4758 0.9537
-0.9956 11.8266 -0.4770 0.9536
-1.4251 11.8292 -0.4789 0.9534
-4.2831 13.8750 -0.5836 0.9435
-4.8362 13.8783 -0.5907 0.9429
-16.1425 41.4688 -1.7885 0.8368
-21.8788 38.6738 -1.7859 0.8370
-22.6055 34.0083 -1.6413 0.8492
-15.9855 22.2712 -1.1018 0.8961
-15.9929 20.6726 -1.0505 0.9007
-16.0062 19.2224 -1.0054 0.9047
-16.4726 18.3972 -0.9925 0.9059
-19.7756 20.5514 -1.1463 0.8921
-23.1790 18.0271 -1.1802 0.8891
-23.2841 14.3817 -1.1000 0.8962
-25.6939 13.4254 -1.1652 0.8904
-36.5921 17.4776 -1.6299 0.8502
-37.1577 16.1362 -1.6282 0.8503
-37.7101 14.7909 -1.6281 0.8503
-38.2145 13.4269 -1.6280 0.8503
-38.6700 12.0459 -1.6279 0.8503
-39.0765 10.6498 -1.6278 0.8503
-39.4333 9.2401 -1.6278 0.8503
-39.7398 7.8187 -1.6278 0.8503
-41.7557 5.1391 -1.6909 0.8450
-44.0831 3.8252 -1.7784 0.8377
-44.1953 2.2404 -1.7786 0.8377
-44.2513 0.6526 -1.7787 0.8376
-44.2512 -0.9364 -1.7789 0.8376
-44.1945 -2.5245 -1.7792 0.8376
-44.0816 -4.1099 -1.7794 0.8376
-43.6875 -7.2644 -1.7800 0.8375
-43.0709 -10.3842 -1.7807 0.8375
-42.2340 -13.4537 -1.7815 0.8374
-37.1435 -16.4138 -1.6321 0.8500
-36.5411 -17.7418 -1.6326 0.8499
-35.8917 -19.0479 -1.6331 0.8499
-35.1961 -20.3305 -1.6336 0.8498
-34.7720 -21.7865 -1.6492 0.8485
-34.0037 -23.0452 -1.6510 0.8484
-32.3161 -25.4675 -1.6537 0.8481
-26.4489 -25.9117 -1.4882 0.8622
-27.5092 -31.1225 -1.6695 0.8468
-16.7580 -23.6664 -1.1655 0.8904
-16.7695 -25.5826 -1.2294 0.8847
-16.7823 -27.7242 -1.3025 0.8783
-17.8507 -38.2524 -1.6966 0.8445
-16.4919 -38.9339 -1.6994 0.8443
-8.9974 -23.5593 -1.0136 0.9040
-10.8134 -41.1292 -1.7092 0.8435
-7.8530 -41.8956 -1.7132 0.8431
-6.3504 -42.1930 -1.7149 0.8430
-2.3657 -30.4329 -1.6930 0.8849
-1.2728 -30.5236 -1.6944 0.8848
1.3381 -20.2344 -1.1247 0.9220
3.5417 -20.1784 -1.1363 0.9212
5.8616 -20.2729 -1.1705 0.9189
4.0549 -9.8879 -0.5927 0.9581
4.4114 -9.7451 -0.5933 0.9581
4.8353 -9.7354 -0.6029 0.9574
3.9435 -6.6877 -0.4306 0.9694
4.1474 -6.4891 -0.4271 0.9696
4.4783 -6.4818 -0.4370 0.9689
4.8369 -6.4897 -0.4489 0.9681
21.9306 -20.4624 -1.6636 0.8868
23.3500 -18.8425 -1.6642 0.8867
17.8263 -9.7258 -1.1263 0.9219
18.8440 -9.4196 -1.1685 0.9191
22.8501 -9.4391 -1.3712 0.9057
19.9433 -7.4120 -1.1801 0.9183
19.9492 -6.6094 -1.1656 0.9193
21.2550 -6.2048 -1.2281 0.9151
31.8037 -8.0573 -1.8197 0.8768
32.2995 -5.7546 -1.8197 0.8768
32.7849 -1.0724 -1.8194 0.8769
32.1644 5.9435 -1.8142 0.8772
31.3936 6.9750 -1.7837 0.8791
30.6171 7.9658 -1.7547 0.8810
29.3735 11.1316 -1.7422 0.8818
29.2705 12.3115 -1.7612 0.8805
29.2663 13.5659 -1.7891 0.8788
29.1060 14.7832 -1.8106 0.8774
25.3034 20.6880 -1.8128 0.8773
23.7403 22.4373 -1.8118 0.8773
15.3023 19.3152 -1.3668 0.9060
9.3721 13.7526 -0.9231 0.9355
7.3845 11.7189 -0.7682 0.9460
5.7475 11.7606 -0.7260 0.9489
5.2345 11.7636 -0.7141 0.9497
1.8339 4.5548 -0.2723 0.9805
4.2522 11.7635 -0.6938 0.9511
3.3213 11.7690 -0.6783 0.9522
0.7054 11.8165 -0.6566 0.9537
-1.8534 11.7998 -0.6625 0.9533
-10.7304 27.5657 -1.6407 0.8882
-14.8787 28.6540 -1.7907 0.8787
-15.8936 28.0943 -1.7903 0.8787
-16.8876 27.4987 -1.7898 0.8787
-15.9832 22.2680 -1.5203 0.8960
-15.9880 20.6663 -1.4492 0.9006
-15.9886 19.2013 -1.3858 0.9047
-16.3846 18.2989 -1.3623 0.9063
-19.7610 20.5362 -1.5807 0.8921
-20.3540 19.6865 -1.5706 0.8928
-22.6203 20.3587 -1.6879 0.8852
-24.0145 17.3302 -1.6425 0.8881
-24.6179 16.4549 -1.6423 0.8881
-29.9591 11.7507 -1.7849 0.8790
-32.1413 1.6294 -1.7850 0.8790
-32.1811 0.4746 -1.7851 0.8790
-32.1800 -0.6809 -1.7852 0.8790
-31.7650 -5.2819 -1.7860 0.8790
-31.3132 -7.5495 -1.7865 0.8789
-31.0270 -8.6700 -1.7868 0.8789
-30.3357 -10.8776 -1.7874 0.8789
-29.9314 -11.9618 -1.7878 0.8789
-29.4887 -13.0312 -1.7881 0.8788
-27.7536 -14.7290 -1.7427 0.8817
-25.5730 -14.7718 -1.6380 0.8884
-25.0323 -15.6841 -1.6384 0.8884
-23.8546 -17.4484 -1.6392 0.8883
-23.2191 -18.2983 -1.6397 0.8883
-22.5534 -19.1253 -1.6401 0.8883
-21.8585 -19.9282 -1.6406 0.8883
-21.1352 -20.7060 -1.6411 0.8882
-19.9283 -22.5458 -1.6690 0.8864
-16.5434 -25.2377 -1.6737 0.8861
-13.7667 -26.9333 -1.6777 0.8859
-12.8014 -27.4321 -1.6790 0.8858
-8.1031 -23.7417 -1.3914 0.9044
-7.7292 -29.3980 -1.6859 0.8853
-5.6095 -29.9268 -1.6888 0.8852
-4.5354 -30.1342 -1.6902 0.8851
-0.9971 -23.9104 -1.6934 0.9085
2.8113 -20.2658 -1.4478 0.9212
4.2701 -20.0683 -1.4519 0.9210
4.3744 -9.6635 -0.7506 0.9584
3.5975 -7.2433 -0.5723 0.9681
3.6523 -6.7354 -0.5422 0.9697
3.7933 -6.4329 -0.5285 0.9705
4.4170 -6.3931 -0.5499 0.9693
5.1607 -6.4290 -0.5834 0.9675
15.3306 -17.7531 -1.6598 0.9102
17.1580 -16.0093 -1.6606 0.9102
17.7240 -15.3852 -1.6608 0.9102
19.6100 -14.6941 -1.7340 0.9064
22.0629 -13.0862 -1.8152 0.9022
22.5204 -12.2868 -1.8153 0.9022
23.3468 -10.6408 -1.8156 0.9022
22.8110 -9.4230 -1.7465 0.9058
19.9240 -6.6011 -1.4852 0.9193
21.1783 -6.1824 -1.5612 0.9153
25.2632 -4.5010 -1.8158 0.9022
25.4080 -3.5912 -1.8158 0.9022
25.6438 -0.8388 -1.8156 0.9022
25.5802 1.9224 -1.8152 0.9022
25.3717 3.7521 -1.8149 0.9023
24.8129 6.4557 -1.8143 0.9023
23.9650 9.0819 -1.8135 0.9023
23.6198 9.9347 -1.8132 0.9024
22.8384 11.5999 -1.8126 0.9024
22.4033 12.4100 -1.8123 0.9024
15.6388 10.1940 -1.3210 0.9279
15.2740 12.4880 -1.3961 0.9239
14.0337 13.2635 -1.3664 0.9255
17.9395 18.2177 -1.8092 0.9026
15.8094 17.2517 -1.6558 0.9104
15.1763 17.8038 -1.6554 0.9105
9.3721 13.7526 -1.1777 0.9354
6.8299 11.7542 -0.9620 0.9469
6.2784 11.7574 -0.9432 0.9480
5.7475 11.7606 -0.9263 0.9489
5.2345 11.7637 -0.9111 0.9497
1.8337 4.5544 -0.3474 0.9805
4.2035 11.6288 -0.8750 0.9516
3.7382 11.6316 -0.8645 0.9522
3.2833 11.6343 -0.8554 0.9527
2.8372 11.6369 -0.8476 0.9531
2.3988 11.6395 -0.8409 0.9535
1.9666 11.6421 -0.8355 0.9538
1.1161 11.6472 -0.8280 0.9542
0.2765 11.6522 -0.8248 0.9543
-0.1420 11.6547 -0.8248 0.9543
-1.4050 11.6622 -0.8312 0.9540
-1.8322 11.6647 -0.8355 0.9538
-2.2644 11.6673 -0.8410 0.9535
-4.8362 13.8783 -1.0400 0.9428
-8.4205 21.6317 -1.6426 0.9111
-9.9465 20.9626 -1.6419 0.9112
-10.6903 20.5877 -1.6415 0.9112
-11.4201 20.1866 -1.6412 0.9112
-13.2561 21.5853 -1.7925 0.9034
-14.0197 21.0915 -1.7921 0.9034
-14.7650 20.5709 -1.7918 0.9034
-15.4913 20.0242 -1.7915 0.9035
-15.9888 19.2015 -1.7681 0.9047
-17.5457 18.2340 -1.7906 0.9035
-18.1863 17.5899 -1.7904 0.9035
-19.3963 16.2355 -1.7899 0.9035
-22.6348 10.8111 -1.7750 0.9043
-23.0782 9.0519 -1.7542 0.9054
-23.8458 8.3784 -1.7885 0.9036
-24.1306 7.5168 -1.7885 0.9036
-24.3846 6.6457 -1.7884 0.9036
-24.7984 4.8791 -1.7884 0.9036
-24.9579 3.9858 -1.7885 0.9036
-25.0855 3.0874 -1.7885 0.9036
-25.1810 2.1850 -1.7886 0.9036
-25.2443 1.2797 -1.7886 0.9036
-25.2740 -0.5348 -1.7888 0.9036
-25.2403 -1.4418 -1.7890 0.9036
-25.1743 -2.3471 -1.7891 0.9036
-25.0760 -3.2495 -1.7893 0.9036
-24.7834 -5.0413 -1.7896 0.9036
-24.5894 -5.9284 -1.7898 0.9035
-23.8191 -8.5409 -1.7906 0.9035
-23.5007 -9.3918 -1.7908 0.9035
-22.7738 -11.0573 -1.7914 0.9035
-22.3661 -11.8698 -1.7917 0.9034
-21.9295 -12.6672 -1.7921 0.9034
-21.4648 -13.4488 -1.7924 0.9034
-20.9723 -14.2135 -1.7928 0.9034
-18.6947 -14.7328 -1.6843 0.9090
-17.6996 -15.0093 -1.6422 0.9111
-15.9944 -16.8365 -1.6433 0.9111
-12.0436 -19.8959 -1.6457 0.9110
-11.3246 -20.3207 -1.6462 0.9109
-8.4087 -22.0127 -1.6674 0.9098
-7.6428 -22.3955 -1.6745 0.9095
-4.5812 -15.1853 -1.1224 0.9384
-4.3974 -23.4601 -1.6890 0.9087
-1.4864 -19.1212 -1.6512 0.9259
-0.7992 -19.1665 -1.6515 0.9259
0.5782 -19.1828 -1.6523 0.9258
1.2667 -19.1538 -1.6526 0.9258
1.9538 -19.1001 -1.6530 0.9258
2.6388 -19.0217 -1.6533 0.9258
3.3205 -18.9187 -1.6537 0.9258
3.9984 -18.7911 -1.6540 0.9258
5.3384 -18.4633 -1.6547 0.9257
5.9989 -18.2633 -1.6550 0.9257
3.7630 -10.2052 -0.9364 0.9573
3.4179 -6.8816 -0.6615 0.9696
3.5283 -6.5066 -0.6372 0.9707
5.4789 -6.3446 -0.7217 0.9669
15.3717 -14.3426 -1.8100 0.9191
15.8945 -13.7971 -1.8120 0.9190
17.2906 -12.0118 -1.8126 0.9189
17.7120 -11.3843 -1.8127 0.9189
18.1105 -10.7419 -1.8128 0.9189
18.4857 -10.0856 -1.8129 0.9189
18.8369 -9.4160 -1.8130 0.9189
19.1637 -8.7342 -1.8131 0.9189
19.9936 -6.6241 -1.8133 0.9189
20.5903 -4.4365 -1.8134 0.9189
20.8551 -2.9477 -1.8133 0.9189
20.9469 -2.1971 -1.8133 0.9189
21.0117 -1.4437 -1.8132 0.9189
21.0491 -0.6885 -1.8132 0.9189
20.9260 2.3306 -1.8127 0.9189
20.8272 3.0800 -1.8126 0.9189
20.7014 3.8253 -1.8124 0.9190
20.5489 4.5655 -1.8123 0.9190
20.3696 5.2997 -1.8121 0.9190
20.1641 6.0268 -1.8119 0.9190
19.9325 6.7460 -1.8117 0.9190
19.0844 8.8463 -1.8110 0.9190
18.7519 9.5243 -1.8107 0.9190
18.3952 10.1897 -1.8104 0.9190
18.0148 10.8418 -1.8102 0.9191
15.6205 10.1820 -1.6053 0.9279
15.7316 11.0789 -1.6565 0.9257
14.8910 12.1748 -1.6560 0.9257
13.4883 13.6975 -1.6550 0.9257
12.4660 14.6242 -1.6544 0.9258
9.3721 13.7526 -1.4328 0.9354
6.8299 11.7542 -1.1704 0.9469
5.7475 11.7606 -1.1270 0.9488
5.2345 11.7637 -1.1085 0.9496
3.7382 11.6316 -1.0518 0.9521
3.2832 11.6343 -1.0408 0.9526
0.6955 11.6497 -1.0047 0.9542
-0.1420 11.6547 -1.0035 0.9543
-0.5610 11.6572 -1.0048 0.9542
-1.4050 11.6622 -1.0113 0.9539
-2.2644 11.6673 -1.0232 0.9534
-3.1491 11.6726 -1.0409 0.9526
-4.2831 13.8750 -1.2502 0.9434
-4.8363 13.8783 -1.2653 0.9427
-5.0599 11.7340 -1.1001 0.9500
-9.3950 16.6070 -1.6427 0.9263
-10.5589 15.8851 -1.6422 0.9263
-13.8914 15.5144 -1.7929 0.9198
-14.4375 15.0039 -1.7926 0.9198
-15.4732 13.9262 -1.7922 0.9198
-15.9615 13.3604 -1.7920 0.9198
-17.3006 11.5639 -1.7916 0.9198
-18.4397 9.6350 -1.7912 0.9199
-18.7727 8.9665 -1.7911 0.9199
-19.3661 7.5959 -1.7909 0.9199
-19.6257 6.8956 -1.7909 0.9199
-20.0692 5.4696 -1.7908 0.9199
-20.2525 4.7456 -1.7908 0.9199
-20.4099 4.0156 -1.7908 0.9199
-20.5411 3.2804 -1.7909 0.9199
-20.6460 2.5410 -1.7909 0.9199
-20.7245 1.7983 -1.7909 0.9199
-20.8017 0.3068 -1.7911 0.9199
-20.8004 -0.4401 -1.7912 0.9199
-20.5290 -3.4136 -1.7917 0.9198
-20.3951 -4.1487 -1.7918 0.9198
-19.5997 -7.0279 -1.7926 0.9198
-19.3372 -7.7279 -1.7928 0.9198
-19.0498 -8.4182 -1.7931 0.9198
-18.4020 -9.7660 -1.7936 0.9198
-17.6592 -11.0645 -1.7941 0.9197
-16.8254 -12.3070 -1.7947 0.9197
-16.3756 -12.9052 -1.7950 0.9197
-15.9046 -13.4871 -1.7953 0.9197
-15.4130 -14.0519 -1.7956 0.9197
-13.9813 -14.7174 -1.7477 0.9217
-12.1325 -14.7618 -1.6451 0.9262
-11.5972 -15.1909 -1.6454 0.9261
-11.0467 -15.6006 -1.6457 0.9261
-10.4818 -15.9904 -1.6461 0.9261
-9.9031 -16.3598 -1.6464 0.9261
-8.0922 -17.3409 -1.6475 0.9260
-7.4662 -17.6241 -1.6478 0.9260
-6.8303 -17.8847 -1.6482 0.9260
-6.1852 -18.1224 -1.6486 0.9260
-4.5781 -15.1750 -1.3646 0.9383
-4.8713 -18.5277 -1.6493 0.9260
-4.2040 -18.6949 -1.6497 0.9260
-3.5310 -18.8379 -1.6501 0.9259
-2.8532 -18.9568 -1.6504 0.9259
-2.1713 -19.0513 -1.6508 0.9259
-1.2610 -16.2221 -1.6509 0.9367
-0.6780 -16.2600 -1.6512 0.9367
0.4905 -16.2728 -1.6519 0.9366
1.6573 -16.2016 -1.6525 0.9366
3.3913 -15.9380 -1.6533 0.9366
4.5275 -15.6589 -1.6539 0.9366
5.0876 -15.4889 -1.6542 0.9366
3.7759 -10.2401 -1.1074 0.9571
3.1862 -7.0387 -0.7839 0.9694
3.4221 -6.3107 -0.7284 0.9715
4.2998 -6.2234 -0.7675 0.9700
5.0014 -6.2305 -0.8107 0.9684
5.3764 -6.2259 -0.8346 0.9675
5.8337 -6.2846 -0.8700 0.9661
12.5989 -12.6313 -1.8102 0.9308
13.0455 -12.1721 -1.8103 0.9308
14.6581 -10.1831 -1.8110 0.9308
15.0153 -9.6510 -1.8111 0.9308
15.6708 -8.5498 -1.8113 0.9307
16.5012 -6.8164 -1.8115 0.9307
16.9485 -5.6153 -1.8116 0.9307
17.1394 -5.0033 -1.8116 0.9307
17.3081 -4.3849 -1.8116 0.9307
17.4544 -3.7608 -1.8116 0.9307
17.5780 -3.1318 -1.8116 0.9307
17.6789 -2.4988 -1.8116 0.9307
17.8118 -1.2239 -1.8115 0.9307
17.8436 -0.5837 -1.8115 0.9307
17.8523 0.0572 -1.8114 0.9307
17.7399 1.9758 -1.8111 0.9307
17.5500 3.2430 -1.8108 0.9308
17.4208 3.8705 -1.8107 0.9308
17.2692 4.4930 -1.8105 0.9308
16.1811 7.5005 -1.8096 0.9308
15.8995 8.0755 -1.8094 0.9308
14.2783 7.9092 -1.6562 0.9365
13.6704 8.9109 -1.6557 0.9365
13.3399 9.3946 -1.6555 0.9365
12.9921 9.8659 -1.6552 0.9365
12.6277 10.3244 -1.6550 0.9365
11.0131 12.0178 -1.6539 0.9366
10.5728 12.4033 -1.6537 0.9366
9.5887 12.1032 -1.5667 0.9398
9.1465 12.4374 -1.5665 0.9398
6.8299 11.7542 -1.3794 0.9468
6.2785 11.7575 -1.3524 0.9478
5.7475 11.7607 -1.3282 0.9487
5.2345 11.7637 -1.3064 0.9495
1.8333 4.5535 -0.4981 0.9805
4.2035 11.6289 -1.2546 0.9515
2.8372 11.6370 -1.2153 0.9530
1.5394 11.6447 -1.1918 0.9539
1.1161 11.6472 -1.1872 0.9540
0.6955 11.6497 -1.1841 0.9542
0.2765 11.6522 -1.1826 0.9542
-0.5610 11.6572 -1.1842 0.9542
-2.2644 11.6673 -1.2059 0.9533
-2.7030 11.6700 -1.2154 0.9530
-3.1491 11.6726 -1.2267 0.9526
-4.2733 13.8431 -1.4700 0.9434
-4.8251 13.8464 -1.4878 0.9428
-5.0599 11.7341 -1.2966 0.9499
-8.9655 13.4878 -1.6433 0.9370
-9.9076 12.8067 -1.6429 0.9370
-10.7984 12.0600 -1.6425 0.9370
-11.2231 11.6634 -1.6423 0.9370
-13.5548 11.3459 -1.7935 0.9314
-13.9522 10.8511 -1.7934 0.9314
-15.6605 8.1829 -1.7928 0.9314
-15.9434 7.6151 -1.7927 0.9314
-16.4476 6.4512 -1.7926 0.9314
-16.6681 5.8564 -1.7926 0.9314
-16.8673 5.2543 -1.7925 0.9314
-17.2006 4.0305 -1.7925 0.9314
-17.5347 2.1581 -1.7926 0.9314
-17.6012 1.5273 -1.7926 0.9314
-17.6453 0.8945 -1.7927 0.9314
-17.6654 -0.3738 -1.7928 0.9314
-17.5258 -2.2711 -1.7931 0.9314
-17.4342 -2.8990 -1.7932 0.9314
-17.3202 -3.5232 -1.7934 0.9314
-17.1839 -4.1430 -1.7935 0.9314
-17.0256 -4.7575 -1.7937 0.9314
-16.4204 -6.5623 -1.7942 0.9314
-16.1761 -7.1483 -1.7944 0.9314
-15.6253 -8.2924 -1.7948 0.9313
-13.9030 -10.9566 -1.7961 0.9313
-13.5028 -11.4503 -1.7963 0.9313
-12.6504 -12.3935 -1.7969 0.9313
-12.1993 -12.8417 -1.7972 0.9313
-11.2503 -13.6884 -1.7978 0.9312
-10.7535 -14.0858 -1.7981 0.9312
-10.2251 -14.4404 -1.7953 0.9313
-9.6407 -14.7073 -1.7843 0.9317
-8.9068 -14.7140 -1.7452 0.9332
-6.8760 -14.7347 -1.6498 0.9367
-4.5750 -15.1647 -1.6072 0.9383
-3.5671 -15.8626 -1.6497 0.9367
-2.4207 -16.0838 -1.6503 0.9367
0.4434 -14.7114 -1.7203 0.9424
2.0403 -14.7074 -1.7355 0.9420
2.5810 -14.7052 -1.7451 0.9416
4.2491 -14.6959 -1.7881 0.9403
3.1205 -6.2829 -0.8200 0.9721
3.6475 -6.1857 -0.8393 0.9715
3.9433 -6.1699 -0.8559 0.9709
4.2511 -6.1530 -0.8741 0.9703
4.5844 -6.1509 -0.8967 0.9696
4.9352 -6.1480 -0.9215 0.9687
5.7369 -6.1803 -0.9856 0.9666
10.9304 -10.9585 -1.8091 0.9396
11.3176 -10.5599 -1.8092 0.9396
11.6904 -10.1477 -1.8094 0.9396
12.0480 -9.7222 -1.8095 0.9396
13.0259 -8.3723 -1.8099 0.9395
13.3187 -7.8998 -1.8100 0.9395
13.5944 -7.4169 -1.8101 0.9395
14.0925 -6.4230 -1.8102 0.9395
14.3145 -5.9131 -1.8103 0.9395
14.5178 -5.3956 -1.8103 0.9395
14.7024 -4.8711 -1.8103 0.9395
14.8680 -4.3403 -1.8104 0.9395
15.3360 -2.1676 -1.8103 0.9395
15.4743 0.6055 -1.8101 0.9395
15.4419 1.1605 -1.8100 0.9395
15.3895 1.7140 -1.8099 0.9395
15.3171 2.2652 -1.8098 0.9395
15.1131 3.3578 -1.8095 0.9396
14.8310 4.4328 -1.8093 0.9396
14.6611 4.9619 -1.8091 0.9396
14.2647 5.9999 -1.8088 0.9396
11.8613 7.7317 -1.6549 0.9446
11.5747 8.1514 -1.6547 0.9446
11.2732 8.5606 -1.6545 0.9446
9.9266 10.0805 -1.6536 0.9446
8.3767 11.3907 -1.6526 0.9446
7.3161 11.6104 -1.6040 0.9462
6.2615 11.7257 -1.5537 0.9479
5.7319 11.7288 -1.5259 0.9488
5.2204 11.7319 -1.5009 0.9496
3.7382 11.6316 -1.4280 0.9520
2.8373 11.6370 -1.4000 0.9529
1.5394 11.6447 -1.3729 0.9538
-0.5610 11.6572 -1.3641 0.9541
-0.9816 11.6597 -1.3676 0.9540
-1.4050 11.6622 -1.3730 0.9538
-1.8322 11.6648 -1.3801 0.9536
-2.2645 11.6674 -1.3892 0.9533
-3.1491 11.6726 -1.4131 0.9525
-10.1048 9.7734 -1.6431 0.9450
-10.4483 9.4036 -1.6430 0.9450
-10.7783 9.0218 -1.6429 0.9450
-12.7627 8.5307 -1.7943 0.9400
-13.0600 8.0667 -1.7942 0.9401
-13.3404 7.5923 -1.7941 0.9401
-13.8496 6.6150 -1.7940 0.9401
-14.9419 3.5013 -1.7938 0.9401
-15.3280 0.7771 -1.7939 0.9401
-15.3466 0.2263 -1.7940 0.9401
-15.3245 -0.8754 -1.7941 0.9401
-15.2839 -1.4250 -1.7942 0.9401
-15.0449 -3.0604 -1.7945 0.9400
-14.4566 -5.1837 -1.7951 0.9400
-14.2625 -5.6998 -1.7952 0.9400
-13.3054 -7.6856 -1.7960 0.9400
-12.7226 -8.6225 -1.7964 0.9400
-12.0742 -9.5154 -1.7968 0.9400
-11.3634 -10.3599 -1.7973 0.9400
-10.1881 -11.5263 -1.7981 0.9399
-9.7692 -11.8864 -1.7983 0.9399
-9.3377 -12.2312 -1.7986 0.9399
-7.9723 -13.1702 -1.7994 0.9399
-7.4956 -13.4500 -1.7997 0.9399
-6.0091 -14.1847 -1.8006 0.9398
-5.4906 -14.3769 -1.7988 0.9399
-4.9639 -14.5441 -1.7962 0.9400
-3.3071 -14.7066 -1.7619 0.9411
-2.2140 -14.7100 -1.7387 0.9419
-1.6767 -14.7111 -1.7306 0.9421
-1.0558 -13.5822 -1.8031 0.9465
-0.5677 -13.6133 -1.8034 0.9465
-0.0787 -13.6268 -1.8036 0.9465
0.8995 -13.6012 -1.8041 0.9465
1.8735 -13.5054 -1.8046 0.9465
2.8384 -13.3397 -1.8051 0.9465
3.3159 -13.2310 -1.8054 0.9465
2.0230 -6.9966 -0.9640 0.9710
2.1862 -6.6558 -0.9272 0.9721
2.8168 -6.2225 -0.9041 0.9728
3.0677 -6.1766 -0.9128 0.9726
3.6131 -6.1274 -0.9415 0.9717
3.9112 -6.1196 -0.9613 0.9711
4.5576 -6.1150 -1.0094 0.9697
5.2714 -6.1044 -1.0675 0.9680
9.6481 -9.6729 -1.8083 0.9464
10.3187 -8.9571 -1.8085 0.9464
11.2239 -7.7973 -1.8089 0.9464
11.7556 -6.9726 -1.8090 0.9463
12.4384 -5.6691 -1.8092 0.9463
12.6342 -5.2191 -1.8093 0.9463
13.2518 -3.3573 -1.8094 0.9463
13.3638 -2.8794 -1.8094 0.9463
13.4585 -2.3978 -1.8094 0.9463
13.6376 -0.9371 -1.8093 0.9463
13.6621 -0.4469 -1.8092 0.9463
13.4384 2.4832 -1.8088 0.9464
13.3398 2.9638 -1.8087 0.9464
13.0909 3.9127 -1.8084 0.9464
12.9411 4.3798 -1.8083 0.9464
12.7745 4.8411 -1.8081 0.9464
12.5617 5.2836 -1.8037 0.9465
11.3441 5.2584 -1.6549 0.9508
10.2178 7.1959 -1.6541 0.9508
9.9518 7.5571 -1.6539 0.9508
9.6730 7.9086 -1.6537 0.9508
9.3818 8.2498 -1.6535 0.9508
9.0785 8.5802 -1.6533 0.9508
8.7636 8.8995 -1.6531 0.9509
7.7531 9.7862 -1.6525 0.9509
6.2692 10.7892 -1.6516 0.9509
5.8771 11.0058 -1.6514 0.9509
5.4774 11.2080 -1.6511 0.9509
5.0708 11.3958 -1.6509 0.9509
4.2035 11.6289 -1.6366 0.9513
3.7382 11.6317 -1.6171 0.9519
2.8373 11.6370 -1.5854 0.9528
2.3988 11.6396 -1.5730 0.9532
1.9666 11.6422 -1.5628 0.9535
0.2765 11.6523 -1.5427 0.9541
-0.1420 11.6548 -1.5427 0.9541
-1.4050 11.6623 -1.5547 0.9537
-1.8322 11.6648 -1.5629 0.9535
-2.2645 11.6674 -1.5731 0.9532
-3.1491 11.6726 -1.6002 0.9524
-4.0695 11.6781 -1.6368 0.9513
-5.7284 11.0320 -1.6453 0.9511
-6.1201 10.8181 -1.6451 0.9511
-6.5038 10.5904 -1.6449 0.9511
-6.8791 10.3490 -1.6448 0.9511
-7.2454 10.0944 -1.6446 0.9511
-7.9495 9.5468 -1.6443 0.9511
-8.6125 8.9503 -1.6440 0.9511
-8.9276 8.6348 -1.6439 0.9511
-9.2311 8.3081 -1.6438 0.9511
-9.5227 7.9709 -1.6437 0.9511
-12.2369 5.8447 -1.7949 0.9468
-12.4384 5.4015 -1.7948 0.9468
-12.7934 4.4950 -1.7948 0.9468
-12.9463 4.0329 -1.7947 0.9468
-13.3047 2.6177 -1.7947 0.9468
-13.4585 1.6564 -1.7948 0.9468
-13.5595 0.2000 -1.7949 0.9468
-13.5399 -0.7734 -1.7950 0.9467
-13.5040 -1.2590 -1.7951 0.9467
-13.4507 -1.7430 -1.7952 0.9467
-13.2925 -2.7039 -1.7954 0.9467
-12.9274 -4.1180 -1.7957 0.9467
-11.9894 -6.3628 -1.7965 0.9467
-10.6662 -8.4058 -1.7975 0.9467
-10.3588 -8.7842 -1.7977 0.9467
-10.0380 -9.1515 -1.7979 0.9467
-9.3578 -9.8505 -1.7983 0.9467
-8.9993 -10.1814 -1.7985 0.9466
-8.6292 -10.4992 -1.7988 0.9466
-8.2478 -10.8036 -1.7990 0.9466
-7.4535 -11.3706 -1.7995 0.9466
-7.0415 -11.6324 -1.7997 0.9466
-6.6203 -11.8794 -1.8000 0.9466
-6.1905 -12.1110 -1.8002 0.9466
-5.3071 -12.5276 -1.8008 0.9466
-4.8547 -12.7118 -1.8010 0.9466
-4.3959 -12.8798 -1.8013 0.9466
-3.9313 -13.0312 -1.8015 0.9466
-3.4615 -13.1658 -1.8018 0.9466
-2.9871 -13.2835 -1.8021 0.9465
-2.0270 -13.4675 -1.8026 0.9465
-1.5425 -13.5336 -1.8029 0.9465
-0.5080 -12.1822 -1.8032 0.9519
-0.0704 -12.1942 -1.8035 0.9519
0.8049 -12.1709 -1.8039 0.9519
1.2414 -12.1356 -1.8042 0.9519
2.1094 -12.0183 -1.8046 0.9519
2.5398 -11.9362 -1.8048 0.9519
2.9669 -11.8387 -1.8050 0.9518
1.9304 -6.6765 -1.0279 0.9723
2.3063 -6.2546 -0.9859 0.9734
2.5278 -6.1640 -0.9853 0.9734
2.7815 -6.1446 -0.9975 0.9731
3.3267 -6.1348 -1.0321 0.9722
3.6060 -6.1153 -1.0499 0.9717
4.2096 -6.0928 -1.0952 0.9705
5.7128 -6.1543 -1.2419 0.9666
8.6314 -8.6536 -1.8076 0.9518
8.9370 -8.3387 -1.8077 0.9518
10.0408 -6.9754 -1.8081 0.9518
10.5163 -6.2376 -1.8083 0.9518
10.7339 -5.8563 -1.8084 0.9518
10.9375 -5.4674 -1.8084 0.9518
11.4627 -4.2602 -1.8086 0.9518
11.6084 -3.8460 -1.8086 0.9518
11.7391 -3.4269 -1.8086 0.9518
12.1086 -1.7114 -1.8086 0.9518
12.1621 -1.2757 -1.8086 0.9518
12.1927 0.9163 -1.8083 0.9518
12.0219 2.2215 -1.8081 0.9518
11.9338 2.6514 -1.8080 0.9518
11.8302 3.0779 -1.8079 0.9518
11.4285 4.3310 -1.8075 0.9518
10.1490 4.7044 -1.6544 0.9558
9.7837 5.4195 -1.6541 0.9558
9.3679 6.1064 -1.6538 0.9558
9.1418 6.4381 -1.6536 0.9558
8.9039 6.7614 -1.6535 0.9558
8.3941 7.3813 -1.6531 0.9558
7.8412 7.9628 -1.6528 0.9558
6.2897 9.2295 -1.6518 0.9558
5.6099 9.6546 -1.6514 0.9559
5.2591 9.8485 -1.6512 0.9559
1.8328 4.5522 -0.7258 0.9804
3.7934 10.4944 -1.6503 0.9559
2.6422 10.8372 -1.6497 0.9559
1.8574 10.9959 -1.6493 0.9559
1.4613 11.0541 -1.6491 0.9559
1.0634 11.0980 -1.6488 0.9559
-0.1358 11.1437 -1.6482 0.9559
-0.5356 11.1302 -1.6480 0.9559
-0.9347 11.1024 -1.6478 0.9559
-2.1221 10.9336 -1.6472 0.9560
-2.9003 10.7507 -1.6468 0.9560
-3.6634 10.5125 -1.6464 0.9560
-4.0379 10.3731 -1.6463 0.9560
-4.4072 10.2204 -1.6461 0.9560
-5.1281 9.8758 -1.6457 0.9560
-6.4863 9.0369 -1.6451 0.9560
-7.1168 8.5468 -1.6449 0.9560
-7.4184 8.2852 -1.6447 0.9560
-8.2644 7.4381 -1.6444 0.9560
-10.0665 6.7286 -1.7907 0.9522
-10.5529 6.0058 -1.7958 0.9521
-10.7614 5.6230 -1.7957 0.9521
-11.1364 4.8361 -1.7956 0.9521
-11.4542 4.0245 -1.7955 0.9521
-11.8203 2.7698 -1.7955 0.9521
-11.9121 2.3437 -1.7955 0.9521
-12.0498 1.4830 -1.7955 0.9521
-12.1255 0.6147 -1.7956 0.9521
-12.1401 0.1790 -1.7956 0.9521
-12.0902 -1.1272 -1.7958 0.9521
-12.0425 -1.5605 -1.7959 0.9521
-11.9793 -1.9919 -1.7960 0.9521
-11.6977 -3.2687 -1.7963 0.9521
-11.5736 -3.6868 -1.7964 0.9521
-11.4346 -4.1001 -1.7965 0.9521
-11.1126 -4.9107 -1.7968 0.9521
-10.9300 -5.3068 -1.7969 0.9521
-10.7334 -5.6962 -1.7971 0.9521
-9.2729 -7.8635 -1.7981 0.9520
-8.9856 -8.1921 -1.7983 0.9520
-8.3766 -8.8176 -1.7987 0.9520
-8.0556 -9.1137 -1.7989 0.9520
-6.3026 -10.4118 -1.8000 0.9520
-5.1487 -11.0332 -1.8007 0.9520
-4.7499 -11.2123 -1.8009 0.9520
-3.0979 -11.7828 -1.8018 0.9519
-2.6733 -11.8880 -1.8021 0.9519
-1.8140 -12.0523 -1.8025 0.9519
-1.3804 -12.1112 -1.8028 0.9519
-0.8546 -10.9938 -1.8029 0.9563
-0.4595 -11.0187 -1.8031 0.9563
0.3323 -11.0258 -1.8035 0.9563
0.7280 -11.0080 -1.8037 0.9563
1.1228 -10.9760 -1.8039 0.9563
1.5162 -10.9299 -1.8041 0.9563
1.9078 -10.8696 -1.8043 0.9563
2.2970 -10.7953 -1.8045 0.9563
1.8537 -7.3965 -1.2467 0.9696
2.0650 -6.2868 -1.0819 0.9735
3.0462 -6.1333 -1.1197 0.9726
3.8964 -6.0965 -1.1830 0.9711
4.5417 -6.0936 -1.2426 0.9697
4.8980 -6.1017 -1.2793 0.9688
5.6657 -6.1035 -1.3616 0.9668
7.8052 -7.8253 -1.8071 0.9562
8.3475 -7.2459 -1.8073 0.9562
8.6027 -6.9420 -1.8074 0.9562
8.8468 -6.6291 -1.8075 0.9562
9.0795 -6.3075 -1.8076 0.9562
9.5094 -5.6403 -1.8077 0.9562
9.7060 -5.2955 -1.8078 0.9562
10.0615 -4.5857 -1.8079 0.9562
10.2198 -4.2217 -1.8079 0.9562
10.3650 -3.8522 -1.8079 0.9562
10.4967 -3.4777 -1.8080 0.9562
10.7193 -2.7157 -1.8080 0.9562
10.8099 -2.3291 -1.8080 0.9562
10.8865 -1.9396 -1.8080 0.9562
10.9974 -1.1535 -1.8079 0.9562
11.0514 -0.3615 -1.8079 0.9562
11.0482 0.4323 -1.8078 0.9562
10.9880 1.2238 -1.8076 0.9562
10.9365 1.6173 -1.8076 0.9562
10.7913 2.3976 -1.8074 0.9562
10.6977 2.7833 -1.8073 0.9562
10.4692 3.5432 -1.8071 0.9562
10.1608 4.2737 -1.8023 0.9563
9.3082 4.3147 -1.6774 0.9593
9.0184 4.5805 -1.6538 0.9598
8.6651 5.2149 -1.6535 0.9598
8.4717 5.5222 -1.6534 0.9598
7.3461 6.9429 -1.6526 0.9599
6.8277 7.4505 -1.6523 0.9599
6.5551 7.6900 -1.6521 0.9599
6.2742 7.9195 -1.6520 0.9599
5.9852 8.1388 -1.6518 0.9599
5.3847 8.5453 -1.6514 0.9599
4.7566 8.9076 -1.6510 0.9599
4.4333 9.0716 -1.6509 0.9599
3.0879 9.6082 -1.6501 0.9599
2.7407 9.7117 -1.6499 0.9599
2.3900 9.8027 -1.6497 0.9599
2.0364 9.8810 -1.6495 0.9599
1.6802 9.9466 -1.6493 0.9599
0.9620 10.0391 -1.6489 0.9599
0.2392 10.0799 -1.6485 0.9600
-0.1228 10.0808 -1.6483 0.9600
-0.4845 10.0688 -1.6482 0.9600
-1.2054 10.0058 -1.6478 0.9600
-2.2734 9.8150 -1.6472 0.9600
-2.6239 9.7261 -1.6471 0.9600
-2.9711 9.6246 -1.6469 0.9600
-3.6532 9.3848 -1.6466 0.9600
-3.9873 9.2467 -1.6464 0.9600
-4.3163 9.0968 -1.6463 0.9600
-5.2678 8.5778 -1.6458 0.9600
-6.1580 7.9599 -1.6454 0.9600
-6.4392 7.7331 -1.6453 0.9600
-6.7122 7.4965 -1.6452 0.9600
-7.9406 6.1757 -1.6447 0.9600
-8.1567 5.8864 -1.6446 0.9600
-9.3401 5.7690 -1.7949 0.9565
-9.5488 5.4344 -1.7964 0.9564
-9.7374 5.0879 -1.7963 0.9564
-9.9135 4.7350 -1.7963 0.9564
-10.0768 4.3760 -1.7962 0.9564
-10.4884 3.2672 -1.7961 0.9565
-10.6957 2.5062 -1.7961 0.9565
-10.8480 1.7324 -1.7961 0.9565
-10.9033 1.3419 -1.7961 0.9565
-10.9446 0.9497 -1.7962 0.9565
-10.9719 0.5562 -1.7962 0.9564
-10.9689 -0.6266 -1.7964 0.9564
-10.8965 -1.4121 -1.7965 0.9564
-10.8393 -1.8024 -1.7966 0.9564
-10.7681 -2.1904 -1.7966 0.9564
-10.6831 -2.5757 -1.7967 0.9564
-10.5843 -2.9576 -1.7968 0.9564
-10.4720 -3.3358 -1.7969 0.9564
-9.8894 -4.8016 -1.7974 0.9564
-9.7114 -5.1539 -1.7976 0.9564
-9.3181 -5.8383 -1.7978 0.9564
-9.1033 -6.1695 -1.7980 0.9564
-8.6387 -6.8080 -1.7983 0.9564
-8.1295 -7.4116 -1.7987 0.9564
-7.8590 -7.6994 -1.7988 0.9564
-7.5783 -7.9774 -1.7990 0.9564
-6.0354 -9.2072 -1.8000 0.9564
-4.2968 -10.1427 -1.8010 0.9563
-3.5589 -10.4273 -1.8014 0.9563
-3.1826 -10.5495 -1.8016 0.9563
-2.8022 -10.6583 -1.8019 0.9563
-2.4181 -10.7532 -1.8021 0.9563
-0.7798 -10.0310 -1.8028 0.9599
-0.4192 -10.0537 -1.8030 0.9599
-0.0581 -10.0633 -1.8032 0.9599
0.3032 -10.0599 -1.8034 0.9599
0.6642 -10.0436 -1.8036 0.9599
1.7406 -9.9170 -1.8041 0.9599
2.0957 -9.8491 -1.8043 0.9599
1.8119 -7.2299 -1.3356 0.9702
1.8814 -6.5069 -1.2137 0.9729
2.2613 -6.1324 -1.1712 0.9738
2.5041 -6.1064 -1.1826 0.9735
2.7641 -6.1062 -1.2010 0.9731
3.0383 -6.1174 -1.2239 0.9726
3.6007 -6.1064 -1.2702 0.9716
4.2139 -6.0991 -1.3283 0.9703
4.8973 -6.1008 -1.4018 0.9687
7.1202 -7.1385 -1.8066 0.9599
7.3723 -6.8787 -1.8067 0.9599
7.6149 -6.6100 -1.8068 0.9599
7.8476 -6.3327 -1.8069 0.9598
8.0703 -6.0472 -1.8070 0.9598
9.0219 -4.5098 -1.8073 0.9598
9.4550 -3.5140 -1.8074 0.9598
9.6829 -2.8266 -1.8074 0.9598
9.9307 -1.7693 -1.8075 0.9598
9.9877 -1.4117 -1.8074 0.9598
10.0319 -1.0522 -1.8074 0.9598
10.0812 -0.3298 -1.8074 0.9598
10.0863 0.0323 -1.8073 0.9598
10.0783 0.3943 -1.8073 0.9598
10.0574 0.7558 -1.8072 0.9598
9.9765 1.4754 -1.8071 0.9598
9.9167 1.8325 -1.8070 0.9598
9.8441 2.1872 -1.8069 0.9598
9.6608 2.8875 -1.8067 0.9599
9.5504 3.2322 -1.8066 0.9599
9.2867 3.9061 -1.8052 0.9599
9.1108 4.2231 -1.7994 0.9600
7.5421 5.3115 -1.6529 0.9632
7.1404 5.8380 -1.6527 0.9632
6.9257 6.0900 -1.6525 0.9632
6.7020 6.3341 -1.6524 0.9632
6.4697 6.5700 -1.6522 0.9632
5.7243 7.2254 -1.6518 0.9632
5.4607 7.4255 -1.6516 0.9632
5.1901 7.6160 -1.6514 0.9632
4.9129 7.7966 -1.6513 0.9632
3.7449 8.4160 -1.6506 0.9633
1.8325 4.5514 -0.8792 0.9803
2.8175 8.7670 -1.6500 0.9633
2.5007 8.8615 -1.6499 0.9633
1.5331 9.0761 -1.6493 0.9633
1.2062 9.1243 -1.6492 0.9633
0.8778 9.1607 -1.6490 0.9633
0.2183 9.1981 -1.6486 0.9633
-0.7716 9.1654 -1.6481 0.9633
-1.1000 9.1308 -1.6479 0.9633
-1.4269 9.0846 -1.6478 0.9633
-1.7519 9.0266 -1.6476 0.9633
-2.0746 8.9570 -1.6475 0.9633
-2.3946 8.8759 -1.6473 0.9633
-2.7114 8.7834 -1.6471 0.9633
-3.0246 8.6796 -1.6470 0.9633
-3.3340 8.5647 -1.6468 0.9633
-3.6389 8.4387 -1.6467 0.9633
-3.9392 8.3020 -1.6466 0.9633
-4.2343 8.1546 -1.6464 0.9633
-4.8077 7.8285 -1.6462 0.9634
-5.8769 7.0578 -1.6457 0.9634
-6.3674 6.6172 -1.6455 0.9634
-6.6004 6.3840 -1.6454 0.9634
-7.0407 5.8934 -1.6452 0.9634
-7.4447 5.3725 -1.6451 0.9634
-7.6931 5.1422 -1.6581 0.9631
-8.7154 4.9601 -1.7969 0.9601
-8.8875 4.6439 -1.7968 0.9601
-9.0483 4.3217 -1.7968 0.9601
-9.1974 3.9941 -1.7967 0.9601
-9.4599 3.3238 -1.7967 0.9601
-9.5731 2.9821 -1.7966 0.9601
-9.6739 2.6365 -1.7966 0.9601
-9.9013 1.5812 -1.7966 0.9601
-2.0428 0.2514 -0.3688 0.9917
-2.0521 0.1781 -0.3691 0.9917
-2.0422 0.1035 -0.3664 0.9917
-2.0197 0.0298 -0.3619 0.9918
-2.0246 -0.0429 -0.3629 0.9918
-2.0450 -0.1168 -0.3670 0.9917
-2.0516 -0.1913 -0.3692 0.9917
-2.0396 -0.2643 -0.3685 0.9917
-9.6603 -2.6994 -1.7973 0.9601
-9.5577 -3.0446 -1.7974 0.9601
-9.3157 -3.7229 -1.7976 0.9601
-8.8632 -4.7037 -1.7979 0.9600
-8.5041 -5.3283 -1.7982 0.9600
-8.3081 -5.6306 -1.7984 0.9600
-7.6565 -6.4927 -1.7988 0.9600
-7.4192 -6.7640 -1.7990 0.9600
-6.9160 -7.2801 -1.7993 0.9600
-6.3771 -7.7590 -1.7996 0.9600
-4.8916 -8.7774 -1.8005 0.9600
-2.9041 -9.6263 -1.8017 0.9600
-2.5570 -9.7254 -1.8019 0.9600
-1.4971 -9.9471 -1.8024 0.9599
-1.1392 -9.9955 -1.8026 0.9599
-0.3853 -9.2400 -1.8029 0.9630
-0.0534 -9.2487 -1.8031 0.9630
0.6104 -9.2305 -1.8035 0.9630
0.9415 -9.2035 -1.8036 0.9630
1.2714 -9.1646 -1.8038 0.9630
1.8645 -7.4396 -1.4952 0.9692
1.8762 -6.4889 -1.3169 0.9728
2.7641 -6.1061 -1.3067 0.9731
3.3128 -6.1093 -1.3549 0.9721
3.6046 -6.1130 -1.3835 0.9715
4.2202 -6.1082 -1.4474 0.9702
4.8971 -6.1006 -1.5251 0.9686
5.6656 -6.1035 -1.6235 0.9666
6.9974 -6.0740 -1.8064 0.9629
7.6108 -5.2872 -1.8067 0.9629
7.7959 -5.0108 -1.8067 0.9629
7.9710 -4.7279 -1.8068 0.9629
8.2901 -4.1440 -1.8069 0.9629
8.5664 -3.5387 -1.8070 0.9629
8.6881 -3.2290 -1.8070 0.9629
8.8975 -2.5974 -1.8070 0.9629
8.9850 -2.2763 -1.8070 0.9629
9.0609 -1.9523 -1.8070 0.9629
9.1252 -1.6258 -1.8070 0.9629
9.2417 0.6945 -1.8068 0.9629
9.1674 1.3557 -1.8067 0.9629
9.0458 2.0098 -1.8065 0.9629
8.6633 3.2831 -1.8062 0.9629
8.5394 3.5918 -1.8061 0.9630
8.3946 3.8912 -1.8038 0.9630
8.2261 4.1781 -1.7987 0.9631
7.1022 4.6295 -1.6528 0.9660
6.7507 5.1263 -1.6525 0.9660
6.3645 5.5966 -1.6523 0.9661
6.1590 5.8210 -1.6522 0.9661
5.7246 6.2468 -1.6519 0.9661
5.2607 6.6402 -1.6516 0.9661
4.7699 6.9993 -1.6513 0.9661
4.5151 7.1653 -1.6511 0.9661
4.2546 7.3221 -1.6510 0.9661
3.7176 7.6070 -1.6507 0.9661
1.8323 4.5509 -0.9564 0.9802
2.2984 8.1446 -1.6498 0.9661
2.0044 8.2210 -1.6497 0.9661
1.4091 8.3420 -1.6494 0.9661
0.8068 8.4199 -1.6490 0.9661
-0.1030 8.4554 -1.6485 0.9661
-0.4064 8.4454 -1.6484 0.9661
-0.7092 8.4246 -1.6482 0.9661
-2.2011 8.1589 -1.6475 0.9661
-3.6211 7.6316 -1.6468 0.9662
-4.1587 7.3510 -1.6466 0.9662
-4.9238 6.8599 -1.6462 0.9662
-5.4026 6.4882 -1.6460 0.9662
-5.8535 6.0831 -1.6458 0.9662
-6.0678 5.8688 -1.6457 0.9662
-6.4726 5.4178 -1.6456 0.9662
-6.6626 5.1817 -1.6455 0.9662
-6.8440 4.9390 -1.6454 0.9662
-7.8333 4.8383 -1.7950 0.9632
-8.0122 4.5599 -1.7973 0.9631
-8.4554 3.6719 -1.7971 0.9631
-1.7744 0.5527 -0.3623 0.9925
-1.7138 0.3372 -0.3405 0.9929
-1.6983 0.2712 -0.3353 0.9930
-1.7072 0.0252 -0.3329 0.9931
-1.7084 -0.0976 -0.3336 0.9931
-1.7069 -0.1591 -0.3342 0.9930
-1.7031 -0.2207 -0.3348 0.9930
-1.6971 -0.2822 -0.3354 0.9930
-1.7178 -0.3494 -0.3418 0.9929
-8.6807 -3.1127 -1.7979 0.9631
-8.5638 -3.4224 -1.7980 0.9631
-8.1478 -4.3241 -1.7983 0.9631
-7.9878 -4.6140 -1.7984 0.9631
-7.8176 -4.8981 -1.7985 0.9631
-7.6372 -5.1760 -1.7986 0.9631
-6.3573 -6.6921 -1.7995 0.9631
-6.1135 -6.9165 -1.7997 0.9631
-5.8618 -7.1321 -1.7998 0.9631
-5.3360 -7.5357 -1.8001 0.9631
-5.0625 -7.7231 -1.8003 0.9631
-4.7825 -7.9006 -1.8005 0.9631
-4.2041 -8.2249 -1.8008 0.9631
-3.6038 -8.5070 -1.8012 0.9630
-2.3501 -8.9387 -1.8019 0.9630
-2.0280 -9.0182 -1.8021 0.9630
-1.3760 -9.1423 -1.8024 0.9630
-1.0470 -9.1867 -1.8026 0.9630
-0.6627 -8.5253 -1.8027 0.9656
0.8706 -8.5104 -1.8035 0.9656
1.4792 -8.4274 -1.8038 0.9656
1.8764 -6.4898 -1.4242 0.9728
2.5041 -6.1064 -1.3914 0.9734
3.0343 -6.1093 -1.4381 0.9725
3.3161 -6.1154 -1.4666 0.9720
3.9106 -6.1186 -1.5309 0.9708
4.2267 -6.1177 -1.5676 0.9701
5.2710 -6.1038 -1.7002 0.9676
6.0495 -6.0650 -1.8059 0.9656
6.4696 -5.6159 -1.8061 0.9656
6.8564 -5.1377 -1.8062 0.9656
7.0367 -4.8884 -1.8063 0.9656
7.2078 -4.6328 -1.8064 0.9656
7.3697 -4.3712 -1.8064 0.9656
7.8906 -3.2595 -1.7998 0.9657
8.1347 -2.6951 -1.8066 0.9656
8.3071 -2.1046 -1.8066 0.9656
8.4852 -1.1993 -1.8066 0.9656
8.5690 0.0275 -1.8065 0.9656
8.5157 0.9484 -1.8064 0.9656
8.4252 1.5568 -1.8063 0.9656
8.3635 1.8582 -1.8062 0.9656
8.2911 2.1571 -1.8061 0.9656
8.2079 2.4533 -1.8060 0.9656
8.0100 3.0355 -1.8059 0.9656
7.7707 3.6020 -1.8057 0.9656
7.6277 3.8742 -1.8036 0.9656
7.4649 4.1350 -1.7991 0.9657
6.2419 4.7399 -1.6523 0.9685
6.0673 4.9606 -1.6522 0.9685
5.8849 5.1748 -1.6521 0.9685
5.4976 5.5828 -1.6518 0.9685
4.8644 6.1400 -1.6514 0.9685
4.1751 6.6257 -1.6510 0.9685
3.9342 6.7707 -1.6509 0.9685
3.4377 7.0342 -1.6506 0.9685
1.6793 4.6457 -1.0414 0.9800
2.3946 7.4511 -1.6500 0.9685
2.1254 7.5316 -1.6498 0.9685
1.8536 7.6024 -1.6497 0.9685
0.7461 7.7865 -1.6491 0.9685
0.1855 7.8186 -1.6488 0.9685
-0.0953 7.8195 -1.6486 0.9685
-0.3759 7.8104 -1.6485 0.9685
-0.6559 7.7911 -1.6483 0.9685
-0.9351 7.7619 -1.6482 0.9685
-1.2130 7.7227 -1.6481 0.9685
-1.7637 7.6145 -1.6478 0.9686
-2.0357 7.5456 -1.6476 0.9686
-3.3490 7.0582 -1.6470 0.9686
-5.8031 5.2229 -1.6460 0.9686
-6.1624 4.7927 -1.6458 0.9686
-7.2508 4.4785 -1.7967 0.9658
-7.4107 4.2176 -1.7976 0.9657
-7.5572 3.9488 -1.7976 0.9657
-7.8207 3.3962 -1.7975 0.9657
-1.6255 0.5711 -0.3632 0.9930
-1.5992 0.4358 -0.3494 0.9932
-1.5663 0.3082 -0.3365 0.9935
-1.5740 0.0798 -0.3323 0.9936
-1.5731 0.0232 -0.3317 0.9936
-1.5734 -0.0333 -0.3318 0.9936
-1.5723 -0.1466 -0.3329 0.9936
-1.5688 -0.2033 -0.3335 0.9936
-1.5865 -0.3825 -0.3441 0.9934
-1.6154 -0.5146 -0.3574 0.9931
-7.5358 -3.9993 -1.7986 0.9657
-7.3878 -4.2675 -1.7987 0.9657
-6.8876 -5.0379 -1.7990 0.9657
-6.7028 -5.2823 -1.7992 0.9657
-6.3075 -5.7505 -1.7994 0.9657
-5.8796 -6.1891 -1.7997 0.9657
-5.6541 -6.3967 -1.7998 0.9657
-5.1814 -6.7870 -1.8001 0.9657
-4.9348 -6.9692 -1.8003 0.9657
-4.6819 -7.1424 -1.8004 0.9657
-4.4229 -7.3066 -1.8006 0.9657
-3.8879 -7.6064 -1.8009 0.9657
-3.6127 -7.7417 -1.8011 0.9657
-3.3328 -7.8671 -1.8012 0.9657
-3.0485 -7.9824 -1.8014 0.9657
-2.1733 -8.2661 -1.8019 0.9657
-1.8754 -8.3396 -1.8021 0.9657
-1.5749 -8.4023 -1.8022 0.9657
-1.2724 -8.4542 -1.8024 0.9657
-0.6160 -7.9248 -1.8027 0.9679
-0.3312 -7.9425 -1.8028 0.9679
-0.0459 -7.9499 -1.8030 0.9679
0.2396 -7.9471 -1.8031 0.9679
0.5247 -7.9340 -1.8033 0.9679
1.0928 -7.8772 -1.8036 0.9679
1.6554 -7.7798 -1.8038 0.9679
2.2096 -7.6421 -1.8041 0.9679
2.0454 -6.2270 -1.4864 0.9735
2.2517 -6.1066 -1.4760 0.9737
2.5041 -6.1063 -1.4968 0.9733
2.7641 -6.1061 -1.5201 0.9729
4.2864 -6.7067 -1.8051 0.9679
4.9834 -6.2080 -1.8054 0.9679
5.2033 -6.0255 -1.8055 0.9679
5.4165 -5.8351 -1.8056 0.9679
6.3726 -4.7752 -1.8059 0.9679
6.5402 -4.5435 -1.8060 0.9679
7.1239 -3.5610 -1.8062 0.9679
7.2472 -3.3031 -1.8062 0.9679
7.3612 -3.0408 -1.8063 0.9679
7.7861 -1.6776 -1.8063 0.9679
7.9212 -0.8308 -1.8063 0.9679
7.9458 -0.5460 -1.8063 0.9679
7.9643 0.0255 -1.8062 0.9679
7.9581 0.3114 -1.8062 0.9679
7.9416 0.5968 -1.8061 0.9679
7.9148 0.8815 -1.8061 0.9679
7.8778 1.1650 -1.8060 0.9679
7.7734 1.7271 -1.8059 0.9679
7.7061 2.0049 -1.8058 0.9679
7.4450 2.8214 -1.8056 0.9679
7.2226 3.3479 -1.8054 0.9679
7.0974 3.6048 -1.8053 0.9679
6.9568 3.8536 -1.8036 0.9679
6.4674 4.2157 -1.7508 0.9688
6.0076 4.2308 -1.6664 0.9703
5.8018 4.4057 -1.6521 0.9706
5.4700 4.8100 -1.6519 0.9706
5.2934 5.0029 -1.6518 0.9706
4.3134 5.8654 -1.6512 0.9706
4.0998 6.0160 -1.6510 0.9706
3.8809 6.1588 -1.6509 0.9706
3.4285 6.4203 -1.6506 0.9706
3.1955 6.5388 -1.6505 0.9706
2.9585 6.6487 -1.6504 0.9706
1.8023 4.4764 -1.0944 0.9804
2.2260 6.9265 -1.6500 0.9706
1.7230 7.0671 -1.6497 0.9706
1.2114 7.1713 -1.6494 0.9706
0.9531 7.2095 -1.6493 0.9706
0.1725 7.2684 -1.6488 0.9706
-0.0885 7.2693 -1.6487 0.9706
-0.3494 7.2608 -1.6486 0.9706
-0.6098 7.2430 -1.6484 0.9706
-0.8693 7.2159 -1.6483 0.9706
-1.1277 7.1794 -1.6482 0.9706
