ply
format ascii 1.0
element vertex 1594
property float32 x
property float32 y
property float32 z
property float32 I
end_header
-11.1076 -4.9085 -1.7960 0.9521
-10.9248 -5.3043 -1.7961 0.9521
-10.7280 -5.6934 -1.7962 0.9521
-10.0557 -6.8150 -1.7965 0.9521
-9.8053 -7.1721 -1.7967 0.9521
-8.9796 -8.1867 -1.7971 0.9521
-8.6808 -8.5045 -1.7973 0.9520
-8.3706 -8.8114 -1.7974 0.9520
-7.3771 -9.6630 -1.7980 0.9520
-7.0262 -9.9226 -1.7981 0.9520
-6.6662 -10.1696 -1.7983 0.9520
-6.2975 -10.4034 -1.7985 0.9520
-5.1444 -11.0239 -1.7992 0.9520
-4.7459 -11.2028 -1.7994 0.9520
-4.3412 -11.3673 -1.7996 0.9520
-3.0952 -11.7725 -1.8003 0.9520
-2.6709 -11.8776 -1.8005 0.9520
-0.8539 -10.9850 -1.8015 0.9563
-0.0636 -11.0206 -1.8019 0.9563
0.3321 -11.0171 -1.8021 0.9563
1.1219 -10.9675 -1.8025 0.9563
1.5151 -10.9214 -1.8028 0.9563
1.1330 -6.4551 -1.0715 0.9738
1.3337 -6.2680 -1.0478 0.9744
1.5439 -6.1602 -1.0383 0.9746
2.2643 -6.1407 -1.0701 0.9738
2.5123 -6.1262 -1.0826 0.9735
3.0300 -6.1006 -1.1137 0.9728
3.3024 -6.0899 -1.1327 0.9723
3.8974 -6.0980 -1.1833 0.9711
4.2134 -6.0983 -1.2119 0.9704
4.9261 -6.1367 -1.2866 0.9686
7.2188 -8.3595 -1.8059 0.9562
7.5149 -8.0957 -1.8060 0.9562
7.8014 -7.8214 -1.8062 0.9562
8.0778 -7.5370 -1.8063 0.9562
8.3438 -7.2427 -1.8065 0.9562
8.8433 -6.6264 -1.8068 0.9562
9.5063 -5.6385 -1.8071 0.9562
10.4951 -3.4772 -1.8077 0.9562
10.7183 -2.7154 -1.8078 0.9562
10.9489 -1.5475 -1.8079 0.9562
10.9976 -1.1535 -1.8080 0.9562
11.0321 -0.7580 -1.8080 0.9562
11.0270 0.8287 -1.8080 0.9562
10.9901 1.2240 -1.8080 0.9562
10.9389 1.6177 -1.8080 0.9562
10.8736 2.0093 -1.8079 0.9562
10.7942 2.3983 -1.8079 0.9562
10.4729 3.5445 -1.8077 0.9562
10.3386 3.9180 -1.8077 0.9562
9.5173 4.4116 -1.7151 0.9584
8.8517 4.9033 -1.6545 0.9598
8.6695 5.2176 -1.6544 0.9598
8.0568 6.1181 -1.6541 0.9598
7.8314 6.4029 -1.6539 0.9598
7.5960 6.6794 -1.6538 0.9598
7.3507 6.9473 -1.6537 0.9598
6.5596 7.6953 -1.6533 0.9598
6.2786 7.9251 -1.6531 0.9598
4.1075 9.2310 -1.6519 0.9599
3.4339 9.4998 -1.6516 0.9599
2.7429 9.7195 -1.6512 0.9599
2.3920 9.8106 -1.6510 0.9599
2.0380 9.8890 -1.6508 0.9599
1.6815 9.9546 -1.6506 0.9599
0.2394 10.0881 -1.6499 0.9599
-0.8462 10.0518 -1.6493 0.9599
-1.5648 9.9628 -1.6489 0.9599
-1.9212 9.8990 -1.6487 0.9600
-2.2751 9.8225 -1.6485 0.9600
-2.6259 9.7334 -1.6483 0.9600
-2.9733 9.6318 -1.6481 0.9600
-3.3167 9.5178 -1.6479 0.9600
-3.6558 9.3915 -1.6478 0.9600
-3.9901 9.2532 -1.6476 0.9600
-4.9602 8.7678 -1.6470 0.9600
-5.2712 8.5832 -1.6469 0.9600
-5.5753 8.3876 -1.6467 0.9600
-6.1615 7.9645 -1.6464 0.9600
-6.7158 7.5005 -1.6461 0.9600
-7.2354 6.9981 -1.6458 0.9600
-7.4813 6.7333 -1.6457 0.9600
-7.9439 6.1783 -1.6454 0.9600
-8.3655 5.5916 -1.6452 0.9600
-9.5518 5.4361 -1.7969 0.9564
-9.9161 4.7362 -1.7967 0.9564
-10.0792 4.3770 -1.7966 0.9564
-10.2293 4.0122 -1.7965 0.9564
-10.4900 3.2677 -1.7964 0.9564
-10.6001 2.8889 -1.7963 0.9564
-10.9444 0.9497 -1.7961 0.9565
-10.9713 0.5562 -1.7961 0.9565
-10.9841 0.1620 -1.7961 0.9565
-10.8369 -1.8020 -1.7962 0.9565
-10.7654 -2.1899 -1.7962 0.9564
-10.5811 -2.9567 -1.7963 0.9564
-10.4685 -3.3348 -1.7963 0.9564
-10.3424 -3.7085 -1.7964 0.9564
-10.2030 -4.0775 -1.7965 0.9564
-10.0505 -4.4414 -1.7966 0.9564
-9.5163 -5.4970 -1.7968 0.9564
-9.0985 -6.1663 -1.7971 0.9564
-8.8719 -6.4893 -1.7972 0.9564
-8.6338 -6.8041 -1.7973 0.9564
-8.3846 -7.1102 -1.7974 0.9564
-8.1246 -7.4071 -1.7976 0.9564
-7.8541 -7.6946 -1.7977 0.9564
-7.2831 -8.2397 -1.7980 0.9564
-6.9832 -8.4966 -1.7982 0.9564
-6.6743 -8.7426 -1.7983 0.9564
-6.0310 -9.2006 -1.7987 0.9564
-5.6974 -9.4121 -1.7989 0.9564
-5.3565 -9.6116 -1.7991 0.9564
-5.0085 -9.7987 -1.7992 0.9564
-4.6540 -9.9732 -1.7994 0.9564
-4.2935 -10.1349 -1.7996 0.9564
-2.0292 -10.8258 -1.8008 0.9563
-0.7792 -10.0237 -1.8015 0.9600
-0.4189 -10.0463 -1.8017 0.9600
-0.0580 -10.0560 -1.8019 0.9600
0.3030 -10.0527 -1.8021 0.9600
0.6637 -10.0364 -1.8023 0.9599
1.0237 -10.0072 -1.8025 0.9599
0.9950 -7.1725 -1.2975 0.9710
1.1252 -6.4109 -1.1663 0.9739
1.7656 -6.1063 -1.1390 0.9745
2.0064 -6.1085 -1.1521 0.9742
2.2568 -6.1204 -1.1689 0.9738
2.5058 -6.1104 -1.1834 0.9735
2.7628 -6.1033 -1.2005 0.9731
3.0295 -6.0997 -1.2204 0.9727
3.3056 -6.0959 -1.2426 0.9722
3.8966 -6.0968 -1.2965 0.9710
4.5492 -6.1037 -1.3640 0.9695
6.5857 -7.6263 -1.8055 0.9599
6.8558 -7.3856 -1.8057 0.9599
7.1170 -7.1353 -1.8058 0.9599
7.3692 -6.8758 -1.8060 0.9599
7.6118 -6.6073 -1.8061 0.9599
7.8446 -6.3303 -1.8062 0.9599
8.0673 -6.0450 -1.8063 0.9599
8.2797 -5.7519 -1.8065 0.9599
8.6721 -5.1437 -1.8067 0.9599
8.8516 -4.8293 -1.8068 0.9599
9.0197 -4.5087 -1.8069 0.9599
9.5738 -3.1719 -1.8072 0.9598
9.6818 -2.8263 -1.8072 0.9598
9.7774 -2.4770 -1.8073 0.9598
9.8602 -2.1245 -1.8073 0.9598
9.9304 -1.7693 -1.8074 0.9598
9.9877 -1.4117 -1.8074 0.9598
10.0796 0.3944 -1.8075 0.9598
10.0252 1.1165 -1.8075 0.9598
9.9785 1.4757 -1.8074 0.9598
9.9190 1.8329 -1.8074 0.9598
9.7615 2.5397 -1.8073 0.9598
9.4310 3.5740 -1.8072 0.9598
9.2946 3.9094 -1.8068 0.9599
9.1187 4.2268 -1.8009 0.9600
8.3774 4.2550 -1.6836 0.9625
8.0749 4.4729 -1.6540 0.9632
7.7323 5.0402 -1.6539 0.9632
7.3499 5.5813 -1.6537 0.9632
6.7059 6.3378 -1.6533 0.9632
4.3430 8.1329 -1.6521 0.9632
4.0478 8.2828 -1.6519 0.9632
3.7475 8.4219 -1.6517 0.9632
3.4425 8.5502 -1.6516 0.9632
1.4637 4.5545 -0.8572 0.9807
2.5026 8.8680 -1.6511 0.9632
1.5342 9.0828 -1.6506 0.9633
1.2071 9.1310 -1.6504 0.9633
0.8785 9.1675 -1.6502 0.9633
0.2184 9.2049 -1.6498 0.9633
-0.1121 9.2058 -1.6497 0.9633
-0.7722 9.1721 -1.6493 0.9633
-1.1008 9.1375 -1.6491 0.9633
-1.4279 9.0911 -1.6490 0.9633
-1.7532 9.0330 -1.6488 0.9633
-2.0761 8.9633 -1.6486 0.9633
-2.7132 8.7894 -1.6483 0.9633
-3.3361 8.5703 -1.6479 0.9633
-3.6413 8.4442 -1.6478 0.9633
-3.9417 8.3072 -1.6476 0.9633
-4.5266 8.0014 -1.6473 0.9633
-4.8105 7.8331 -1.6471 0.9633
-5.0881 7.6546 -1.6470 0.9633
-5.3591 7.4664 -1.6468 0.9633
-5.6232 7.2685 -1.6467 0.9633
-5.8799 7.0614 -1.6465 0.9633
-6.3704 6.6203 -1.6463 0.9634
-6.6034 6.3868 -1.6461 0.9634
-6.8279 6.1452 -1.6460 0.9634
-7.4474 5.3745 -1.6457 0.9634
-7.6350 5.1034 -1.6456 0.9634
-8.7179 4.9615 -1.7974 0.9601
-8.8899 4.6451 -1.7973 0.9601
-9.0504 4.3228 -1.7972 0.9601
-9.5744 2.9825 -1.7969 0.9601
-9.6750 2.6368 -1.7968 0.9601
-2.0428 0.2514 -0.3688 0.9917
-2.0522 0.1781 -0.3691 0.9917
-2.0197 0.0298 -0.3619 0.9918
-2.0247 -0.0429 -0.3629 0.9918
-2.0450 -0.1168 -0.3670 0.9917
-2.0396 -0.2643 -0.3685 0.9917
-9.7480 -2.3502 -1.7967 0.9601
-9.5548 -3.0437 -1.7968 0.9601
-9.4397 -3.3848 -1.7969 0.9601
-9.3125 -3.7216 -1.7970 0.9601
-8.8596 -4.7018 -1.7972 0.9601
-8.6855 -5.0171 -1.7973 0.9601
-8.0972 -5.9227 -1.7976 0.9601
-7.8799 -6.2100 -1.7977 0.9600
-7.6524 -6.4892 -1.7978 0.9600
-7.4151 -6.7602 -1.7980 0.9600
-6.9120 -7.2759 -1.7982 0.9600
-6.6468 -7.5199 -1.7984 0.9600
-6.0912 -7.9787 -1.7987 0.9600
-5.8014 -8.1929 -1.7988 0.9600
-5.1995 -8.5896 -1.7991 0.9600
-4.8883 -8.7715 -1.7993 0.9600
-4.5707 -8.9422 -1.7995 0.9600
-2.9020 -9.6194 -1.8004 0.9600
-1.8517 -9.8787 -1.8009 0.9600
-1.4960 -9.9399 -1.8011 0.9600
-1.1384 -9.9882 -1.8013 0.9600
-0.7162 -9.2131 -1.8016 0.9630
0.2785 -9.2395 -1.8021 0.9630
0.6100 -9.2244 -1.8023 0.9630
1.1204 -6.3831 -1.2634 0.9739
1.3138 -6.1746 -1.2307 0.9746
1.5304 -6.1065 -1.2273 0.9747
2.2545 -6.1142 -1.2704 0.9738
2.5039 -6.1057 -1.2865 0.9735
3.3091 -6.1023 -1.3533 0.9721
3.8990 -6.1005 -1.4115 0.9709
4.8994 -6.1034 -1.5258 0.9686
6.0520 -7.0083 -1.8052 0.9630
6.5402 -6.5570 -1.8055 0.9630
6.7718 -6.3185 -1.8056 0.9630
6.9948 -6.0717 -1.8058 0.9630
7.2087 -5.8171 -1.8059 0.9630
8.1338 -4.4377 -1.8064 0.9629
8.2883 -4.1431 -1.8065 0.9629
8.4321 -3.8431 -1.8066 0.9629
8.5649 -3.5381 -1.8066 0.9629
8.6867 -3.2285 -1.8067 0.9629
8.7973 -2.9147 -1.8068 0.9629
9.0604 -1.9522 -1.8069 0.9629
9.1249 -1.6257 -1.8070 0.9629
9.1775 -1.2972 -1.8070 0.9629
9.2183 -0.9669 -1.8070 0.9629
9.2690 0.0297 -1.8070 0.9629
9.2620 0.3624 -1.8070 0.9629
9.2430 0.6946 -1.8070 0.9629
9.2120 1.0260 -1.8070 0.9629
9.1691 1.3560 -1.8070 0.9629
9.1144 1.6842 -1.8070 0.9629
9.0479 2.0103 -1.8069 0.9629
8.8799 2.6541 -1.8069 0.9629
8.7787 2.9711 -1.8068 0.9629
8.6661 3.2842 -1.8068 0.9629
8.3990 3.8932 -1.8048 0.9630
8.2305 4.1804 -1.7997 0.9631
6.7540 5.1288 -1.6533 0.9660
6.5651 5.3676 -1.6532 0.9660
5.4993 6.4514 -1.6527 0.9660
5.0215 6.8283 -1.6524 0.9660
4.7728 7.0035 -1.6523 0.9661
4.2573 7.3267 -1.6520 0.9661
3.9912 7.4742 -1.6519 0.9661
3.4440 7.7399 -1.6516 0.9661
3.1637 7.8578 -1.6514 0.9661
2.8793 7.9656 -1.6513 0.9661
1.4636 4.5541 -0.9326 0.9807
2.3000 8.1501 -1.6510 0.9661
2.0058 8.2266 -1.6508 0.9661
1.7090 8.2925 -1.6506 0.9661
1.4101 8.3477 -1.6505 0.9661
0.8074 8.4257 -1.6502 0.9661
0.5044 8.4484 -1.6500 0.9661
-0.4067 8.4511 -1.6495 0.9661
-0.7097 8.4303 -1.6493 0.9661
-1.0118 8.3985 -1.6492 0.9661
-1.3125 8.3559 -1.6490 0.9661
-1.6114 8.3026 -1.6488 0.9661
-1.9082 8.2386 -1.6487 0.9661
-2.7820 7.9834 -1.6482 0.9661
-3.3470 7.7618 -1.6479 0.9661
-4.1609 7.3551 -1.6475 0.9661
-4.6771 7.0364 -1.6472 0.9662
-5.1690 6.6816 -1.6469 0.9662
-5.4051 6.4912 -1.6468 0.9662
-6.0703 5.8712 -1.6464 0.9662
-6.2767 5.6491 -1.6463 0.9662
-6.6649 5.1836 -1.6461 0.9662
-6.8463 4.9407 -1.6460 0.9662
-7.0311 4.6997 -1.6488 0.9661
-7.8234 4.8322 -1.7927 0.9632
-8.0143 4.5611 -1.7977 0.9631
-8.1725 4.2703 -1.7977 0.9631
-8.3201 3.9740 -1.7976 0.9631
-8.5831 3.3665 -1.7974 0.9631
-1.7561 0.4786 -0.3548 0.9926
-1.7039 0.2097 -0.3347 0.9930
-1.7073 0.1481 -0.3341 0.9930
-1.7084 0.0866 -0.3335 0.9931
-1.7076 -0.0361 -0.3330 0.9931
-1.7069 -0.1591 -0.3342 0.9930
-1.7178 -0.3494 -0.3418 0.9929
-1.7595 -0.4917 -0.3562 0.9926
-8.6781 -3.1117 -1.7973 0.9631
-8.4331 -3.7266 -1.7974 0.9631
-8.2942 -4.0271 -1.7975 0.9631
-7.6339 -5.1737 -1.7979 0.9631
-7.0347 -5.9654 -1.7982 0.9631
-6.8165 -6.2145 -1.7983 0.9631
-6.5895 -6.4556 -1.7984 0.9631
-6.3539 -6.6885 -1.7985 0.9631
-5.8585 -7.1281 -1.7988 0.9631
-5.3328 -7.5313 -1.7991 0.9631
-4.4934 -8.0629 -1.7995 0.9631
-3.9040 -8.3660 -1.7998 0.9631
-3.6015 -8.5015 -1.8000 0.9631
-3.2943 -8.6261 -1.8002 0.9631
-2.3486 -8.9328 -1.8007 0.9631
-2.0266 -9.0122 -1.8009 0.9631
-1.7020 -9.0800 -1.8010 0.9631
-1.3751 -9.1362 -1.8012 0.9630
-1.0463 -9.1806 -1.8014 0.9630
0.2575 -8.5442 -1.8021 0.9657
1.1749 -8.4693 -1.8026 0.9657
1.1195 -6.3784 -1.3652 0.9739
1.3109 -6.1606 -1.3279 0.9746
1.5304 -6.1065 -1.3272 0.9746
1.7656 -6.1063 -1.3401 0.9744
2.0056 -6.1061 -1.3549 0.9741
2.2522 -6.1080 -1.3724 0.9737
2.5062 -6.1114 -1.3925 0.9734
2.7681 -6.1149 -1.4151 0.9729
3.3140 -6.1113 -1.4656 0.9720
5.5959 -6.4801 -1.8050 0.9656
6.0472 -6.0627 -1.8052 0.9656
6.2613 -5.8421 -1.8054 0.9656
6.8543 -5.1361 -1.8057 0.9656
7.0347 -4.8870 -1.8058 0.9656
7.2059 -4.6316 -1.8059 0.9656
7.3679 -4.3701 -1.8060 0.9656
7.9189 -3.2712 -1.8063 0.9656
8.0315 -2.9849 -1.8064 0.9656
8.1337 -2.6948 -1.8064 0.9656
8.2254 -2.4012 -1.8065 0.9656
8.3066 -2.1044 -1.8065 0.9656
8.3769 -1.8049 -1.8065 0.9656
8.4365 -1.5031 -1.8066 0.9656
8.4851 -1.1993 -1.8066 0.9656
8.5697 0.0275 -1.8067 0.9656
8.5632 0.3351 -1.8067 0.9656
8.5456 0.6422 -1.8067 0.9656
8.4774 1.2537 -1.8066 0.9656
8.3653 1.8586 -1.8066 0.9656
8.2101 2.4539 -1.8065 0.9656
8.0124 3.0364 -1.8064 0.9656
7.4676 4.1366 -1.7997 0.9657
7.0149 4.2218 -1.7260 0.9671
6.5695 4.2822 -1.6532 0.9685
6.2447 4.7421 -1.6531 0.9685
5.8877 5.1773 -1.6529 0.9685
5.5004 5.5857 -1.6527 0.9685
5.2960 5.7791 -1.6526 0.9685
5.0848 5.9651 -1.6524 0.9685
4.8670 6.1433 -1.6523 0.9685
4.6430 6.3136 -1.6522 0.9685
4.4131 6.4758 -1.6521 0.9685
3.9365 6.7746 -1.6518 0.9685
3.6905 6.9110 -1.6517 0.9685
3.4397 7.0385 -1.6516 0.9685
2.9254 7.2659 -1.6513 0.9685
1.4402 4.4811 -0.9923 0.9809
1.3053 4.6253 -1.0132 0.9805
1.8547 7.6071 -1.6507 0.9685
0.4664 7.8125 -1.6500 0.9685
-0.3761 7.8152 -1.6495 0.9685
-0.6563 7.7960 -1.6494 0.9685
-0.9357 7.7667 -1.6492 0.9685
-2.0369 7.5501 -1.6486 0.9685
-2.3064 7.4714 -1.6485 0.9685
-2.5729 7.3832 -1.6483 0.9685
-2.8360 7.2854 -1.6482 0.9685
-3.0954 7.1783 -1.6480 0.9685
-3.3508 7.0620 -1.6479 0.9686
-3.6018 6.9366 -1.6478 0.9686
-4.0896 6.6592 -1.6475 0.9686
-4.5561 6.3476 -1.6472 0.9686
-4.7807 6.1795 -1.6471 0.9686
-5.2109 5.8198 -1.6469 0.9686
-5.4161 5.6286 -1.6468 0.9686
-5.6143 5.4302 -1.6467 0.9686
-5.8052 5.2248 -1.6466 0.9686
-5.9887 5.0128 -1.6464 0.9686
-6.3322 4.5696 -1.6463 0.9686
-7.5589 3.9496 -1.7980 0.9657
-7.6955 3.6756 -1.7979 0.9657
-7.8221 3.3969 -1.7978 0.9657
-1.6255 0.5711 -0.3632 0.9930
-1.5992 0.4358 -0.3494 0.9932
-1.5836 0.3711 -0.3429 0.9934
-1.5642 0.2498 -0.3340 0.9935
-1.5727 0.1365 -0.3328 0.9936
-1.5740 0.0798 -0.3323 0.9936
-1.5739 -0.0899 -0.3324 0.9936
-1.5695 -0.3193 -0.3377 0.9935
-1.6154 -0.5146 -0.3574 0.9931
-1.6275 -0.5836 -0.3645 0.9930
-7.8000 -3.4468 -1.7978 0.9657
-7.2275 -4.5284 -1.7981 0.9657
-7.0607 -4.7852 -1.7982 0.9657
-6.8847 -5.0358 -1.7983 0.9657
-6.3045 -5.7478 -1.7986 0.9657
-6.0945 -5.9707 -1.7987 0.9657
-5.8766 -6.1860 -1.7988 0.9657
-5.6512 -6.3934 -1.7989 0.9657
-5.1786 -6.7834 -1.7992 0.9657
-4.4204 -7.3024 -1.7996 0.9657
-4.1557 -7.4570 -1.7997 0.9657
-3.8857 -7.6019 -1.7999 0.9657
-3.6106 -7.7372 -1.8000 0.9657
-3.0467 -7.9776 -1.8003 0.9657
-2.7586 -8.0825 -1.8005 0.9657
-0.9676 -8.4899 -1.8014 0.9657
-0.0458 -7.9454 -1.8019 0.9679
0.5244 -7.9296 -1.8022 0.9679
1.0921 -7.8728 -1.8026 0.9679
1.3093 -6.1535 -1.4268 0.9745
1.7655 -6.1063 -1.4415 0.9743
2.2525 -6.1088 -1.4766 0.9736
2.7707 -6.1208 -1.5237 0.9728
3.7919 -6.9928 -1.8040 0.9679
4.0408 -6.8527 -1.8042 0.9679
4.2845 -6.7037 -1.8043 0.9679
4.5227 -6.5461 -1.8044 0.9679
4.9814 -6.2056 -1.8047 0.9679
5.2013 -6.0231 -1.8048 0.9679
5.4145 -5.8329 -1.8049 0.9679
5.6207 -5.6352 -1.8050 0.9679
5.8197 -5.4301 -1.8051 0.9679
6.0113 -5.2180 -1.8052 0.9679
6.3708 -4.7738 -1.8054 0.9679
6.5384 -4.5423 -1.8055 0.9679
6.6976 -4.3049 -1.8056 0.9679
6.8481 -4.0618 -1.8057 0.9679
6.9898 -3.8136 -1.8058 0.9679
7.1225 -3.5603 -1.8059 0.9679
7.2460 -3.3025 -1.8059 0.9679
7.3601 -3.0404 -1.8060 0.9679
7.4648 -2.7743 -1.8060 0.9679
7.5598 -2.5046 -1.8061 0.9679
7.8411 -1.3970 -1.8063 0.9679
7.9607 -0.2604 -1.8063 0.9679
7.9589 0.3114 -1.8063 0.9679
7.9425 0.5969 -1.8063 0.9679
7.9159 0.8816 -1.8063 0.9679
7.8791 1.1652 -1.8063 0.9679
7.7750 1.7274 -1.8063 0.9679
7.7078 2.0054 -1.8062 0.9679
7.4470 2.8222 -1.8061 0.9679
6.8008 4.0929 -1.8001 0.9680
6.4687 4.2166 -1.7512 0.9688
5.6419 4.6128 -1.6527 0.9706
5.4724 4.8121 -1.6526 0.9706
4.9225 5.3716 -1.6524 0.9706
4.7262 5.5445 -1.6522 0.9706
4.3157 5.8685 -1.6520 0.9706
4.1020 6.0192 -1.6519 0.9706
2.9602 6.6524 -1.6513 0.9706
2.7193 6.7539 -1.6512 0.9706
2.4749 6.8466 -1.6510 0.9706
1.2121 7.1755 -1.6504 0.9706
0.9536 7.2138 -1.6502 0.9706
0.4336 7.2624 -1.6499 0.9706
0.1726 7.2726 -1.6498 0.9706
-0.0886 7.2735 -1.6497 0.9706
-0.8698 7.2200 -1.6492 0.9706
-1.6405 7.0829 -1.6488 0.9706
-2.1441 6.9457 -1.6485 0.9706
-2.6365 6.7729 -1.6483 0.9706
-2.8777 6.6734 -1.6481 0.9706
-3.1151 6.5653 -1.6480 0.9706
-3.3485 6.4487 -1.6479 0.9706
-3.5776 6.3239 -1.6478 0.9706
-3.8020 6.1909 -1.6476 0.9706
-4.0215 6.0500 -1.6475 0.9706
-4.2358 5.9013 -1.6474 0.9706
-4.6476 5.5815 -1.6472 0.9706
-4.8446 5.4107 -1.6471 0.9707
-5.0354 5.2330 -1.6470 0.9707
-5.2197 5.0485 -1.6469 0.9707
-5.3972 4.8576 -1.6468 0.9707
-5.7312 4.4574 -1.6466 0.9707
-6.5730 4.3934 -1.7930 0.9681
-6.8918 3.9222 -1.7984 0.9680
-1.4942 0.5861 -0.3640 0.9934
-1.4872 0.5225 -0.3575 0.9936
-1.4552 0.3410 -0.3390 0.9939
-1.4573 0.1264 -0.3317 0.9940
-1.4585 0.0739 -0.3312 0.9940
-1.4578 0.0215 -0.3307 0.9940
-1.4584 -0.0833 -0.3313 0.9940
-1.4534 -0.1883 -0.3324 0.9940
-1.4440 -0.2937 -0.3342 0.9940
-1.4575 -0.3514 -0.3400 0.9939
-1.4695 -0.4106 -0.3460 0.9938
-1.4886 -0.5338 -0.3586 0.9935
-7.1325 -3.4631 -1.7981 0.9680
-6.5646 -4.4490 -1.7984 0.9680
-6.4009 -4.6820 -1.7985 0.9680
-6.0492 -5.1297 -1.7987 0.9680
-5.8615 -5.3438 -1.7988 0.9680
-5.6662 -5.5511 -1.7989 0.9680
-5.2539 -5.9440 -1.7991 0.9680
-4.5854 -6.4757 -1.7995 0.9680
-3.6124 -7.0673 -1.8000 0.9680
-3.3566 -7.1930 -1.8002 0.9680
-2.8324 -7.4165 -1.8004 0.9680
-2.5645 -7.5139 -1.8006 0.9680
-1.7423 -7.7480 -1.8010 0.9680
-1.4632 -7.8062 -1.8012 0.9679
-0.8995 -7.8924 -1.8015 0.9679
-0.3091 -7.4125 -1.8018 0.9699
-0.0428 -7.4194 -1.8019 0.9699
0.4897 -7.4046 -1.8022 0.9699
0.7552 -7.3828 -1.8024 0.9699
1.2832 -7.3108 -1.8027 0.9699
1.5304 -6.1065 -1.5289 0.9744
2.8176 -6.8707 -1.8035 0.9699
3.0626 -6.7656 -1.8036 0.9699
3.3037 -6.6518 -1.8038 0.9699
4.2229 -6.1122 -1.8043 0.9699
4.6512 -5.7942 -1.8045 0.9699
5.7842 -4.6676 -1.8051 0.9699
6.3939 -3.7924 -1.8055 0.9699
6.5262 -3.5606 -1.8055 0.9699
6.9696 -2.5903 -1.8058 0.9699
7.0583 -2.3385 -1.8058 0.9699
7.2082 -1.8262 -1.8059 0.9699
7.2692 -1.5663 -1.8060 0.9699
7.3209 -1.3043 -1.8060 0.9699
7.3958 -0.7757 -1.8060 0.9699
7.4190 -0.5098 -1.8060 0.9699
7.4308 0.2908 -1.8061 0.9699
7.4156 0.5573 -1.8061 0.9699
7.3125 1.3512 -1.8060 0.9699
7.1965 1.8723 -1.8059 0.9699
7.1245 2.1294 -1.8059 0.9699
7.0433 2.3837 -1.8059 0.9699
6.6288 3.3668 -1.8057 0.9699
6.5035 3.6025 -1.8056 0.9699
6.3654 3.8308 -1.8043 0.9699
5.9800 4.2114 -1.7763 0.9703
5.5647 4.2257 -1.6970 0.9716
4.7735 4.8475 -1.6523 0.9724
4.5961 5.0154 -1.6522 0.9724
4.4129 5.1769 -1.6521 0.9724
4.0296 5.4795 -1.6519 0.9724
3.8301 5.6202 -1.6518 0.9724
3.4165 5.8797 -1.6515 0.9724
3.2030 5.9982 -1.6514 0.9724
2.9854 6.1088 -1.6513 0.9724
2.3109 6.3930 -1.6509 0.9724
1.4381 4.4748 -1.1415 0.9808
1.2988 4.6022 -1.1614 0.9805
1.6099 6.6029 -1.6506 0.9724
1.3717 6.6559 -1.6504 0.9724
1.1318 6.7003 -1.6503 0.9724
0.8905 6.7361 -1.6502 0.9724
0.6481 6.7632 -1.6501 0.9724
0.4048 6.7815 -1.6499 0.9724
-0.3265 6.7841 -1.6495 0.9724
-1.2937 6.6654 -1.6490 0.9724
-1.7683 6.5544 -1.6487 0.9724
-2.0022 6.4862 -1.6486 0.9724
-2.4621 6.3249 -1.6484 0.9724
-2.9091 6.1310 -1.6481 0.9725
-3.3410 5.9057 -1.6479 0.9725
-3.5506 5.7815 -1.6478 0.9725
-3.9557 5.5112 -1.6476 0.9725
-4.3404 5.2125 -1.6473 0.9725
-4.8747 4.7148 -1.6470 0.9725
-5.0405 4.5366 -1.6470 0.9725
-5.1998 4.3525 -1.6469 0.9725
-6.3010 3.8919 -1.7987 0.9700
-6.5635 3.4295 -1.7985 0.9700
-6.6821 3.1916 -1.7985 0.9700
-1.3743 0.5391 -0.3585 0.9939
-1.3636 0.4248 -0.3469 0.9941
-1.3555 0.3694 -0.3412 0.9942
-1.3491 0.2154 -0.3318 0.9944
-1.3540 0.1666 -0.3313 0.9944
-1.3583 0.0689 -0.3303 0.9944
-1.3582 -0.0776 -0.3304 0.9944
-1.3480 -0.2241 -0.3319 0.9944
-1.3409 -0.2728 -0.3323 0.9944
-1.3570 -0.3792 -0.3422 0.9942
-1.3769 -0.6085 -0.3656 0.9938
-6.1308 -4.1550 -1.7987 0.9700
-5.8174 -4.5846 -1.7988 0.9700
-5.4741 -4.9906 -1.7990 0.9700
-4.9067 -5.5511 -1.7993 0.9700
-4.7045 -5.7240 -1.7994 0.9700
-4.2822 -6.0476 -1.7997 0.9700
-3.3735 -6.6000 -1.8002 0.9700
-3.1347 -6.7173 -1.8003 0.9699
-2.1416 -7.0989 -1.8008 0.9699
-1.8856 -7.1717 -1.8010 0.9699
-1.6270 -7.2354 -1.8011 0.9699
-1.3664 -7.2897 -1.8012 0.9699
-1.1039 -7.3346 -1.8014 0.9699
-0.5390 -6.9337 -1.8017 0.9717
-0.0401 -6.9556 -1.8020 0.9717
0.2096 -6.9531 -1.8021 0.9717
0.4591 -6.9416 -1.8022 0.9717
0.7080 -6.9211 -1.8024 0.9717
0.9561 -6.8918 -1.8025 0.9717
1.5304 -6.1065 -1.6309 0.9743
2.4082 -6.5310 -1.8033 0.9716
2.6413 -6.4408 -1.8034 0.9716
2.8710 -6.3422 -1.8035 0.9716
3.3191 -6.1207 -1.8038 0.9716
3.5369 -5.9981 -1.8039 0.9716
3.7501 -5.8676 -1.8040 0.9716
4.5524 -5.2718 -1.8044 0.9716
4.9195 -4.9321 -1.8047 0.9716
5.0936 -4.7526 -1.8047 0.9716
5.4220 -4.3753 -1.8049 0.9716
6.1174 -3.3376 -1.8053 0.9716
6.2335 -3.1160 -1.8054 0.9716
6.3416 -2.8903 -1.8054 0.9716
6.5330 -2.4280 -1.8055 0.9716
6.6161 -2.1920 -1.8056 0.9716
6.6907 -1.9531 -1.8056 0.9716
6.7566 -1.7118 -1.8057 0.9716
6.8138 -1.4681 -1.8057 0.9716
6.8623 -1.2226 -1.8057 0.9716
6.9325 -0.7271 -1.8058 0.9716
6.9668 -0.2279 -1.8058 0.9716
6.9706 0.0223 -1.8058 0.9716
6.9652 0.2725 -1.8058 0.9716
6.9277 0.7716 -1.8058 0.9716
6.7456 1.7550 -1.8057 0.9716
6.6781 1.9960 -1.8057 0.9716
6.4244 2.7022 -1.8055 0.9716
6.0961 3.3768 -1.8054 0.9716
5.5262 4.1965 -1.7976 0.9717
4.6435 4.3887 -1.6552 0.9739
4.3084 4.7014 -1.6520 0.9740
3.7773 5.1364 -1.6517 0.9740
3.3987 5.3936 -1.6515 0.9740
3.2027 5.5117 -1.6514 0.9740
3.0025 5.6228 -1.6513 0.9740
2.7986 5.7265 -1.6512 0.9740
2.5911 5.8229 -1.6511 0.9740
2.3802 5.9118 -1.6510 0.9740
2.1663 5.9930 -1.6509 0.9740
1.4371 4.4716 -1.2168 0.9808
1.5092 6.1898 -1.6505 0.9740
1.2859 6.2395 -1.6504 0.9740
0.8348 6.3148 -1.6502 0.9740
0.6075 6.3402 -1.6500 0.9740
0.3795 6.3575 -1.6499 0.9740
0.1511 6.3665 -1.6498 0.9740
-0.3060 6.3600 -1.6495 0.9740
-0.5341 6.3444 -1.6494 0.9740
-0.9878 6.2888 -1.6492 0.9740
-1.8771 6.0809 -1.6487 0.9740
-2.0941 6.0092 -1.6486 0.9740
-2.3083 5.9297 -1.6484 0.9740
-2.9317 5.6461 -1.6481 0.9741
-3.1323 5.5368 -1.6480 0.9741
-3.3288 5.4205 -1.6479 0.9741
-4.0694 4.8870 -1.6475 0.9741
-4.5704 4.4205 -1.6472 0.9741
-4.7259 4.2534 -1.6471 0.9741
-5.4606 4.2469 -1.7921 0.9718
-5.7732 3.8589 -1.7990 0.9717
-5.9078 3.6490 -1.7989 0.9717
-6.0347 3.4345 -1.7988 0.9717
-6.1539 3.2155 -1.7987 0.9717
-1.2893 0.5599 -0.3641 0.9942
-1.2890 0.5056 -0.3587 0.9943
-1.2805 0.3490 -0.3438 0.9945
-1.2765 0.2991 -0.3397 0.9946
-1.2799 0.2518 -0.3379 0.9946
-1.2877 0.1585 -0.3361 0.9947
-1.2899 0.1119 -0.3354 0.9947
-1.2910 0.0654 -0.3349 0.9947
-1.2909 0.0190 -0.3344 0.9947
-1.2910 -0.0273 -0.3345 0.9947
-1.2909 -0.0737 -0.3350 0.9947
-1.2872 -0.1668 -0.3363 0.9947
-1.2837 -0.2135 -0.3371 0.9946
-1.2771 -0.3079 -0.3403 0.9946
-1.2852 -0.4094 -0.3494 0.9944
-1.2892 -0.5152 -0.3597 0.9943
-1.2892 -0.5697 -0.3651 0.9942
-1.2879 -0.6253 -0.3709 0.9941
-6.1330 -3.2548 -1.7987 0.9717
-5.8841 -3.6867 -1.7988 0.9717
-5.7482 -3.8957 -1.7989 0.9717
-5.2968 -4.4916 -1.7991 0.9717
-5.1324 -4.6791 -1.7992 0.9717
-4.7839 -5.0358 -1.7994 0.9717
-4.6003 -5.2046 -1.7995 0.9717
-4.4108 -5.3666 -1.7996 0.9717
-4.0149 -5.6699 -1.7998 0.9717
-3.8090 -5.8108 -1.7999 0.9717
-3.5981 -5.9441 -1.8000 0.9717
-2.9389 -6.2977 -1.8004 0.9717
-2.4798 -6.4932 -1.8006 0.9717
-2.2453 -6.5785 -1.8008 0.9717
-1.7677 -6.7236 -1.8010 0.9717
-1.5254 -6.7832 -1.8011 0.9717
-1.2810 -6.8341 -1.8013 0.9717
-0.7875 -6.9094 -1.8015 0.9717
-0.2726 -6.5372 -1.8018 0.9732
-0.0378 -6.5433 -1.8020 0.9732
0.1971 -6.5409 -1.8021 0.9732
0.4319 -6.5300 -1.8022 0.9732
0.6660 -6.5108 -1.8023 0.9732
0.8994 -6.4831 -1.8025 0.9732
1.3624 -6.4028 -1.8027 0.9732
2.2654 -6.1436 -1.8032 0.9732
2.9133 -5.8656 -1.8036 0.9732
3.3270 -5.6421 -1.8038 0.9732
3.9149 -5.2527 -1.8041 0.9732
4.2822 -4.9588 -1.8043 0.9732
4.6274 -4.6393 -1.8045 0.9732
4.7912 -4.4705 -1.8046 0.9732
4.9489 -4.2958 -1.8047 0.9732
5.1001 -4.1156 -1.8048 0.9732
5.2448 -3.9300 -1.8048 0.9732
5.3827 -3.7394 -1.8049 0.9732
5.6376 -3.3438 -1.8051 0.9732
5.8633 -2.9309 -1.8052 0.9732
5.9650 -2.7187 -1.8052 0.9732
6.1450 -2.2838 -1.8053 0.9732
6.2232 -2.0618 -1.8054 0.9732
6.2933 -1.8371 -1.8054 0.9732
6.3553 -1.6101 -1.8055 0.9732
6.4091 -1.3809 -1.8055 0.9732
6.4547 -1.1500 -1.8055 0.9732
6.5565 0.0210 -1.8056 0.9732
6.5515 0.2564 -1.8056 0.9732
6.5162 0.7257 -1.8056 0.9732
6.4472 1.1914 -1.8055 0.9732
6.4002 1.4220 -1.8055 0.9732
6.2815 1.8775 -1.8055 0.9732
6.2099 2.1017 -1.8054 0.9732
5.9476 2.7569 -1.8053 0.9732
5.7341 3.1763 -1.8052 0.9732
5.6162 3.3800 -1.8051 0.9732
5.4910 3.5793 -1.8050 0.9732
5.3580 3.7733 -1.8047 0.9732
4.7919 4.2137 -1.7573 0.9739
4.2090 4.2742 -1.6520 0.9754
3.7245 4.7012 -1.6517 0.9754
3.5531 4.8316 -1.6516 0.9754
3.1970 5.0735 -1.6514 0.9754
2.0378 5.6375 -1.6508 0.9754
1.4196 5.8227 -1.6505 0.9754
1.2096 5.8695 -1.6503 0.9754
0.9981 5.9087 -1.6502 0.9754
0.7853 5.9403 -1.6501 0.9754
-0.2879 5.9830 -1.6495 0.9755
-0.7163 5.9461 -1.6493 0.9755
-0.9292 5.9161 -1.6492 0.9755
-1.3511 5.8334 -1.6490 0.9755
-1.5595 5.7807 -1.6489 0.9755
-1.7659 5.7206 -1.6487 0.9755
-2.3702 5.4965 -1.6484 0.9755
-2.7581 5.3116 -1.6482 0.9755
-2.9468 5.2089 -1.6481 0.9755
-3.1317 5.0995 -1.6480 0.9755
-3.4891 4.8610 -1.6478 0.9755
-3.6611 4.7324 -1.6477 0.9755
-3.9908 4.4570 -1.6475 0.9755
-4.1480 4.3107 -1.6474 0.9755
-4.9917 4.1782 -1.7926 0.9734
-5.1473 4.0033 -1.7957 0.9733
-5.2971 3.8227 -1.7989 0.9733
-5.4315 3.6305 -1.7991 0.9733
-5.5581 3.4330 -1.7991 0.9733
-5.6776 3.2312 -1.7990 0.9733
-1.2200 0.6375 -0.3791 0.9943
-1.2235 0.5844 -0.3734 0.9944
-1.2261 0.4809 -0.3627 0.9946
-1.2212 0.2862 -0.3454 0.9948
-1.2346 0.1520 -0.3425 0.9949
-1.2379 0.0628 -0.3413 0.9949
-1.2377 0.0183 -0.3409 0.9949
-1.2378 -0.0262 -0.3409 0.9949
-1.2340 -0.1599 -0.3427 0.9949
-1.2305 -0.2046 -0.3435 0.9948
-1.2259 -0.2494 -0.3445 0.9948
-1.2223 -0.3416 -0.3495 0.9947
-1.2261 -0.4900 -0.3636 0.9945
-1.2252 -0.5414 -0.3689 0.9945
-1.2230 -0.5938 -0.3744 0.9944
-1.2193 -0.6471 -0.3801 0.9943
-5.6566 -3.2674 -1.7989 0.9733
-5.4080 -3.6651 -1.7991 0.9733
-4.5007 -4.7377 -1.7996 0.9733
-4.3280 -4.8964 -1.7997 0.9733
-3.5834 -5.4667 -1.8000 0.9732
-3.3851 -5.5921 -1.8002 0.9732
-3.1823 -5.7104 -1.8003 0.9732
-2.5505 -6.0205 -1.8006 0.9732
-2.3329 -6.1086 -1.8007 0.9732
-1.8889 -6.2610 -1.8010 0.9732
-1.6630 -6.3252 -1.8011 0.9732
-1.2051 -6.4291 -1.8013 0.9732
-0.9736 -6.4687 -1.8015 0.9732
-0.4784 -6.1549 -1.8017 0.9746
-0.2572 -6.1685 -1.8018 0.9746
-0.0356 -6.1742 -1.8020 0.9746
0.6284 -6.1435 -1.8023 0.9746
0.8486 -6.1174 -1.8024 0.9746
1.0677 -6.0833 -1.8026 0.9746
1.2855 -6.0415 -1.8027 0.9746
1.5016 -5.9918 -1.8028 0.9746
1.7159 -5.9345 -1.8029 0.9746
1.9279 -5.8694 -1.8030 0.9746
2.1375 -5.7968 -1.8031 0.9746
2.3443 -5.7167 -1.8033 0.9746
2.9459 -5.4325 -1.8036 0.9746
3.1391 -5.3236 -1.8037 0.9746
3.3284 -5.2078 -1.8038 0.9746
3.5134 -5.0852 -1.8039 0.9746
3.8696 -4.8206 -1.8041 0.9746
4.5206 -4.2179 -1.8044 0.9746
4.8120 -3.8831 -1.8046 0.9746
4.9485 -3.7080 -1.8047 0.9746
5.2022 -3.3437 -1.8048 0.9746
5.3191 -3.1549 -1.8049 0.9746
5.4291 -2.9620 -1.8049 0.9746
5.6279 -2.5650 -1.8051 0.9746
5.7165 -2.3614 -1.8051 0.9746
5.8715 -1.9453 -1.8052 0.9746
6.0899 -1.0850 -1.8053 0.9746
6.1250 -0.8657 -1.8053 0.9746
6.1522 -0.6453 -1.8054 0.9746
6.1813 0.2419 -1.8054 0.9746
6.1686 0.4636 -1.8054 0.9746
6.1480 0.6847 -1.8054 0.9746
6.0829 1.1240 -1.8053 0.9746
6.0385 1.3416 -1.8053 0.9746
5.9864 1.5575 -1.8053 0.9746
5.9266 1.7714 -1.8053 0.9746
5.7839 2.1919 -1.8052 0.9746
5.7014 2.3981 -1.8051 0.9746
5.4101 2.9969 -1.8050 0.9746
5.2989 3.1890 -1.8049 0.9746
5.1808 3.3771 -1.8049 0.9746
4.9248 3.7398 -1.8047 0.9746
4.6297 4.0711 -1.7993 0.9746
4.4521 4.2078 -1.7878 0.9748
4.1541 4.2185 -1.7279 0.9756
3.8748 4.2283 -1.6738 0.9764
3.6713 4.3069 -1.6517 0.9767
3.3525 4.5587 -1.6515 0.9767
3.1865 4.6759 -1.6514 0.9767
3.0164 4.7870 -1.6513 0.9767
2.8425 4.8919 -1.6512 0.9767
2.6649 4.9905 -1.6511 0.9767
2.4839 5.0827 -1.6510 0.9767
2.2997 5.1682 -1.6509 0.9767
1.9228 5.3193 -1.6507 0.9767
1.4350 4.4652 -1.3688 0.9806
1.3395 5.4941 -1.6504 0.9767
1.1414 5.5383 -1.6503 0.9767
0.9418 5.5753 -1.6502 0.9767
0.5393 5.6278 -1.6500 0.9767
0.1341 5.6512 -1.6498 0.9767
-0.0688 5.6520 -1.6497 0.9767
-0.6759 5.6107 -1.6493 0.9767
-0.8768 5.5825 -1.6492 0.9767
-1.2749 5.5045 -1.6490 0.9767
-1.6664 5.3981 -1.6488 0.9767
-2.2366 5.1867 -1.6485 0.9767
-2.4212 5.1028 -1.6484 0.9767
-2.6026 5.0123 -1.6483 0.9767
-3.2925 4.5871 -1.6479 0.9767
-3.4548 4.4657 -1.6478 0.9767
-3.7825 4.2244 -1.6549 0.9766
-4.0552 4.2142 -1.7069 0.9759
-4.3471 4.2045 -1.7650 0.9751
-4.7197 3.9506 -1.7963 0.9747
-4.9995 3.6079 -1.7994 0.9746
-5.2451 3.2397 -1.7992 0.9746
-1.1548 0.6572 -0.3878 0.9945
-1.1604 0.6063 -0.3821 0.9946
-1.1672 0.5069 -0.3714 0.9947
-1.1686 0.4583 -0.3663 0.9948
-1.1687 0.4106 -0.3615 0.9949
-1.1697 0.3644 -0.3576 0.9949
-1.1695 0.3187 -0.3538 0.9950
-1.1720 0.2746 -0.3513 0.9950
-1.1819 0.1887 -0.3493 0.9950
-1.1874 0.1030 -0.3478 0.9950
-1.1883 0.0175 -0.3468 0.9951
-1.1883 -0.0679 -0.3474 0.9951
-1.1812 -0.1964 -0.3495 0.9950
-1.1697 -0.3268 -0.3544 0.9950
-1.1696 -0.3726 -0.3582 0.9949
-1.1688 -0.4191 -0.3624 0.9948
-1.1684 -0.4670 -0.3672 0.9948
-1.1668 -0.5156 -0.3723 0.9947
-1.1595 -0.6153 -0.3831 0.9945
-5.2241 -3.2732 -1.7992 0.9746
-4.7025 -3.9878 -1.7995 0.9746
-4.0841 -4.6206 -1.7998 0.9746
-3.3815 -5.1586 -1.8002 0.9746
-3.1943 -5.2770 -1.8003 0.9746
-3.0030 -5.3885 -1.8004 0.9746
-2.8078 -5.4932 -1.8005 0.9746
-2.4067 -5.6811 -1.8007 0.9746
-2.2014 -5.7642 -1.8008 0.9746
-1.9932 -5.8399 -1.8009 0.9746
-1.3541 -6.0215 -1.8012 0.9746
-0.9187 -6.1039 -1.8015 0.9746
-0.4527 -5.8235 -1.8017 0.9758
-0.2434 -5.8364 -1.8019 0.9758
-0.0337 -5.8417 -1.8020 0.9758
0.1760 -5.8396 -1.8021 0.9758
0.3855 -5.8298 -1.8022 0.9758
0.5946 -5.8126 -1.8023 0.9758
1.2162 -5.7161 -1.8026 0.9758
1.6234 -5.6147 -1.8029 0.9758
1.8240 -5.5532 -1.8030 0.9758
2.7871 -5.1398 -1.8035 0.9758
2.9700 -5.0367 -1.8036 0.9758
3.4948 -4.6890 -1.8039 0.9758
3.6610 -4.5607 -1.8040 0.9758
4.1307 -4.1413 -1.8042 0.9758
4.4176 -3.8346 -1.8044 0.9758
4.5525 -3.6737 -1.8045 0.9758
5.2337 -2.6162 -1.8048 0.9758
5.3244 -2.4267 -1.8049 0.9758
5.4082 -2.2341 -1.8049 0.9758
5.5548 -1.8404 -1.8050 0.9758
5.6174 -1.6398 -1.8051 0.9758
5.6727 -1.4372 -1.8051 0.9758
5.7208 -1.2326 -1.8051 0.9758
5.7614 -1.0265 -1.8051 0.9758
5.8203 -0.6105 -1.8052 0.9758
5.8385 -0.4012 -1.8052 0.9758
5.8523 0.0188 -1.8052 0.9758
5.8479 0.2288 -1.8052 0.9758
5.8358 0.4386 -1.8052 0.9758
5.7893 0.8561 -1.8052 0.9758
5.7548 1.0634 -1.8052 0.9758
5.6635 1.4735 -1.8051 0.9758
5.4720 2.0737 -1.8050 0.9758
5.3088 2.4608 -1.8049 0.9758
5.1183 2.8352 -1.8048 0.9758
5.0131 3.0170 -1.8048 0.9758
4.9014 3.1949 -1.8047 0.9758
4.6592 3.5381 -1.8046 0.9758
4.3888 3.8592 -1.8027 0.9758
4.2413 4.0085 -1.8001 0.9759
4.0889 4.1523 -1.7976 0.9759
3.8598 4.2119 -1.7622 0.9764
3.5982 4.2211 -1.7109 0.9770
3.1718 4.3130 -1.6514 0.9778
3.0148 4.4238 -1.6513 0.9778
2.5213 4.7215 -1.6510 0.9778
2.3501 4.8087 -1.6510 0.9778
1.9988 4.9644 -1.6508 0.9778
1.2674 5.1981 -1.6504 0.9779
0.8911 5.2750 -1.6502 0.9779
-0.0651 5.3476 -1.6497 0.9779
-0.6395 5.3087 -1.6493 0.9779
-1.0186 5.2484 -1.6491 0.9779
-1.3924 5.1612 -1.6489 0.9779
-2.1162 4.9076 -1.6485 0.9779
-2.2909 4.8282 -1.6484 0.9779
-2.4626 4.7426 -1.6484 0.9779
-2.9577 4.4496 -1.6481 0.9779
-3.5118 4.2174 -1.6928 0.9773
-3.7678 4.2080 -1.7423 0.9766
-4.0292 4.1873 -1.7925 0.9760
-4.3307 3.8977 -1.7972 0.9759
-4.9631 3.0655 -1.7994 0.9759
-1.1058 0.5778 -0.3848 0.9948
-1.1137 0.4837 -0.3745 0.9949
-1.1164 0.4379 -0.3699 0.9950
-1.1205 0.3491 -0.3620 0.9951
-1.1262 0.2639 -0.3568 0.9952
-1.1316 0.2226 -0.3557 0.9952
-1.1360 0.1814 -0.3548 0.9952
-1.1414 0.0990 -0.3534 0.9952
-1.1423 0.0169 -0.3524 0.9952
-1.1423 -0.0242 -0.3524 0.9952
-1.1423 -0.0653 -0.3529 0.9952
-1.1387 -0.1476 -0.3542 0.9952
-1.1251 -0.2713 -0.3570 0.9952
-1.1204 -0.3569 -0.3627 0.9951
-1.1132 -0.4920 -0.3754 0.9949
-1.1097 -0.5388 -0.3805 0.9948
-1.1048 -0.5863 -0.3858 0.9948
-1.0985 -0.6345 -0.3913 0.9947
-4.7085 -3.4441 -1.7995 0.9759
-4.5821 -3.6110 -1.7995 0.9759
-4.1678 -4.0832 -1.7997 0.9759
-4.0187 -4.2303 -1.7998 0.9759
-3.8645 -4.3721 -1.7999 0.9759
-3.3726 -4.7629 -1.8002 0.9759
-3.1996 -4.8811 -1.8003 0.9759
-3.0225 -4.9931 -1.8004 0.9759
-2.8414 -5.0986 -1.8005 0.9759
-2.6567 -5.1976 -1.8006 0.9759
-2.4686 -5.2899 -1.8007 0.9759
-2.2772 -5.3754 -1.8008 0.9759
-1.8859 -5.5256 -1.8010 0.9759
-1.6864 -5.5901 -1.8011 0.9759
-1.4848 -5.6474 -1.8012 0.9759
-1.2812 -5.6974 -1.8013 0.9759
-0.8692 -5.7753 -1.8015 0.9758
-0.6614 -5.8032 -1.8016 0.9758
-0.4294 -5.5233 -1.8018 0.9770
-0.0320 -5.5406 -1.8020 0.9770
0.1669 -5.5385 -1.8021 0.9770
0.3657 -5.5292 -1.8022 0.9770
0.5639 -5.5129 -1.8023 0.9770
0.9581 -5.4589 -1.8025 0.9770
1.3475 -5.3767 -1.8027 0.9770
1.5397 -5.3252 -1.8028 0.9770
1.7300 -5.2668 -1.8029 0.9770
2.1036 -5.1296 -1.8031 0.9769
2.2865 -5.0511 -1.8032 0.9769
2.4665 -4.9661 -1.8033 0.9769
2.6433 -4.8746 -1.8034 0.9769
2.8167 -4.7768 -1.8035 0.9769
2.9865 -4.6729 -1.8036 0.9769
3.9175 -3.9275 -1.8041 0.9769
4.0561 -3.7846 -1.8042 0.9769
4.1895 -3.6367 -1.8043 0.9769
4.3175 -3.4841 -1.8043 0.9769
4.4400 -3.3270 -1.8044 0.9769
4.6676 -3.0001 -1.8045 0.9769
4.8711 -2.6576 -1.8046 0.9769
4.9635 -2.4811 -1.8047 0.9769
5.0495 -2.3014 -1.8047 0.9769
5.2680 -1.7454 -1.8049 0.9769
5.3798 -1.3629 -1.8049 0.9769
5.4254 -1.1690 -1.8050 0.9769
5.4639 -0.9735 -1.8050 0.9769
5.5471 -0.1815 -1.8050 0.9769
5.5501 0.0178 -1.8050 0.9769
5.5459 0.2170 -1.8050 0.9769
5.5345 0.4159 -1.8050 0.9769
5.4903 0.8119 -1.8050 0.9769
5.3710 1.3974 -1.8050 0.9769
5.3173 1.5893 -1.8049 0.9769
5.2568 1.7791 -1.8049 0.9769
5.1894 1.9666 -1.8049 0.9769
5.1154 2.1516 -1.8048 0.9769
4.9476 2.5129 -1.8047 0.9769
4.8541 2.6888 -1.8047 0.9769
4.7543 2.8613 -1.8046 0.9769
4.6484 3.0300 -1.8046 0.9769
4.5365 3.1948 -1.8045 0.9769
4.2953 3.5118 -1.8044 0.9769
4.1663 3.6636 -1.8043 0.9769
4.0299 3.8087 -1.8034 0.9769
3.8854 3.9457 -1.8010 0.9770
2.7066 4.2953 -1.6511 0.9789
2.3912 4.4779 -1.6510 0.9789
1.8957 4.7083 -1.6507 0.9789
1.7253 4.7730 -1.6506 0.9789
1.4329 4.4586 -1.5231 0.9805
0.1203 5.0712 -1.6498 0.9789
-0.2438 5.0662 -1.6496 0.9789
-0.4255 5.0538 -1.6495 0.9789
-0.6066 5.0350 -1.6494 0.9789
-1.1441 4.9398 -1.6491 0.9789
-1.3206 4.8952 -1.6490 0.9789
-1.6682 4.7873 -1.6488 0.9789
-1.8389 4.7241 -1.6487 0.9789
-2.0072 4.6548 -1.6486 0.9789
-2.1729 4.5795 -1.6485 0.9789
-2.8112 4.2292 -1.6516 0.9789
-3.0279 4.2186 -1.6888 0.9784
-3.4986 4.2016 -1.7782 0.9773
-3.6796 4.1095 -1.7940 0.9771
-4.1135 3.7022 -1.7999 0.9770
-4.2435 3.5520 -1.7998 0.9770
-4.3681 3.3973 -1.7997 0.9770
-1.0492 0.5971 -0.3926 0.9949
-1.0556 0.5516 -0.3874 0.9950
-1.0607 0.5066 -0.3823 0.9951
-1.0700 0.4197 -0.3738 0.9952
-1.0750 0.3349 -0.3662 0.9953
-1.0770 0.2935 -0.3631 0.9953
-1.0835 0.2539 -0.3619 0.9953
-1.0888 0.2142 -0.3609 0.9953
-1.0984 0.0953 -0.3586 0.9954
-1.0993 0.0557 -0.3580 0.9954
-1.0994 -0.0233 -0.3576 0.9954
-1.0924 -0.1816 -0.3602 0.9954
-1.0758 -0.3006 -0.3633 0.9953
-1.0747 -0.3423 -0.3668 0.9953
-1.0726 -0.3846 -0.3706 0.9952
-1.0693 -0.4273 -0.3745 0.9952
-1.0546 -0.5597 -0.3883 0.9950
-1.0479 -0.6053 -0.3936 0.9949
-1.0398 -0.6515 -0.3990 0.9949
-4.5804 -3.1042 -1.7995 0.9770
-4.4661 -3.2668 -1.7996 0.9770
-4.3461 -3.4251 -1.7997 0.9770
-4.2205 -3.5790 -1.7997 0.9770
-4.0895 -3.7284 -1.7998 0.9770
-3.8118 -4.0125 -1.7999 0.9770
-3.6655 -4.1469 -1.8000 0.9770
-3.5144 -4.2760 -1.8001 0.9770
-3.3588 -4.3996 -1.8002 0.9770
-3.1989 -4.5175 -1.8003 0.9770
-2.5199 -4.9299 -1.8006 0.9770
-2.3414 -5.0174 -1.8007 0.9770
-2.1599 -5.0985 -1.8008 0.9770
-1.5996 -5.3021 -1.8011 0.9770
-1.4083 -5.3563 -1.8012 0.9770
-1.0205 -5.4442 -1.8014 0.9770
-0.8244 -5.4777 -1.8015 0.9770
0.1587 -5.2644 -1.8021 0.9780
0.3476 -5.2556 -1.8022 0.9780
0.7238 -5.2177 -1.8024 0.9780
1.0964 -5.1529 -1.8026 0.9780
1.2808 -5.1105 -1.8027 0.9780
1.6443 -5.0060 -1.8029 0.9780
2.3443 -4.7201 -1.8033 0.9780
2.6772 -4.5402 -1.8034 0.9780
2.9963 -4.3368 -1.8036 0.9780
3.3001 -4.1111 -1.8038 0.9780
3.5868 -3.8640 -1.8039 0.9780
4.1036 -3.3114 -1.8042 0.9780
4.2200 -3.1621 -1.8043 0.9780
4.3309 -3.0087 -1.8044 0.9780
4.5359 -2.6904 -1.8045 0.9780
4.6297 -2.5259 -1.8045 0.9780
4.7175 -2.3581 -1.8046 0.9779
4.8748 -2.0137 -1.8047 0.9779
4.9440 -1.8375 -1.8047 0.9779
5.0069 -1.6588 -1.8047 0.9779
5.1132 -1.2954 -1.8048 0.9779
5.1931 -0.9252 -1.8048 0.9779
5.2230 -0.7382 -1.8049 0.9779
5.2750 0.0169 -1.8049 0.9779
5.2425 0.5839 -1.8049 0.9779
5.2182 0.7717 -1.8049 0.9779
5.1493 1.1441 -1.8048 0.9779
4.9322 1.8691 -1.8047 0.9779
4.7852 2.2181 -1.8046 0.9779
4.7024 2.3884 -1.8046 0.9779
4.5187 2.7195 -1.8045 0.9780
4.4180 2.8798 -1.8045 0.9780
4.3116 3.0365 -1.8044 0.9780
4.1997 3.1892 -1.8043 0.9780
3.8321 3.6218 -1.8041 0.9780
3.5579 3.8825 -1.8019 0.9780
2.8718 4.2141 -1.7449 0.9787
2.6598 4.2209 -1.7070 0.9791
2.4562 4.2271 -1.6728 0.9795
2.2728 4.2562 -1.6509 0.9798
2.1184 4.3348 -1.6508 0.9798
1.8018 4.4751 -1.6507 0.9798
1.4318 4.4553 -1.6012 0.9804
1.2790 4.5322 -1.6113 0.9803
1.1425 4.6859 -1.6503 0.9798
0.6320 4.7808 -1.6500 0.9798
0.1144 4.8202 -1.6497 0.9798
-0.4044 4.8038 -1.6495 0.9798
-0.5766 4.7859 -1.6494 0.9798
-1.0875 4.6954 -1.6491 0.9798
-1.2553 4.6530 -1.6490 0.9798
-1.4214 4.6047 -1.6489 0.9798
-1.5857 4.5505 -1.6488 0.9798
-1.7479 4.4904 -1.6487 0.9798
-1.9079 4.4245 -1.6486 0.9798
-2.0654 4.3529 -1.6486 0.9798
-3.0171 4.2035 -1.7704 0.9784
-3.2076 4.1462 -1.7936 0.9781
-3.6465 3.7895 -1.7994 0.9780
-3.7814 3.6574 -1.8000 0.9780
-3.9101 3.5192 -1.8000 0.9780
-4.1522 3.2293 -1.7998 0.9780
-4.2653 3.0781 -1.7998 0.9780
-1.0167 0.4856 -0.3855 0.9952
-1.0269 0.4028 -0.3774 0.9953
-1.0303 0.3620 -0.3736 0.9954
-1.0435 0.2445 -0.3667 0.9955
-1.0487 0.2063 -0.3657 0.9955
-1.0529 0.1682 -0.3648 0.9955
-1.0560 0.1300 -0.3641 0.9955
-1.0581 0.0918 -0.3634 0.9955
-1.0591 0.0537 -0.3628 0.9955
-1.0591 0.0156 -0.3624 0.9955
-1.0592 -0.0224 -0.3625 0.9955
-1.0590 -0.0605 -0.3629 0.9955
-1.0578 -0.0986 -0.3635 0.9955
-1.0556 -0.1368 -0.3642 0.9955
-1.0523 -0.1750 -0.3650 0.9955
-1.0359 -0.2895 -0.3680 0.9955
-1.0298 -0.3692 -0.3743 0.9954
-1.0262 -0.4101 -0.3781 0.9953
-1.0214 -0.4514 -0.3821 0.9953
-1.0084 -0.5351 -0.3906 0.9952
-0.9929 -0.6221 -0.4009 0.9951
-0.9831 -0.6663 -0.4064 0.9950
-4.2454 -3.1053 -1.7997 0.9780
-4.1313 -3.2558 -1.7998 0.9780
-3.8874 -3.5441 -1.7999 0.9780
-3.7578 -3.6815 -1.8000 0.9780
-3.6233 -3.8141 -1.8000 0.9780
-3.4842 -3.9419 -1.8001 0.9780
-3.3406 -4.0646 -1.8002 0.9780
-3.1927 -4.1821 -1.8003 0.9780
-3.0407 -4.2942 -1.8004 0.9780
-2.8847 -4.4008 -1.8004 0.9780
-2.3952 -4.6861 -1.8007 0.9780
-2.0531 -4.8463 -1.8009 0.9780
-1.8779 -4.9172 -1.8010 0.9780
-1.7003 -4.9817 -1.8011 0.9780
-1.1550 -5.1364 -1.8014 0.9780
-0.9700 -5.1749 -1.8015 0.9780
-0.5963 -5.2317 -1.8017 0.9780
-0.2090 -5.0110 -1.8019 0.9789
0.1511 -5.0136 -1.8021 0.9789
0.6893 -4.9691 -1.8024 0.9789
0.8673 -4.9415 -1.8025 0.9789
1.0442 -4.9074 -1.8026 0.9789
1.5659 -4.7674 -1.8028 0.9789
1.9042 -4.6433 -1.8030 0.9789
2.2326 -4.4952 -1.8032 0.9789
2.3926 -4.4123 -1.8033 0.9789
2.7033 -4.2297 -1.8035 0.9789
2.8535 -4.1301 -1.8035 0.9789
3.0001 -4.0252 -1.8036 0.9789
3.4158 -3.6798 -1.8038 0.9789
3.5459 -3.5550 -1.8039 0.9789
3.6713 -3.4255 -1.8040 0.9789
3.7921 -3.2917 -1.8041 0.9789
4.0187 -3.0113 -1.8042 0.9789
4.2247 -2.7154 -1.8043 0.9789
4.4925 -2.2457 -1.8044 0.9789
4.6423 -1.9177 -1.8045 0.9789
4.7082 -1.7498 -1.8046 0.9789
4.8693 -1.2336 -1.8047 0.9789
4.9454 -0.8811 -1.8047 0.9789
4.9959 -0.5240 -1.8047 0.9789
5.0115 -0.3444 -1.8047 0.9789
5.0207 -0.1642 -1.8048 0.9789
5.0233 0.0161 -1.8048 0.9789
5.0092 0.3765 -1.8048 0.9789
4.9925 0.5560 -1.8047 0.9789
4.9397 0.9128 -1.8047 0.9789
4.8613 1.2648 -1.8047 0.9789
4.8127 1.4385 -1.8047 0.9789
4.7579 1.6103 -1.8046 0.9789
4.6300 1.9474 -1.8046 0.9789
4.5570 2.1123 -1.8045 0.9789
4.4781 2.2745 -1.8045 0.9789
4.3935 2.4337 -1.8044 0.9789
4.1060 2.8917 -1.8043 0.9789
3.9995 3.0371 -1.8042 0.9789
3.8877 3.1786 -1.8042 0.9789
3.7710 3.3160 -1.8041 0.9789
3.6494 3.4491 -1.8040 0.9789
3.3923 3.7018 -1.8039 0.9789
3.2552 3.8187 -1.8028 0.9789
3.1126 3.9289 -1.8008 0.9789
2.9665 4.0339 -1.7990 0.9789
2.6505 4.2062 -1.7862 0.9791
2.4478 4.2127 -1.7504 0.9795
2.2527 4.2185 -1.7181 0.9799
2.0641 4.2237 -1.6890 0.9802
1.8815 4.2284 -1.6627 0.9805
1.7159 4.2619 -1.6506 0.9807
1.5617 4.3205 -1.6505 0.9807
1.4056 4.3735 -1.6504 0.9807
1.2476 4.4210 -1.6504 0.9807
1.0881 4.4627 -1.6503 0.9807
0.6019 4.5530 -1.6500 0.9807
0.4381 4.5715 -1.6499 0.9807
0.2737 4.5840 -1.6498 0.9807
0.1089 4.5906 -1.6497 0.9807
-0.2207 4.5861 -1.6496 0.9807
-0.3852 4.5750 -1.6495 0.9807
-0.7123 4.5351 -1.6493 0.9807
-1.3538 4.3855 -1.6489 0.9807
-1.8232 4.2279 -1.6542 0.9806
-2.0030 4.2215 -1.6787 0.9803
-2.3818 4.2102 -1.7379 0.9797
-3.2036 3.8473 -1.7987 0.9789
-3.4743 3.6106 -1.8002 0.9789
-3.6015 3.4834 -1.8001 0.9789
-3.8419 3.2158 -1.8000 0.9789
-0.9417 0.6294 -0.4069 0.9952
-0.9761 0.4662 -0.3886 0.9954
-0.9820 0.4265 -0.3846 0.9955
-0.9904 0.3480 -0.3771 0.9955
-0.9929 0.3093 -0.3736 0.9956
-0.9998 0.2725 -0.3723 0.9956
-1.0059 0.2357 -0.3712 0.9956
-1.0111 0.1989 -0.3702 0.9956
-1.0152 0.1621 -0.3694 0.9956
-1.0182 0.1253 -0.3686 0.9956
-1.0213 0.0518 -0.3674 0.9957
-1.0214 -0.0216 -0.3670 0.9957
-1.0212 -0.0583 -0.3675 0.9957
-1.0178 -0.1319 -0.3687 0.9956
-0.9925 -0.3162 -0.3743 0.9956
-0.9811 -0.4335 -0.3853 0.9955
-0.9749 -0.4734 -0.3894 0.9954
-3.7024 -3.3755 -1.8000 0.9789
-3.5790 -3.5063 -1.8001 0.9789
-3.4510 -3.6326 -1.8001 0.9789
-2.7474 -4.1913 -1.8005 0.9789
-2.5953 -4.2875 -1.8006 0.9789
-2.4399 -4.3781 -1.8007 0.9789
-2.1197 -4.5423 -1.8008 0.9789
-1.7885 -4.6831 -1.8010 0.9789
-1.6193 -4.7445 -1.8011 0.9789
-1.4480 -4.7998 -1.8012 0.9789
-1.2749 -4.8490 -1.8013 0.9789
-1.1000 -4.8919 -1.8014 0.9789
-0.9238 -4.9285 -1.8015 0.9789
-0.7463 -4.9587 -1.8016 0.9789
-0.5679 -4.9826 -1.8017 0.9789
-0.3708 -4.7704 -1.8018 0.9798
-0.1994 -4.7808 -1.8019 0.9798
-0.0276 -4.7852 -1.8020 0.9798
0.3158 -4.7753 -1.8022 0.9798
0.6577 -4.7408 -1.8023 0.9798
1.3297 -4.5988 -1.8027 0.9797
1.6564 -4.4920 -1.8029 0.9797
1.8166 -4.4299 -1.8030 0.9797
1.9746 -4.3620 -1.8031 0.9797
2.1300 -4.2885 -1.8031 0.9797
2.2827 -4.2095 -1.8032 0.9797
2.9983 -3.7351 -1.8036 0.9797
3.3828 -3.3915 -1.8038 0.9797
3.6177 -3.1403 -1.8040 0.9797
3.7282 -3.0085 -1.8040 0.9797
3.8339 -2.8728 -1.8041 0.9797
3.9347 -2.7334 -1.8041 0.9797
4.2061 -2.2948 -1.8043 0.9797
4.3601 -1.9872 -1.8044 0.9797
4.4916 -1.6693 -1.8045 0.9797
4.6000 -1.3428 -1.8045 0.9797
4.6453 -1.1769 -1.8045 0.9797
4.7179 -0.8406 -1.8046 0.9797
4.7450 -0.6707 -1.8046 0.9797
4.7661 -0.4999 -1.8046 0.9797
4.7810 -0.3285 -1.8046 0.9797
4.7923 0.0154 -1.8046 0.9797
4.7886 0.1874 -1.8046 0.9797
4.7788 0.3591 -1.8046 0.9797
4.7628 0.5304 -1.8046 0.9797
4.7124 0.8708 -1.8046 0.9797
4.5913 1.3723 -1.8045 0.9797
4.5391 1.5362 -1.8045 0.9797
4.4809 1.6981 -1.8045 0.9797
4.3474 2.0151 -1.8044 0.9797
4.2721 2.1698 -1.8044 0.9797
4.1052 2.4706 -1.8043 0.9797
4.0138 2.6163 -1.8042 0.9797
3.7089 3.0324 -1.8041 0.9797
3.1073 3.6453 -1.8038 0.9797
2.8349 3.8549 -1.8019 0.9798
2.6921 3.9504 -1.8002 0.9798
2.3976 4.1262 -1.7971 0.9798
2.2451 4.2043 -1.7948 0.9798
0.8845 4.2919 -1.6502 0.9814
0.5743 4.3438 -1.6500 0.9814
0.4179 4.3614 -1.6499 0.9814
0.2617 4.3838 -1.6538 0.9814
0.1041 4.3854 -1.6519 0.9814
-0.0534 4.3855 -1.6516 0.9814
-0.2110 4.3841 -1.6528 0.9814
-0.5239 4.3486 -1.6494 0.9815
-0.6796 4.3268 -1.6493 0.9815
-0.9882 4.2664 -1.6491 0.9815
-1.6416 4.2172 -1.7041 0.9808
-1.8166 4.2126 -1.7276 0.9806
-2.6414 3.9738 -1.7969 0.9798
-2.7847 3.8797 -1.7984 0.9798
-2.9248 3.7806 -1.8000 0.9798
-3.4362 3.3235 -1.8002 0.9798
-3.5532 3.1979 -1.8001 0.9798
-0.8905 0.6426 -0.4135 0.9953
-0.9022 0.6030 -0.4086 0.9954
-0.9130 0.5639 -0.4041 0.9954
-0.9227 0.5251 -0.3998 0.9955
-0.9311 0.4865 -0.3956 0.9955
-0.9383 0.4481 -0.3916 0.9956
-0.9531 0.3349 -0.3804 0.9957
-0.9646 0.2629 -0.3765 0.9957
-0.9757 0.1920 -0.3745 0.9958
-0.9857 0.0500 -0.3717 0.9958
-0.9858 0.0145 -0.3713 0.9958
-0.9844 -0.0918 -0.3723 0.9958
-0.9822 -0.1273 -0.3730 0.9958
-0.9790 -0.1628 -0.3737 0.9958
-0.9696 -0.2338 -0.3756 0.9957
-0.9562 -0.3046 -0.3779 0.9957
-0.9525 -0.3415 -0.3810 0.9957
-0.9485 -0.3791 -0.3846 0.9956
-0.9210 -0.5320 -0.4005 0.9955
-0.9112 -0.5709 -0.4049 0.9954
-0.9001 -0.6100 -0.4095 0.9954
-0.8883 -0.6498 -0.4145 0.9953
-3.5325 -3.2206 -1.8001 0.9798
-3.4147 -3.3454 -1.8002 0.9798
-3.1662 -3.5821 -1.8003 0.9798
-2.7631 -3.9021 -1.8005 0.9798
-2.3279 -4.1771 -1.8007 0.9798
-2.0224 -4.3337 -1.8009 0.9798
-1.8656 -4.4037 -1.8010 0.9798
-1.7064 -4.4681 -1.8011 0.9798
-1.5450 -4.5267 -1.8012 0.9798
-1.0495 -4.6672 -1.8014 0.9798
-0.5418 -4.7537 -1.8017 0.9798
-0.1905 -4.5685 -1.8019 0.9805
-0.0264 -4.5727 -1.8020 0.9805
0.4654 -4.5497 -1.8022 0.9805
0.7907 -4.5050 -1.8024 0.9805
0.9520 -4.4739 -1.8025 0.9805
1.1120 -4.4371 -1.8026 0.9805
1.2706 -4.3945 -1.8027 0.9805
1.4276 -4.3463 -1.8028 0.9805
1.7359 -4.2330 -1.8029 0.9805
2.4644 -3.8559 -1.8033 0.9805
2.6013 -3.7651 -1.8034 0.9805
2.7349 -3.6695 -1.8035 0.9805
2.8650 -3.5691 -1.8036 0.9805
3.1139 -3.3546 -1.8037 0.9805
3.3468 -3.1228 -1.8038 0.9805
3.4569 -3.0007 -1.8039 0.9805
3.5625 -2.8747 -1.8039 0.9805
3.6635 -2.7451 -1.8040 0.9805
3.8512 -2.4753 -1.8041 0.9805
3.9377 -2.3356 -1.8041 0.9805
4.0191 -2.1928 -1.8042 0.9805
4.3465 -1.4400 -1.8044 0.9805
4.3954 -1.2831 -1.8044 0.9805
4.5081 -0.8032 -1.8045 0.9805
4.5340 -0.6408 -1.8045 0.9805
4.5541 -0.4777 -1.8045 0.9805
4.5684 -0.3139 -1.8045 0.9805
4.5767 -0.1497 -1.8045 0.9805
4.5299 0.6699 -1.8045 0.9805
4.5029 0.8321 -1.8045 0.9805
4.4315 1.1529 -1.8044 0.9805
4.3872 1.3112 -1.8044 0.9805
4.2206 1.7752 -1.8043 0.9805
3.9227 2.3608 -1.8042 0.9805
3.8354 2.5000 -1.8041 0.9805
3.7430 2.6360 -1.8041 0.9805
3.6459 2.7686 -1.8040 0.9805
3.2117 3.2615 -1.8038 0.9805
2.8421 3.5875 -1.8036 0.9805
2.7114 3.6870 -1.8035 0.9805
2.5766 3.7809 -1.8030 0.9805
2.4371 3.8676 -1.8015 0.9805
2.1500 4.0262 -1.7986 0.9806
1.8530 4.1642 -1.7961 0.9806
1.6931 4.2053 -1.7864 0.9807
1.3539 4.2128 -1.7438 0.9812
1.1897 4.2159 -1.7262 0.9813
1.0285 4.2186 -1.7111 0.9815
0.5584 4.2240 -1.6790 0.9818
0.2523 4.2257 -1.6682 0.9820
0.1003 4.2260 -1.6658 0.9820
-0.0515 4.2259 -1.6654 0.9820
-0.3557 4.2246 -1.6707 0.9819
-0.5088 4.2234 -1.6764 0.9819
-0.6631 4.2218 -1.6841 0.9818
-0.8190 4.2199 -1.6940 0.9817
-0.9768 4.2175 -1.7060 0.9816
-1.1370 4.2147 -1.7203 0.9814
-1.3000 4.2114 -1.7369 0.9812
-1.4663 4.2078 -1.7559 0.9810
-1.8025 4.1800 -1.7938 0.9806
-1.9525 4.1149 -1.7948 0.9806
-2.1002 4.0447 -1.7960 0.9806
-2.2455 3.9693 -1.7972 0.9806
-2.3883 3.8889 -1.7984 0.9806
-2.6644 3.7121 -1.8006 0.9805
-2.7958 3.6139 -1.8006 0.9805
-3.0477 3.4037 -1.8004 0.9805
-3.1678 3.2920 -1.8004 0.9805
-3.5029 2.9321 -1.8002 0.9806
-0.8413 0.6543 -0.4200 0.9954
-0.8775 0.5420 -0.4065 0.9956
-0.8956 0.4679 -0.3982 0.9957
-0.9029 0.4312 -0.3943 0.9957
-0.9090 0.3947 -0.3905 0.9957
-0.9245 0.2880 -0.3816 0.9958
-0.9374 0.2196 -0.3794 0.9959
-0.9521 0.0483 -0.3757 0.9959
-0.9523 0.0140 -0.3753 0.9959
-0.9523 -0.0202 -0.3754 0.9959
-0.9520 -0.0544 -0.3758 0.9959
-0.9486 -0.1229 -0.3770 0.9959
-0.9455 -0.1572 -0.3777 0.9959
-0.9414 -0.1915 -0.3786 0.9959
-0.9364 -0.2258 -0.3796 0.9959
-0.9232 -0.2941 -0.3818 0.9958
-0.9175 -0.3290 -0.3841 0.9958
-0.9080 -0.4013 -0.3912 0.9957
-0.9017 -0.4378 -0.3950 0.9957
-0.8942 -0.4745 -0.3989 0.9957
-0.8855 -0.5115 -0.4030 0.9956
-0.8757 -0.5487 -0.4072 0.9956
-0.8647 -0.5860 -0.4116 0.9955
-0.8524 -0.6235 -0.4162 0.9955
-0.8388 -0.6611 -0.4209 0.9954
-3.4840 -2.9544 -1.8001 0.9806
-3.3758 -3.0777 -1.8002 0.9806
-3.1465 -3.3122 -1.8003 0.9805
-2.7725 -3.6316 -1.8005 0.9805
-2.2245 -3.9917 -1.8008 0.9805
-1.9326 -4.1414 -1.8010 0.9805
-1.6306 -4.2698 -1.8011 0.9805
-1.4764 -4.3257 -1.8012 0.9805
-1.3202 -4.3762 -1.8013 0.9805
-1.0029 -4.4600 -1.8015 0.9805
-0.8422 -4.4934 -1.8015 0.9805
0.2888 -4.3669 -1.8022 0.9812
1.6612 -4.0509 -1.8029 0.9812
1.8056 -3.9888 -1.8030 0.9812
2.3583 -3.6899 -1.8033 0.9812
2.4894 -3.6031 -1.8033 0.9812
2.6172 -3.5115 -1.8034 0.9812
2.7417 -3.4154 -1.8035 0.9812
3.3080 -2.8715 -1.8038 0.9812
3.5057 -2.6269 -1.8039 0.9812
3.5979 -2.4995 -1.8040 0.9812
3.7681 -2.2350 -1.8041 0.9812
3.8460 -2.0983 -1.8041 0.9812
3.9868 -1.8171 -1.8042 0.9812
4.0496 -1.6728 -1.8042 0.9812
4.1071 -1.5264 -1.8042 0.9812
4.1593 -1.3780 -1.8043 0.9812
4.2476 -1.0761 -1.8043 0.9812
4.3139 -0.7686 -1.8044 0.9812
4.3796 -0.1433 -1.8044 0.9812
4.3819 0.0140 -1.8044 0.9812
4.3786 0.1713 -1.8044 0.9812
4.3550 0.4850 -1.8044 0.9812
4.3348 0.6410 -1.8044 0.9812
4.3089 0.7962 -1.8044 0.9812
4.2775 0.9504 -1.8044 0.9812
4.1982 1.2548 -1.8043 0.9812
4.0388 1.6988 -1.8042 0.9812
3.8326 2.1230 -1.8041 0.9812
3.6702 2.3924 -1.8040 0.9812
3.4889 2.6494 -1.8039 0.9812
3.0734 3.1211 -1.8037 0.9812
2.9593 3.2293 -1.8037 0.9812
2.5947 3.5283 -1.8035 0.9812
2.4663 3.6191 -1.8034 0.9812
2.3347 3.7051 -1.8033 0.9812
2.0607 3.8590 -1.8014 0.9813
1.4835 4.1039 -1.7969 0.9813
1.3345 4.1525 -1.7960 0.9813
1.0253 4.2053 -1.7824 0.9814
0.8671 4.2076 -1.7690 0.9816
0.5567 4.2110 -1.7491 0.9818
0.4036 4.2121 -1.7424 0.9819
0.1000 4.2131 -1.7354 0.9819
-0.0513 4.2130 -1.7350 0.9819
-0.2027 4.2126 -1.7367 0.9819
-0.5072 4.2105 -1.7463 0.9818
-0.6611 4.2088 -1.7544 0.9817
-0.9738 4.2043 -1.7771 0.9815
-1.1335 4.2014 -1.7919 0.9814
-1.2853 4.1637 -1.7944 0.9813
-1.5821 4.0643 -1.7959 0.9813
-1.7278 4.0068 -1.7968 0.9813
-1.8716 3.9444 -1.7978 0.9813
-2.0131 3.8770 -1.7988 0.9813
