ply
format ascii 1.0
element vertex 1555
property float32 x
property float32 y
property float32 z
property float32 I
end_header
-0.9811 11.6536 0.0648 0.9543
-1.8577 11.8271 0.0663 0.9532
-2.7409 11.8338 0.0673 0.9526
-4.8362 13.8782 0.0814 0.9429
-5.9160 13.7194 0.0828 0.9420
-37.6110 72.4328 0.4522 0.7215
-47.6878 71.7427 0.4773 0.7085
-47.4039 66.0440 0.4504 0.7224
-46.5937 55.9560 0.4034 0.7473
-47.7538 49.6271 0.3816 0.7592
-48.0806 40.2453 0.3474 0.7782
-48.1019 37.4105 0.3376 0.7837
-58.1315 35.9057 0.3786 0.7609
-86.8077 41.4621 0.5330 0.6806
-78.8652 18.4799 0.4488 0.7232
-87.5675 17.2287 0.4945 0.6998
-75.4765 12.0536 0.4235 0.7366
-86.9776 -17.6925 0.4918 0.7011
-92.3461 -36.9051 0.5510 0.6718
-73.5856 -39.0521 0.4616 0.7166
-62.7888 -39.3406 0.4105 0.7435
-45.9808 -31.1624 0.3078 0.8008
-53.6823 -39.2660 0.3685 0.7664
-49.8769 -39.3067 0.3519 0.7757
-27.9245 -23.6800 0.2029 0.8638
-31.7771 -31.1316 0.2465 0.8370
-29.5901 -31.1480 0.2380 0.8421
-25.6246 -31.1778 0.2236 0.8509
-18.1566 -23.7829 0.1658 0.8872
-22.0956 -31.2043 0.2118 0.8582
-20.4625 -31.2165 0.2068 0.8613
-17.4096 -31.2395 0.1982 0.8667
-15.9733 -31.2502 0.1945 0.8690
-10.6794 -31.2900 0.1832 0.8761
-8.3215 -44.3951 0.2503 0.8347
-6.6836 -44.4074 0.2488 0.8356
-0.8402 -20.1490 -0.1955 0.9225
3.9862 -10.8103 -0.1117 0.9550
4.0852 -9.9618 -0.1044 0.9578
5.3946 -9.9483 -0.1097 0.9557
10.2322 -16.0097 -0.1842 0.9268
38.3024 -55.4381 -0.6534 0.7637
38.1439 -47.5177 -0.5908 0.7837
29.6111 -31.8995 -0.4220 0.8402
31.8401 -31.9219 -0.4372 0.8350
34.2409 -31.9485 -0.4541 0.8292
23.5599 -20.4509 -0.3025 0.8827
43.8128 -35.3551 -0.5459 0.7984
43.8608 -30.4702 -0.5179 0.8076
17.1596 -11.0292 -0.1978 0.9216
17.1783 -10.1890 -0.1937 0.9232
17.5953 -9.5998 -0.1944 0.9230
19.1149 -9.5550 -0.2072 0.9181
20.9291 -9.5389 -0.2230 0.9121
87.7332 -36.2416 -0.9204 0.6841
93.2076 -27.2092 -0.9415 0.6781
40.8550 -10.3503 -0.4087 0.8449
73.2418 -15.7810 -0.7265 0.7410
41.0707 -7.3174 -0.4045 0.8463
43.6524 9.6987 -0.4336 0.8362
37.7655 9.8256 -0.3784 0.8555
37.0964 12.5549 -0.3797 0.8550
37.0692 15.5917 -0.3899 0.8514
37.2853 18.9376 -0.4055 0.8460
37.1775 20.5939 -0.4121 0.8437
37.2142 28.2595 -0.4531 0.8295
23.8578 27.9883 -0.3566 0.8632
20.9627 26.4599 -0.3273 0.8737
6.7378 11.5957 -0.1300 0.9478
6.2692 11.7402 -0.1291 0.9482
5.2275 11.7480 -0.1247 0.9499
4.7315 11.7517 -0.1228 0.9506
4.2492 11.7553 -0.1212 0.9512
3.3267 11.7882 -0.1188 0.9522
2.8749 11.7916 -0.1177 0.9526
2.4308 11.7949 -0.1168 0.9530
1.5601 11.8015 -0.1154 0.9535
0.7049 11.8079 -0.1147 0.9538
-0.1435 11.7823 -0.1143 0.9540
-1.4244 11.8239 -0.1155 0.9535
-1.8577 11.8271 -0.1161 0.9532
-2.7409 11.8337 -0.1178 0.9526
-5.4040 13.8825 -0.1445 0.9421
-5.9160 13.7194 -0.1449 0.9420
-28.1393 59.3049 -0.6365 0.7691
-32.5335 57.5077 -0.6407 0.7677
-47.5699 77.4599 -0.8814 0.6952
-31.7518 38.1319 -0.4812 0.8200
-51.6676 49.9732 -0.6970 0.7501
-49.5127 44.5624 -0.6459 0.7661
-48.0811 40.2458 -0.6080 0.7782
-48.1024 37.4109 -0.5909 0.7837
-55.0633 39.7368 -0.6584 0.7621
-57.5219 35.5292 -0.6556 0.7630
-62.4942 35.5665 -0.6972 0.7500
-69.1660 33.0359 -0.7432 0.7359
-65.2456 28.3337 -0.6897 0.7524
-85.4132 33.5012 -0.8896 0.6928
-72.1959 25.3664 -0.7420 0.7363
-72.3439 22.5355 -0.7347 0.7385
-67.0379 18.2703 -0.6737 0.7573
-68.5731 16.0682 -0.6829 0.7545
-70.9565 13.9605 -0.7012 0.7488
-62.0241 -10.3134 -0.6097 0.7776
-86.9809 -17.6932 -0.8607 0.7011
-70.3508 -19.6585 -0.7083 0.7466
-62.0912 -19.7792 -0.6319 0.7705
-45.5725 -20.1386 -0.4831 0.8193
-45.6681 -22.1731 -0.4923 0.8162
-45.6669 -24.2356 -0.5013 0.8132
-45.6569 -26.3730 -0.5113 0.8098
-35.7450 -24.2253 -0.4187 0.8414
-35.7595 -26.1564 -0.4296 0.8376
-35.7748 -28.1933 -0.4417 0.8334
-27.6104 -23.4137 -0.3510 0.8652
-27.2547 -24.8479 -0.3576 0.8628
-27.2838 -28.7204 -0.3841 0.8535
-25.6247 -31.1779 -0.3913 0.8509
-18.9034 -31.2283 -0.3540 0.8641
-17.4096 -31.2395 -0.3468 0.8667
-9.9749 -23.5460 -0.2480 0.9028
-8.9951 -23.5533 -0.2445 0.9041
-8.9316 -26.1691 -0.2681 0.8953
-9.5671 -36.3880 -0.3648 0.8603
0.6060 -20.1047 -0.5016 0.9227
1.3301 -20.1124 -0.5027 0.9225
2.7841 -20.0698 -0.5053 0.9221
5.0497 -20.1496 -0.5180 0.9202
5.8283 -20.1578 -0.5233 0.9195
6.6239 -20.1662 -0.5293 0.9186
3.8461 -10.4306 -0.2772 0.9565
5.8391 -9.9024 -0.2867 0.9550
10.2131 -15.9799 -0.4730 0.9269
15.1262 -20.2950 -0.6312 0.9037
16.3598 -20.3802 -0.6517 0.9007
17.6266 -20.4119 -0.6726 0.8977
22.0608 -20.5839 -0.7525 0.8863
23.3866 -20.3005 -0.7723 0.8835
25.8513 -20.8609 -0.8284 0.8755
16.3134 -9.6760 -0.4730 0.9269
17.4482 -9.5195 -0.4957 0.9236
21.4673 -9.7842 -0.5883 0.9099
19.3915 -7.2069 -0.5159 0.9206
39.7718 -7.0859 -1.0075 0.8507
73.2522 -7.6834 -1.8368 0.7447
73.6589 -5.0612 -1.8413 0.7442
39.4895 -1.2917 -0.9853 0.8538
38.6320 0.1238 -0.9634 0.8568
73.6783 5.5372 -1.8426 0.7441
73.4395 8.1792 -1.8428 0.7440
52.5660 9.7134 -1.3331 0.8074
37.7651 9.8255 -0.9732 0.8554
34.5534 11.6943 -0.9097 0.8642
37.2989 14.1350 -0.9947 0.8525
28.6144 14.5335 -0.8004 0.8795
23.7285 16.7107 -0.7238 0.8904
23.0502 17.5038 -0.7218 0.8906
23.0864 18.8753 -0.7437 0.8875
28.8008 25.3257 -0.9564 0.8577
28.7498 27.1717 -0.9865 0.8536
23.8576 26.0341 -0.8806 0.8682
23.1221 27.1253 -0.8889 0.8671
20.9628 26.4600 -0.8419 0.8737
8.6508 11.7634 -0.3641 0.9432
6.7378 11.5957 -0.3344 0.9478
4.7315 11.7517 -0.3159 0.9506
3.7771 11.7529 -0.3079 0.9518
3.3267 11.7882 -0.3055 0.9522
2.8749 11.7916 -0.3027 0.9526
2.4308 11.7949 -0.3003 0.9530
1.9929 11.7982 -0.2984 0.9533
0.7049 11.8079 -0.2950 0.9538
-0.5687 11.8174 -0.2950 0.9538
-0.9811 11.6536 -0.2916 0.9543
-1.8577 11.8271 -0.2986 0.9532
-2.2961 11.8304 -0.3005 0.9529
-3.1934 11.8371 -0.3058 0.9521
-3.6551 11.8406 -0.3090 0.9516
-4.8362 13.8782 -0.3665 0.9429
-23.8602 50.2864 -1.3881 0.8003
-23.9256 46.0770 -1.2948 0.8124
-35.3555 62.4958 -1.7907 0.7503
-23.8737 35.9162 -1.0755 0.8415
-28.3491 36.6445 -1.1554 0.8308
-17.0504 19.0426 -0.6374 0.9028
-21.2786 19.1511 -0.7139 0.8918
-26.4570 20.5766 -0.8359 0.8745
-26.5124 19.1329 -0.8154 0.8774
-26.4783 16.3547 -0.7761 0.8829
-26.4939 15.0781 -0.7602 0.8852
-57.6518 30.1240 -1.6222 0.7708
-60.4697 23.7178 -1.6199 0.7711
-62.5924 17.0587 -1.6179 0.7714
-63.6111 12.5154 -1.6168 0.7715
-64.5337 5.5997 -1.6154 0.7717
-70.5928 -4.0325 -1.7633 0.7536
-70.1071 -9.0850 -1.7630 0.7536
-69.7316 -11.5950 -1.7629 0.7536
-69.2679 -14.0901 -1.7628 0.7536
-62.3221 -17.4149 -1.6138 0.7719
-45.8155 -22.2447 -1.2701 0.8156
-45.8316 -26.4739 -1.3200 0.8091
-37.2536 -23.3414 -1.0963 0.8387
-35.7454 -24.2256 -1.0769 0.8413
-35.7599 -26.1566 -1.1049 0.8375
-35.7752 -28.1935 -1.1359 0.8334
-27.2691 -26.7152 -0.9520 0.8583
-27.2841 -28.7207 -0.9879 0.8534
-17.9302 -23.4864 -0.7369 0.8885
-17.5773 -24.8235 -0.7585 0.8854
-17.5925 -26.8381 -0.8003 0.8795
-36.0744 -59.5944 -1.7373 0.7567
-31.8915 -62.3926 -1.7475 0.7555
-29.7127 -63.6718 -1.7523 0.7549
-9.9749 -23.5460 -0.6377 0.9027
-8.9318 -26.1697 -0.6896 0.8953
-20.4918 -67.9243 -1.7693 0.7529
-18.0783 -68.7577 -1.7730 0.7524
-10.6381 -70.6813 -1.7825 0.7513
-8.1061 -71.1231 -1.7852 0.7509
-3.2908 -42.3331 -1.7066 0.8437
-0.1167 -20.2144 -0.8125 0.9223
0.6118 -20.2992 -0.8162 0.9219
2.1341 -20.8626 -0.8429 0.9195
2.7841 -20.0698 -0.8144 0.9221
3.5544 -20.2511 -0.8264 0.9210
5.1822 -20.6780 -0.8568 0.9182
3.7083 -11.2899 -0.4776 0.9535
4.0263 -9.8182 -0.4265 0.9584
4.4454 -9.8204 -0.4333 0.9578
5.7868 -9.8137 -0.4579 0.9554
14.3086 -20.7099 -1.0117 0.9041
18.9436 -20.4076 -1.1191 0.8945
23.3864 -20.3003 -1.2447 0.8834
27.3478 -20.4923 -1.3735 0.8721
16.0973 -11.1829 -0.7878 0.9245
16.1073 -9.5538 -0.7527 0.9278
19.0500 -9.5226 -0.8560 0.9183
20.7376 -9.4516 -0.9160 0.9128
18.6746 -6.9405 -0.8007 0.9233
19.1482 -6.3440 -0.8107 0.9224
43.5650 -12.7175 -1.8240 0.8339
44.0037 -11.1481 -1.8245 0.8338
44.3853 -9.5634 -1.8249 0.8338
45.1817 -4.7391 -1.8259 0.8337
39.5088 -1.2924 -1.5888 0.8536
41.3594 4.6063 -1.6726 0.8465
41.1694 6.0883 -1.6727 0.8465
34.7306 11.7542 -1.4737 0.8635
28.7076 17.2771 -1.3466 0.8745
22.9158 16.1384 -1.1265 0.8939
22.9515 17.4288 -1.1583 0.8910
28.6275 27.0561 -1.5832 0.8541
8.6506 11.7632 -0.5869 0.9432
21.2797 31.2258 -1.5187 0.8596
8.7400 13.8701 -0.6589 0.9365
6.2692 11.7401 -0.5349 0.9481
5.7394 11.7441 -0.5254 0.9490
4.7314 11.7517 -0.5092 0.9505
4.2492 11.7553 -0.5024 0.9512
3.3267 11.7882 -0.4923 0.9521
2.8749 11.7916 -0.4878 0.9526
0.7049 11.8078 -0.4754 0.9538
-0.9811 11.6535 -0.4700 0.9543
-1.4244 11.8238 -0.4787 0.9534
-1.8577 11.8271 -0.4812 0.9532
-2.2961 11.8304 -0.4844 0.9529
-3.6551 11.8405 -0.4981 0.9516
-4.8362 13.8781 -0.5907 0.9429
-5.4040 13.8824 -0.5987 0.9421
-5.9160 13.7193 -0.6005 0.9419
-19.1630 40.3870 -1.7967 0.8361
-20.5905 39.6540 -1.7958 0.8362
-21.9902 38.8708 -1.7950 0.8363
-23.9159 33.3201 -1.6485 0.8486
-16.7474 21.6479 -1.1000 0.8962
-16.7370 20.1001 -1.0513 0.9006
-16.7572 18.7150 -1.0097 0.9043
-17.0794 17.7495 -0.9900 0.9061
-20.5310 19.8577 -1.1480 0.8920
-34.0968 28.5404 -1.7871 0.8369
-23.9255 13.6164 -1.1064 0.8957
-36.6578 19.1543 -1.6624 0.8474
-37.3271 17.8286 -1.6626 0.8474
-37.7792 14.8180 -1.6310 0.8501
-38.2765 13.4487 -1.6306 0.8501
-39.1235 10.6626 -1.6298 0.8502
-39.7704 7.8248 -1.6291 0.8502
-42.4593 5.2257 -1.7194 0.8426
-44.1911 2.2402 -1.7784 0.8377
-44.1615 -2.5226 -1.7778 0.8377
-44.0394 -4.1059 -1.7777 0.8377
-43.3378 -8.8156 -1.7775 0.8377
-42.5940 -11.9023 -1.7775 0.8377
-42.1407 -13.4240 -1.7776 0.8377
-40.9307 -14.6767 -1.7476 0.8402
-37.6002 -15.0265 -1.6274 0.8504
-36.4319 -17.6887 -1.6277 0.8503
-35.7777 -18.9874 -1.6279 0.8503
-34.6369 -21.7019 -1.6428 0.8491
-33.8917 -22.9692 -1.6455 0.8488
-32.1987 -25.3750 -1.6477 0.8486
-27.2554 -24.8484 -1.4824 0.8627
-27.2694 -26.7155 -1.5343 0.8583
-27.2845 -28.7210 -1.5922 0.8533
-26.2983 -31.9975 -1.6647 0.8472
-17.5776 -24.8238 -1.2225 0.8854
-21.6166 -35.7105 -1.6777 0.8461
-19.0660 -37.3001 -1.6836 0.8456
-17.7432 -38.0231 -1.6864 0.8454
-8.9952 -23.5534 -1.0133 0.9040
-12.1895 -40.4045 -1.6962 0.8446
-10.7447 -40.8663 -1.6983 0.8444
-6.3090 -41.9182 -1.7037 0.8439
-4.8045 -42.1546 -1.7052 0.8438
2.1108 -20.6342 -1.1504 0.9203
2.7841 -20.0699 -1.1238 0.9220
2.2940 -6.9839 -0.4077 0.9710
2.7057 -6.5980 -0.3955 0.9718
4.8300 -9.7247 -0.6022 0.9574
5.2677 -9.7143 -0.6129 0.9567
5.7279 -9.7137 -0.6255 0.9558
15.1258 -20.2945 -1.4039 0.9036
20.3682 -20.4206 -1.5997 0.8909
21.8691 -20.4050 -1.6589 0.8871
22.5942 -19.6126 -1.6594 0.8870
23.9567 -17.9512 -1.6604 0.8870
16.0969 -11.1826 -1.0871 0.9245
17.2965 -9.4368 -1.0928 0.9241
19.0333 -9.5143 -1.1802 0.9183
18.8318 -6.2392 -1.1003 0.9236
31.7783 -8.0508 -1.8182 0.8769
32.2839 -5.7519 -1.8188 0.8769
32.4741 -4.5899 -1.8190 0.8769
32.7902 -1.0726 -1.8196 0.8768
32.7227 2.4592 -1.8200 0.8768
30.7312 6.8279 -1.7460 0.8815
29.3634 8.7764 -1.6998 0.8845
28.9452 9.7962 -1.6949 0.8848
28.6671 10.8639 -1.7003 0.8844
28.5330 12.0013 -1.7168 0.8834
28.5227 14.4870 -1.7743 0.8797
28.5246 15.8008 -1.8086 0.8775
23.6394 15.4091 -1.5651 0.8931
13.6607 11.1689 -0.9787 0.9318
24.6156 21.6455 -1.8180 0.8769
22.9907 23.3472 -1.8174 0.8770
14.5706 15.8998 -1.1962 0.9172
8.6505 11.7630 -0.8098 0.9432
18.4321 27.0472 -1.8154 0.8771
6.7378 11.5956 -0.7438 0.9477
3.7771 11.7528 -0.6847 0.9517
3.3177 11.7563 -0.6775 0.9522
2.8672 11.7596 -0.6713 0.9527
2.4242 11.7630 -0.6661 0.9530
1.5601 11.8014 -0.6602 0.9534
-0.1435 11.7822 -0.6535 0.9539
-0.9811 11.6535 -0.6486 0.9542
-1.8526 11.7951 -0.6622 0.9533
-2.2899 11.7983 -0.6666 0.9530
-2.7335 11.8017 -0.6719 0.9526
-3.6452 11.8085 -0.6854 0.9517
-5.4040 13.8824 -0.8263 0.9421
-5.9160 13.7193 -0.8287 0.9419
-12.7224 26.8131 -1.6461 0.8879
-15.9524 28.1981 -1.7969 0.8783
-16.9485 27.5979 -1.7963 0.8783
-17.9222 26.9626 -1.7957 0.8784
-18.8722 26.2932 -1.7951 0.8784
-16.7304 20.0922 -1.4501 0.9006
-16.7342 18.6894 -1.3914 0.9044
-16.9717 17.6375 -1.3576 0.9066
-20.8818 18.7940 -1.5582 0.8936
-23.3670 19.5591 -1.6901 0.8851
-24.0706 17.3707 -1.6464 0.8879
-24.6721 16.4911 -1.6460 0.8879
-23.9256 13.6164 -1.5269 0.8956
-26.2826 13.7331 -1.6447 0.8880
-26.7526 12.7779 -1.6444 0.8880
-30.7540 9.5800 -1.7866 0.8789
-31.3516 7.3464 -1.7860 0.8790
-31.5904 6.2153 -1.7857 0.8790
-31.9464 3.9318 -1.7852 0.8790
-32.1204 -1.8348 -1.7844 0.8791
-31.5228 -6.4122 -1.7842 0.8791
-30.2826 -10.8585 -1.7843 0.8791
-29.8747 -11.9391 -1.7844 0.8791
-29.4287 -13.0046 -1.7845 0.8791
-25.5106 -14.7358 -1.6340 0.8887
-21.7893 -19.8651 -1.6354 0.8886
-21.0660 -20.6381 -1.6357 0.8886
-19.0584 -23.1886 -1.6648 0.8867
-17.9303 -23.4865 -1.6389 0.8884
-16.4862 -25.1507 -1.6679 0.8865
-14.6600 -26.3058 -1.6703 0.8863
-13.7163 -26.8346 -1.6715 0.8863
-12.7537 -27.3299 -1.6728 0.8862
-9.9750 -23.5462 -1.4183 0.9026
-8.9323 -26.1711 -1.5338 0.8951
-8.7378 -28.9632 -1.6779 0.8859
-7.6986 -29.2816 -1.6793 0.8858
-6.6479 -29.5629 -1.6806 0.8857
-3.4397 -30.1803 -1.6848 0.8854
-1.8477 -23.7698 -1.6871 0.9088
-0.8354 -20.0337 -1.4189 0.9227
-0.1167 -20.2145 -1.4304 0.9221
1.3573 -20.5237 -1.4555 0.9208
2.2368 -10.5126 -0.7605 0.9578
2.4031 -9.5888 -0.6995 0.9611
2.3807 -6.4563 -0.4869 0.9728
3.5228 -6.4966 -0.5229 0.9708
5.6818 -9.6355 -0.7915 0.9561
13.9757 -18.7512 -1.6549 0.9105
14.6435 -18.2421 -1.6553 0.9105
15.9225 -17.1531 -1.6561 0.9104
16.5320 -16.5745 -1.6565 0.9104
17.6869 -15.3529 -1.6573 0.9104
18.2691 -14.7425 -1.6612 0.9102
19.6525 -14.7260 -1.7377 0.9062
16.4931 -11.4578 -1.4211 0.9226
16.4907 -9.7812 -1.3567 0.9260
17.2991 -9.4382 -1.3945 0.9240
20.7405 -9.4529 -1.6129 0.9127
18.0929 -6.7243 -1.3659 0.9255
18.7830 -6.2230 -1.4002 0.9237
21.3681 -6.2378 -1.5752 0.9146
25.0730 -5.4023 -1.8149 0.9023
25.4017 -3.5903 -1.8153 0.9022
25.5166 -2.6764 -1.8155 0.9022
25.6471 -0.8389 -1.8158 0.9022
25.6444 1.0034 -1.8160 0.9022
25.3908 3.7549 -1.8162 0.9022
25.2401 4.6640 -1.8163 0.9022
24.8405 6.4629 -1.8163 0.9022
24.5921 7.3503 -1.8163 0.9022
24.3119 8.2281 -1.8162 0.9022
23.6571 9.9504 -1.8161 0.9022
23.2834 10.7927 -1.8160 0.9022
22.4460 12.4336 -1.8157 0.9022
21.9834 13.2303 -1.8156 0.9022
21.4923 14.0095 -1.8154 0.9022
20.4274 15.5121 -1.8150 0.9023
13.3096 12.5790 -1.2959 0.9292
13.2699 13.4756 -1.3383 0.9270
14.5658 18.3855 -1.6598 0.9102
8.6553 13.7357 -1.1488 0.9370
6.7378 11.5956 -0.9490 0.9476
5.7394 11.7440 -0.9250 0.9489
5.2275 11.7479 -0.9099 0.9497
4.7314 11.7516 -0.8964 0.9505
4.2492 11.7552 -0.8845 0.9511
3.2796 11.6215 -0.8545 0.9527
2.8343 11.6249 -0.8467 0.9532
2.3964 11.6282 -0.8401 0.9535
1.9648 11.6314 -0.8347 0.9538
1.5381 11.6346 -0.8305 0.9540
1.1152 11.6378 -0.8273 0.9542
0.2763 11.6441 -0.8242 0.9544
-0.5606 11.6503 -0.8254 0.9543
-0.9811 11.6535 -0.8275 0.9542
-2.2636 11.6631 -0.8407 0.9535
-2.7021 11.6664 -0.8474 0.9531
-3.6034 11.6732 -0.8645 0.9522
-5.9160 13.7193 -1.0572 0.9418
-10.7220 20.6489 -1.6464 0.9109
-16.2380 19.5008 -1.7957 0.9032
-17.5866 18.2765 -1.7948 0.9033
-18.2270 17.6293 -1.7944 0.9033
-19.4359 16.2686 -1.7935 0.9034
-20.0030 15.5571 -1.7931 0.9034
-20.5442 14.8258 -1.7928 0.9034
-21.0587 14.0759 -1.7924 0.9034
-22.0057 12.5238 -1.7917 0.9035
-22.4369 11.7236 -1.7914 0.9035
-22.8392 10.9087 -1.7910 0.9035
-23.2121 10.0802 -1.7907 0.9035
-23.5552 9.2389 -1.7904 0.9035
-23.8680 8.3862 -1.7902 0.9035
-24.6211 5.7693 -1.7894 0.9036
-24.9659 3.9871 -1.7890 0.9036
-25.1828 2.1852 -1.7887 0.9036
-25.2430 1.2797 -1.7885 0.9036
-25.2709 0.3727 -1.7884 0.9036
-25.2664 -0.5346 -1.7883 0.9036
-25.2296 -1.4412 -1.7882 0.9036
-25.1606 -2.3458 -1.7881 0.9036
-25.0593 -3.2474 -1.7881 0.9036
-24.9261 -4.1447 -1.7880 0.9036
-24.7609 -5.0367 -1.7880 0.9036
-24.0766 -7.6696 -1.7881 0.9036
-23.4658 -9.3778 -1.7882 0.9036
-22.7349 -11.0384 -1.7884 0.9036
-21.8875 -12.6430 -1.7886 0.9036
-21.4215 -13.4217 -1.7888 0.9036
-18.6612 -14.7064 -1.6813 0.9091
-17.1107 -15.5996 -1.6384 0.9113
-15.3414 -17.3564 -1.6392 0.9113
-14.7109 -17.8990 -1.6395 0.9113
-14.0614 -18.4187 -1.6397 0.9113
-13.3936 -18.9150 -1.6400 0.9112
-12.0067 -19.8350 -1.6407 0.9112
-9.1117 -21.5093 -1.6530 0.9106
-8.3719 -21.9216 -1.6605 0.9102
-5.2125 -15.2724 -1.1419 0.9373
-6.8359 -22.6457 -1.6738 0.9095
-6.0354 -22.9553 -1.6796 0.9092
-4.3839 -23.3882 -1.6838 0.9090
-3.5438 -23.5455 -1.6849 0.9089
-1.4822 -19.0668 -1.6465 0.9261
-0.1104 -19.1325 -1.6472 0.9261
0.5766 -19.1285 -1.6476 0.9260
2.6314 -18.9686 -1.6487 0.9260
3.3114 -18.8663 -1.6491 0.9260
2.1917 -10.3001 -0.9066 0.9586
1.7967 -7.1690 -0.6363 0.9708
1.9145 -6.6216 -0.5934 0.9727
2.1000 -6.3933 -0.5794 0.9733
2.6094 -6.3630 -0.5921 0.9728
3.1650 -6.3726 -0.6126 0.9718
4.3136 -6.7492 -0.6896 0.9684
10.9178 -15.8022 -1.6536 0.9258
11.4804 -15.4034 -1.6539 0.9258
14.6749 -14.7126 -1.7890 0.9200
16.3543 -13.1972 -1.8092 0.9191
17.6876 -11.3686 -1.8102 0.9190
17.2833 -9.4296 -1.6950 0.9240
18.8161 -9.4057 -1.8111 0.9190
19.7264 -7.3314 -1.8118 0.9190
18.7730 -6.2197 -1.7026 0.9237
20.2064 -5.8986 -1.8122 0.9190
20.5819 -4.4346 -1.8126 0.9189
20.8509 -2.9471 -1.8130 0.9189
21.0513 -0.6886 -1.8133 0.9189
21.0637 0.0675 -1.8134 0.9189
21.0064 1.5787 -1.8136 0.9189
20.9368 2.3318 -1.8137 0.9189
20.3883 5.3045 -1.8137 0.9189
20.1845 6.0329 -1.8137 0.9189
19.9546 6.7535 -1.8137 0.9189
19.4174 8.1672 -1.8136 0.9189
19.1109 8.8585 -1.8135 0.9189
18.7796 9.5383 -1.8134 0.9189
17.6417 11.4996 -1.8130 0.9189
14.9203 12.1988 -1.6592 0.9255
13.2442 12.5172 -1.5689 0.9294
13.2046 13.4094 -1.6202 0.9272
13.0147 14.2020 -1.6584 0.9256
12.4948 14.6580 -1.6582 0.9256
11.9589 15.0949 -1.6580 0.9256
6.2692 11.7400 -1.1458 0.9480
5.7394 11.7440 -1.1254 0.9489
5.2275 11.7479 -1.1070 0.9497
4.2492 11.7552 -1.0761 0.9511
3.7338 11.6181 -1.0506 0.9522
2.8343 11.6249 -1.0301 0.9531
1.1152 11.6378 -1.0065 0.9541
0.6950 11.6409 -1.0040 0.9543
-0.9811 11.6535 -1.0068 0.9541
-1.4043 11.6567 -1.0108 0.9540
-3.6034 11.6731 -1.0518 0.9521
-8.2025 17.2872 -1.6473 0.9261
-9.4175 16.6467 -1.6466 0.9261
-10.5829 15.9212 -1.6459 0.9261
-11.1452 15.5277 -1.6455 0.9261
-11.6929 15.1144 -1.6452 0.9261
-12.7521 14.2420 -1.6458 0.9261
-14.9926 14.5009 -1.7957 0.9197
-16.4554 12.7980 -1.7947 0.9197
-17.3252 11.5804 -1.7941 0.9197
-18.1056 10.3042 -1.7935 0.9198
-18.4610 9.6462 -1.7932 0.9198
-18.7925 8.9759 -1.7930 0.9198
-19.1000 8.2944 -1.7927 0.9198
-19.6407 6.9009 -1.7923 0.9198
-20.0806 5.4727 -1.7919 0.9198
-20.2620 4.7479 -1.7917 0.9198
-20.4173 4.0171 -1.7915 0.9199
-20.5465 3.2813 -1.7913 0.9199
-20.7258 1.7984 -1.7910 0.9199
-20.7987 0.3067 -1.7908 0.9199
-20.7652 -1.1862 -1.7907 0.9199
-20.5158 -3.4114 -1.7905 0.9199
-20.3799 -4.1456 -1.7905 0.9199
-20.2179 -4.8744 -1.7905 0.9199
-19.8165 -6.3125 -1.7905 0.9199
-18.3745 -9.7514 -1.7909 0.9199
-17.6299 -11.0461 -1.7911 0.9199
-16.3445 -12.8807 -1.7916 0.9198
-15.3815 -14.0231 -1.7920 0.9198
-13.0015 -14.7092 -1.6901 0.9242
-12.1046 -14.7278 -1.6413 0.9263
-11.0200 -15.5629 -1.6417 0.9263
-10.4559 -15.9509 -1.6420 0.9263
-8.6849 -16.9911 -1.6428 0.9263
-8.0708 -17.2950 -1.6431 0.9262
-6.8117 -17.8361 -1.6437 0.9262
-4.1922 -18.6424 -1.6451 0.9262
-3.5210 -18.7847 -1.6454 0.9261
-0.0937 -16.2377 -1.6476 0.9368
1.0719 -16.2088 -1.6482 0.9368
1.5858 -7.4529 -0.7731 0.9698
1.8373 -6.3545 -0.6712 0.9738
2.0737 -6.3133 -0.6742 0.9736
2.3243 -6.3034 -0.6817 0.9734
2.8476 -6.2906 -0.7006 0.9726
3.1274 -6.2968 -0.7134 0.9721
3.4177 -6.3026 -0.7275 0.9716
3.7275 -6.3214 -0.7446 0.9709
4.0659 -6.3616 -0.7661 0.9701
4.4598 -6.4550 -0.7961 0.9689
10.6357 -14.2701 -1.8058 0.9309
11.1444 -13.8831 -1.8063 0.9309
12.5788 -12.6111 -1.8073 0.9309
13.4556 -11.6800 -1.8079 0.9309
14.2633 -10.6878 -1.8084 0.9308
14.6399 -10.1704 -1.8087 0.9308
14.9977 -9.6397 -1.8090 0.9308
15.3362 -9.0964 -1.8092 0.9308
15.6550 -8.5412 -1.8094 0.9308
16.2315 -7.3978 -1.8099 0.9308
16.4885 -6.8112 -1.8101 0.9308
17.1306 -5.0007 -1.8107 0.9308
17.3007 -4.3830 -1.8109 0.9308
17.4483 -3.7595 -1.8110 0.9308
17.8452 -0.5837 -1.8116 0.9307
17.8555 0.0572 -1.8117 0.9307
17.8427 0.6981 -1.8118 0.9307
17.4329 3.8732 -1.8120 0.9307
17.2826 4.4965 -1.8119 0.9307
16.9150 5.7247 -1.8119 0.9307
16.4598 6.9232 -1.8118 0.9307
16.2001 7.5093 -1.8117 0.9307
15.9194 8.0856 -1.8117 0.9307
13.6905 8.9240 -1.6582 0.9364
13.3604 9.4090 -1.6580 0.9364
13.0130 9.8818 -1.6579 0.9364
11.8721 11.2204 -1.6575 0.9364
11.0341 12.0407 -1.6571 0.9364
10.1394 12.7983 -1.6567 0.9365
8.6500 11.7624 -1.4814 0.9430
8.7109 12.7824 -1.5695 0.9397
8.2453 13.0850 -1.5693 0.9397
6.7377 11.5955 -1.3607 0.9475
6.2691 11.7400 -1.3504 0.9479
5.7393 11.7440 -1.3263 0.9488
5.2275 11.7479 -1.3047 0.9496
4.7314 11.7516 -1.2854 0.9503
4.2492 11.7552 -1.2683 0.9510
1.1152 11.6377 -1.1862 0.9541
0.6949 11.6409 -1.1832 0.9542
0.2763 11.6440 -1.1818 0.9543
-0.1419 11.6472 -1.1819 0.9542
-1.4043 11.6566 -1.1913 0.9539
-2.2636 11.6631 -1.2055 0.9534
-3.1483 11.6697 -1.2264 0.9526
-3.6034 11.6731 -1.2396 0.9521
-4.8250 13.8460 -1.4877 0.9428
-6.9614 14.6714 -1.6477 0.9368
-7.4821 14.4093 -1.6474 0.9368
-8.4934 13.8301 -1.6468 0.9368
-8.9828 13.5138 -1.6465 0.9368
-9.4603 13.1803 -1.6462 0.9369
-10.8167 12.0805 -1.6453 0.9369
-12.0467 10.8423 -1.6445 0.9369
-13.9711 10.8658 -1.7958 0.9313
-14.3500 10.3558 -1.7956 0.9313
-14.7104 9.8326 -1.7953 0.9313
-15.0517 9.2969 -1.7950 0.9313
-15.6758 8.1909 -1.7946 0.9314
-15.9577 7.6219 -1.7943 0.9314
-16.2191 7.0434 -1.7941 0.9314
-16.4596 6.4559 -1.7939 0.9314
-16.8769 5.2572 -1.7936 0.9314
-17.2074 4.0321 -1.7932 0.9314
-17.3396 3.4115 -1.7931 0.9314
-17.6446 0.8945 -1.7926 0.9314
-17.6645 0.2605 -1.7925 0.9314
-17.6363 -1.0074 -1.7924 0.9314
-17.5883 -1.6398 -1.7923 0.9314
-17.4246 -2.8974 -1.7923 0.9314
-17.1717 -4.1400 -1.7922 0.9314
-17.0121 -4.7538 -1.7922 0.9314
-16.1581 -7.1403 -1.7924 0.9314
-15.2990 -8.8372 -1.7927 0.9314
-14.6274 -9.9133 -1.7929 0.9314
-13.4801 -11.4312 -1.7933 0.9314
-13.0623 -11.9088 -1.7935 0.9314
-12.6277 -12.3712 -1.7937 0.9314
-12.1768 -12.8179 -1.7939 0.9314
-11.7101 -13.2482 -1.7941 0.9314
-11.2283 -13.6616 -1.7943 0.9314
-10.7320 -14.0576 -1.7945 0.9314
-8.8999 -14.7025 -1.7438 0.9332
-8.1976 -14.7096 -1.7086 0.9345
-7.5220 -14.7160 -1.6769 0.9357
-6.8711 -14.7242 -1.6486 0.9368
-6.3217 -14.9225 -1.6444 0.9369
-2.4149 -16.0451 -1.6463 0.9368
-0.6135 -14.7132 -1.7212 0.9424
0.9731 -14.7140 -1.7236 0.9423
1.4257 -6.7003 -0.8007 0.9728
1.6009 -6.3879 -0.7697 0.9738
2.2961 -6.2269 -0.7757 0.9736
2.8149 -6.2183 -0.7978 0.9729
3.6676 -6.2198 -0.8440 0.9713
3.9927 -6.2472 -0.8666 0.9706
10.0990 -11.6948 -1.8061 0.9397
11.6756 -10.1348 -1.8071 0.9396
13.0127 -8.3638 -1.8080 0.9396
14.0821 -6.4182 -1.8089 0.9396
14.5092 -5.3924 -1.8092 0.9396
14.6948 -4.8686 -1.8094 0.9396
14.8613 -4.3383 -1.8095 0.9396
15.0087 -3.8024 -1.8097 0.9396
15.3337 -2.1673 -1.8101 0.9395
15.4025 -1.6156 -1.8102 0.9395
15.4514 -1.0617 -1.8103 0.9395
15.3241 2.2662 -1.8106 0.9395
15.2330 2.8148 -1.8106 0.9395
14.9919 3.9005 -1.8106 0.9395
14.8421 4.4361 -1.8106 0.9395
14.4850 5.4894 -1.8106 0.9395
14.2783 6.0056 -1.8105 0.9395
12.4026 6.8702 -1.6572 0.9445
12.1473 7.3106 -1.6571 0.9445
11.5902 8.1623 -1.6569 0.9445
10.9731 8.9716 -1.6567 0.9445
10.2994 9.7342 -1.6564 0.9445
9.9425 10.0967 -1.6563 0.9445
9.5728 10.4461 -1.6561 0.9445
9.1907 10.7819 -1.6559 0.9445
8.7969 11.1037 -1.6558 0.9445
8.3917 11.4111 -1.6556 0.9446
7.8961 11.5868 -1.6389 0.9451
7.3040 11.5913 -1.6014 0.9463
6.7377 11.5955 -1.5675 0.9474
6.2521 11.7082 -1.5514 0.9480
5.7238 11.7121 -1.5237 0.9489
4.7186 11.7197 -1.4767 0.9504
4.2492 11.7552 -1.4610 0.9509
3.7338 11.6181 -1.4264 0.9520
2.8343 11.6248 -1.3985 0.9530
1.5381 11.6345 -1.3717 0.9538
1.1152 11.6377 -1.3665 0.9540
0.6949 11.6409 -1.3630 0.9541
0.2763 11.6440 -1.3614 0.9542
-0.1419 11.6471 -1.3615 0.9542
-0.5606 11.6503 -1.3633 0.9541
-0.9811 11.6534 -1.3669 0.9540
-2.7021 11.6663 -1.3997 0.9529
-4.3986 12.6225 -1.5624 0.9476
-5.7272 12.0704 -1.5616 0.9476
-7.3747 12.0085 -1.6471 0.9448
-7.7997 11.7341 -1.6469 0.9448
-9.0118 10.8226 -1.6461 0.9449
-9.3931 10.4905 -1.6459 0.9449
-10.1185 9.7867 -1.6454 0.9449
-10.4619 9.4159 -1.6451 0.9449
-11.1075 8.6386 -1.6447 0.9449
-12.7761 8.5397 -1.7962 0.9400
-13.8604 6.6202 -1.7954 0.9400
-14.0877 6.1178 -1.7952 0.9400
-14.2968 5.6076 -1.7950 0.9400
-15.0621 2.9634 -1.7943 0.9401
-15.1577 2.4207 -1.7941 0.9401
-15.2340 1.8749 -1.7940 0.9401
-15.2906 1.3268 -1.7939 0.9401
-15.2789 -1.4245 -1.7936 0.9401
-15.0366 -3.0587 -1.7935 0.9401
-14.9171 -3.5965 -1.7935 0.9401
-14.7785 -4.1296 -1.7935 0.9401
-14.4445 -5.1794 -1.7936 0.9401
-13.8052 -6.7028 -1.7937 0.9401
-13.2899 -7.6767 -1.7939 0.9401
-13.0065 -8.1492 -1.7940 0.9401
-12.7063 -8.6114 -1.7941 0.9401
-12.3898 -9.0625 -1.7942 0.9401
-12.0573 -9.5021 -1.7943 0.9400
-11.7094 -9.9295 -1.7945 0.9400
-11.3463 -10.3443 -1.7946 0.9400
-10.5768 -11.1337 -1.7949 0.9400
-10.1713 -11.5072 -1.7951 0.9400
-9.7526 -11.8662 -1.7953 0.9400
-9.3214 -12.2099 -1.7955 0.9400
-8.8781 -12.5380 -1.7957 0.9400
-7.4814 -13.4246 -1.7963 0.9400
-6.9956 -13.6863 -1.7966 0.9400
-4.9549 -14.5176 -1.7930 0.9401
-4.4250 -14.6676 -1.7907 0.9402
-3.8650 -14.7004 -1.7766 0.9406
-2.7566 -14.7064 -1.7489 0.9415
-2.2138 -14.7087 -1.7386 0.9419
-0.5666 -13.5881 -1.8000 0.9466
0.4099 -13.5977 -1.8006 0.9466
0.6798 -6.6457 -0.8842 0.9734
0.9002 -6.4894 -0.8671 0.9739
1.7940 -6.2048 -0.8549 0.9743
2.0289 -6.1768 -0.8605 0.9741
3.0571 -6.1551 -0.9096 0.9727
3.3379 -6.1554 -0.9268 0.9721
3.9325 -6.1530 -0.9665 0.9710
4.3187 -6.2507 -1.0056 0.9698
8.1500 -10.9349 -1.8051 0.9465
8.9160 -10.3248 -1.8056 0.9464
9.9781 -9.3101 -1.8063 0.9464
10.3072 -8.9470 -1.8065 0.9464
10.6230 -8.5723 -1.8067 0.9464
10.9251 -8.1864 -1.8069 0.9464
11.7457 -6.9668 -1.8075 0.9464
11.9895 -6.5413 -1.8077 0.9464
12.6268 -5.2160 -1.8082 0.9464
12.8070 -4.7598 -1.8084 0.9464
13.1175 -3.8293 -1.8087 0.9464
13.3603 -2.8787 -1.8089 0.9463
13.4558 -2.3974 -1.8090 0.9463
13.5340 -1.9129 -1.8091 0.9463
13.6631 -0.4469 -1.8094 0.9463
13.6332 1.0246 -1.8095 0.9463
13.5879 1.5133 -1.8096 0.9463
13.3469 2.9654 -1.8096 0.9463
13.2318 3.4426 -1.8096 0.9463
12.9504 4.3829 -1.8096 0.9463
12.6021 5.3006 -1.8095 0.9463
10.7215 6.4525 -1.6562 0.9508
10.4825 6.8329 -1.6562 0.9508
10.2299 7.2044 -1.6561 0.9508
8.7760 8.9121 -1.6555 0.9508
8.1126 9.5171 -1.6552 0.9508
6.6643 10.5761 -1.6546 0.9508
6.2797 10.8073 -1.6544 0.9508
4.6661 11.5894 -1.6536 0.9508
4.1983 11.6146 -1.6346 0.9514
3.7338 11.6180 -1.6152 0.9520
3.2796 11.6214 -1.5983 0.9524
2.8343 11.6248 -1.5837 0.9529
1.5380 11.6345 -1.5533 0.9538
-0.5606 11.6503 -1.5438 0.9540
-0.9811 11.6534 -1.5479 0.9539
-1.4043 11.6566 -1.5540 0.9537
-2.2636 11.6630 -1.5725 0.9532
-2.7021 11.6663 -1.5850 0.9528
-3.6034 11.6731 -1.6170 0.9519
-4.0690 11.6766 -1.6366 0.9513
-4.5184 11.6075 -1.6486 0.9510
-4.9315 11.4362 -1.6484 0.9510
-5.7376 11.0496 -1.6479 0.9510
-7.2558 10.1089 -1.6470 0.9510
-7.6129 9.8406 -1.6467 0.9510
-7.9602 9.5597 -1.6465 0.9510
-8.2971 9.2666 -1.6463 0.9511
-8.6233 8.9616 -1.6461 0.9511
-8.9383 8.6452 -1.6459 0.9511
-9.2417 8.3177 -1.6457 0.9511
-9.5332 7.9796 -1.6455 0.9511
-9.8123 7.6314 -1.6453 0.9511
-11.5461 7.1316 -1.7962 0.9467
-11.7964 6.7136 -1.7965 0.9467
-12.0286 6.2852 -1.7963 0.9467
-12.2453 5.8488 -1.7961 0.9467
-12.6311 4.9543 -1.7958 0.9467
-12.7998 4.4973 -1.7957 0.9467
-12.9520 4.0346 -1.7955 0.9467
-13.0875 3.5668 -1.7954 0.9467
-13.2062 3.0945 -1.7953 0.9467
-13.3925 2.1388 -1.7951 0.9467
-13.5429 0.6866 -1.7948 0.9468
-13.5582 0.2000 -1.7947 0.9468
-13.5368 -0.7733 -1.7946 0.9468
-13.5001 -1.2587 -1.7946 0.9468
-13.4459 -1.7424 -1.7945 0.9468
-13.1805 -3.1778 -1.7945 0.9468
-12.9187 -4.1153 -1.7945 0.9468
-12.4022 -5.4805 -1.7946 0.9468
-11.9778 -6.3566 -1.7948 0.9468
-11.4919 -7.2003 -1.7949 0.9468
-11.2266 -7.6085 -1.7950 0.9467
-10.6530 -8.3954 -1.7952 0.9467
-10.0246 -9.1393 -1.7955 0.9467
-9.6908 -9.4940 -1.7956 0.9467
-9.3445 -9.8365 -1.7958 0.9467
-8.9862 -10.1665 -1.7959 0.9467
-8.2351 -10.7870 -1.7962 0.9467
-7.8434 -11.0767 -1.7964 0.9467
-6.6092 -11.8595 -1.7970 0.9467
-5.2978 -12.5057 -1.7976 0.9467
-4.3881 -12.8568 -1.7981 0.9467
-2.0232 -13.4427 -1.7993 0.9466
1.0887 -6.2030 -0.9314 0.9749
1.3163 -6.1865 -0.9354 0.9747
1.7765 -6.1442 -0.9459 0.9745
2.0138 -6.1309 -0.9544 0.9742
2.5099 -6.1203 -0.9783 0.9736
7.2926 -9.7845 -1.8048 0.9519
8.3052 -8.9470 -1.8054 0.9518
8.6220 -8.6441 -1.8056 0.9518
8.9277 -8.3300 -1.8058 0.9518
9.7746 -7.3243 -1.8064 0.9518
10.0323 -6.9694 -1.8066 0.9518
10.2770 -6.6055 -1.8068 0.9518
10.7264 -5.8522 -1.8071 0.9518
10.9305 -5.4639 -1.8073 0.9518
11.4573 -4.2582 -1.8077 0.9518
11.7350 -3.4257 -1.8080 0.9518
11.8511 -3.0024 -1.8081 0.9518
11.9520 -2.5752 -1.8082 0.9518
12.1999 -0.8383 -1.8085 0.9518
12.2225 -0.3998 -1.8086 0.9518
12.1957 0.9166 -1.8088 0.9518
12.1551 1.3537 -1.8088 0.9517
11.9395 2.6527 -1.8088 0.9517
11.8365 3.0796 -1.8088 0.9517
11.7183 3.5025 -1.8088 0.9517
11.5849 3.9208 -1.8088 0.9517
11.4365 4.3341 -1.8088 0.9517
10.1572 4.7082 -1.6557 0.9557
9.9813 5.0696 -1.6557 0.9557
9.5912 5.7722 -1.6555 0.9557
9.1514 6.4449 -1.6554 0.9557
8.6645 7.0841 -1.6552 0.9558
8.4041 7.3901 -1.6551 0.9558
8.1329 7.6865 -1.6550 0.9558
7.8512 7.9729 -1.6549 0.9558
7.5593 8.2490 -1.6548 0.9558
7.2578 8.5143 -1.6546 0.9558
6.9469 8.7687 -1.6545 0.9558
5.9624 9.4621 -1.6540 0.9558
5.6183 9.6691 -1.6539 0.9558
5.2671 9.8635 -1.6537 0.9558
4.9091 10.0452 -1.6535 0.9558
4.1749 10.3693 -1.6532 0.9558
3.7996 10.5113 -1.6530 0.9558
3.4194 10.6397 -1.6528 0.9558
3.0349 10.7543 -1.6526 0.9558
2.6466 10.8550 -1.6524 0.9558
2.2550 10.9417 -1.6522 0.9558
1.8605 11.0142 -1.6520 0.9558
1.4638 11.0726 -1.6518 0.9558
1.0652 11.1165 -1.6516 0.9558
0.6654 11.1462 -1.6514 0.9559
0.2648 11.1614 -1.6512 0.9559
-0.1360 11.1623 -1.6510 0.9559
-1.3347 11.0786 -1.6503 0.9559
-2.1255 10.9513 -1.6498 0.9559
-2.9049 10.7677 -1.6494 0.9559
-3.6690 10.5287 -1.6490 0.9559
-4.0440 10.3888 -1.6487 0.9559
-5.4864 9.6979 -1.6479 0.9559
-6.1665 9.2770 -1.6475 0.9560
-7.1254 8.5571 -1.6468 0.9560
-8.0012 7.7388 -1.6463 0.9560
-8.2729 7.4458 -1.6461 0.9560
-8.5340 7.1433 -1.6459 0.9560
-8.7840 6.8316 -1.6457 0.9560
-10.5606 6.0102 -1.7971 0.9521
-10.7686 5.6268 -1.7969 0.9521
-10.9627 5.2362 -1.7968 0.9521
-11.1427 4.8389 -1.7966 0.9521
-11.4594 4.0263 -1.7963 0.9521
-11.5957 3.6121 -1.7962 0.9521
-11.7172 3.1934 -1.7961 0.9521
-11.8235 2.7705 -1.7960 0.9521
-12.1253 0.6147 -1.7956 0.9521
-12.1391 0.1790 -1.7955 0.9521
-12.1200 -0.6923 -1.7954 0.9521
-12.0871 -1.1269 -1.7954 0.9521
-12.0387 -1.5600 -1.7953 0.9521
-11.9748 -1.9912 -1.7953 0.9521
-11.8955 -2.4197 -1.7953 0.9521
-11.8010 -2.8452 -1.7953 0.9521
-11.6913 -3.2670 -1.7953 0.9521
-11.4270 -4.0974 -1.7953 0.9521
-11.1041 -4.9069 -1.7954 0.9521
-10.9211 -5.3025 -1.7955 0.9521
-10.7241 -5.6913 -1.7955 0.9521
-10.5132 -6.0728 -1.7956 0.9521
-9.8008 -7.1688 -1.7958 0.9521
-9.2623 -7.8544 -1.7961 0.9521
-8.6761 -8.4998 -1.7963 0.9521
-8.3659 -8.8064 -1.7964 0.9521
-7.3725 -9.6571 -1.7969 0.9521
-7.0217 -9.9164 -1.7970 0.9521
-6.6618 -10.1630 -1.7972 0.9521
-6.2933 -10.3965 -1.7973 0.9520
-5.5323 -10.8234 -1.7977 0.9520
-5.1408 -11.0162 -1.7979 0.9520
-4.7425 -11.1948 -1.7981 0.9520
-4.3381 -11.3591 -1.7983 0.9520
-3.9280 -11.5088 -1.7985 0.9520
-3.5127 -11.6437 -1.7987 0.9520
-3.0929 -11.7637 -1.7989 0.9520
-2.6689 -11.8686 -1.7991 0.9520
-2.2415 -11.9582 -1.7993 0.9520
-1.8110 -12.0324 -1.7996 0.9520
1.0776 -6.1397 -1.0192 0.9751
1.5398 -6.1443 -1.0357 0.9747
2.0101 -6.1196 -1.0531 0.9742
2.5030 -6.1037 -1.0786 0.9736
2.7640 -6.1059 -1.0958 0.9732
3.0347 -6.1102 -1.1154 0.9727
3.3156 -6.1144 -1.1372 0.9722
7.5111 -8.0915 -1.8051 0.9562
7.7975 -7.8175 -1.8053 0.9562
8.0739 -7.5334 -1.8055 0.9562
9.2937 -5.9735 -1.8063 0.9562
9.5029 -5.6365 -1.8065 0.9562
9.7000 -5.2922 -1.8066 0.9562
9.8845 -4.9410 -1.8068 0.9562
10.2150 -4.2197 -1.8070 0.9562
10.3606 -3.8505 -1.8072 0.9562
10.4928 -3.4764 -1.8073 0.9562
10.6115 -3.0977 -1.8074 0.9562
10.7165 -2.7150 -1.8075 0.9562
10.9968 -1.1534 -1.8078 0.9562
11.0316 -0.7580 -1.8079 0.9562
11.0520 -0.3615 -1.8080 0.9562
11.0582 0.0354 -1.8080 0.9562
10.7028 2.7846 -1.8082 0.9562
10.5959 3.1670 -1.8082 0.9562
8.8548 4.9050 -1.6550 0.9598
8.4794 5.5272 -1.6549 0.9598
8.0603 6.1208 -1.6548 0.9598
7.8349 6.4058 -1.6547 0.9598
7.0996 7.2097 -1.6544 0.9598
6.8358 7.4594 -1.6543 0.9598
6.5631 7.6994 -1.6541 0.9598
6.2821 7.9294 -1.6540 0.9598
5.6960 8.3584 -1.6538 0.9598
5.3919 8.5567 -1.6536 0.9598
5.0808 8.7440 -1.6535 0.9598
4.7632 8.9199 -1.6533 0.9598
4.4395 9.0843 -1.6532 0.9598
3.7756 9.3776 -1.6528 0.9599
3.0924 9.6223 -1.6525 0.9599
2.7447 9.7261 -1.6523 0.9599
2.3936 9.8173 -1.6522 0.9599
0.9634 10.0543 -1.6514 0.9599
0.6018 10.0812 -1.6512 0.9599
0.2395 10.0951 -1.6510 0.9599
-1.2072 10.0207 -1.6502 0.9599
-2.2766 9.8292 -1.6496 0.9599
-2.6277 9.7400 -1.6494 0.9599
-3.6582 9.3976 -1.6488 0.9600
-4.6456 8.9467 -1.6482 0.9600
-5.2743 8.5883 -1.6479 0.9600
-5.5786 8.3925 -1.6477 0.9600
-5.8756 8.1859 -1.6475 0.9600
-6.1649 7.9689 -1.6473 0.9600
-6.4463 7.7416 -1.6471 0.9600
-6.7193 7.5044 -1.6469 0.9600
-7.2389 7.0015 -1.6466 0.9600
-7.7210 6.4628 -1.6463 0.9600
-7.9473 6.1809 -1.6461 0.9600
-8.1633 5.8911 -1.6460 0.9600
-8.3687 5.5938 -1.6458 0.9600
-8.5634 5.2893 -1.6457 0.9600
-9.5420 5.4305 -1.7951 0.9565
-9.7433 5.0911 -1.7974 0.9564
-9.9191 4.7377 -1.7973 0.9564
-10.0820 4.3782 -1.7971 0.9564
-10.2319 4.0132 -1.7970 0.9564
-10.3687 3.6431 -1.7969 0.9564
-10.4921 3.2683 -1.7968 0.9564
-10.6983 2.5069 -1.7966 0.9564
-10.8496 1.7327 -1.7964 0.9564
-10.9043 1.3420 -1.7963 0.9564
-10.9450 0.9497 -1.7962 0.9564
-10.9717 0.5562 -1.7962 0.9565
-10.9842 0.1620 -1.7961 0.9565
-10.9827 -0.2324 -1.7961 0.9565
-10.9670 -0.6265 -1.7960 0.9565
-10.9372 -1.0197 -1.7960 0.9565
-10.8934 -1.4116 -1.7960 0.9565
-10.6784 -2.5745 -1.7959 0.9565
-10.2004 -4.0765 -1.7960 0.9565
-10.0477 -4.4401 -1.7961 0.9565
-9.8821 -4.7980 -1.7961 0.9565
-9.7038 -5.1498 -1.7961 0.9565
-9.5130 -5.4950 -1.7962 0.9564
-8.6301 -6.8011 -1.7965 0.9564
-8.1208 -7.4036 -1.7967 0.9564
-7.5696 -7.9682 -1.7970 0.9564
-6.6706 -8.7377 -1.7973 0.9564
-6.3532 -8.9722 -1.7975 0.9564
-5.6940 -9.4065 -1.7978 0.9564
-4.2907 -10.1284 -1.7985 0.9564
-3.9248 -10.2769 -1.7986 0.9564
-2.0278 -10.8183 -1.7996 0.9564
-1.6383 -10.8853 -1.7998 0.9564
-0.4187 -10.0399 -1.8006 0.9600
0.1983 -6.5771 -1.1791 0.9736
0.8664 -6.2457 -1.1299 0.9747
1.3042 -6.1296 -1.1229 0.9749
1.5358 -6.1283 -1.1321 0.9747
1.7693 -6.1191 -1.1414 0.9744
2.0065 -6.1086 -1.1521 0.9742
2.2503 -6.1028 -1.1655 0.9739
2.7612 -6.0998 -1.1998 0.9732
3.0329 -6.1064 -1.2217 0.9727
3.3130 -6.1096 -1.2453 0.9722
6.0175 -8.0737 -1.8043 0.9599
6.5825 -7.6227 -1.8047 0.9599
6.8526 -7.3822 -1.8048 0.9599
7.3659 -6.8728 -1.8052 0.9599
7.6086 -6.6046 -1.8053 0.9599
8.0643 -6.0427 -1.8057 0.9599
8.2767 -5.7498 -1.8058 0.9599
8.4784 -5.4495 -1.8059 0.9599
8.6692 -5.1420 -1.8061 0.9599
9.0171 -4.5074 -1.8064 0.9599
9.5719 -3.1713 -1.8068 0.9599
9.7758 -2.4766 -1.8070 0.9598
9.8589 -2.1242 -1.8071 0.9598
10.0314 -1.0522 -1.8073 0.9598
10.0630 -0.6914 -1.8074 0.9598
9.9795 1.4758 -1.8076 0.9598
9.9202 1.8331 -1.8076 0.9598
9.7631 2.5401 -1.8076 0.9598
9.6655 2.8889 -1.8076 0.9598
9.5555 3.2340 -1.8076 0.9598
8.4251 4.2792 -1.6932 0.9623
8.0774 4.4743 -1.6546 0.9632
7.9113 4.7612 -1.6545 0.9632
7.7350 5.0420 -1.6544 0.9632
7.3527 5.5835 -1.6543 0.9632
7.1472 5.8435 -1.6542 0.9632
6.7088 6.3406 -1.6541 0.9632
6.2359 6.8047 -1.6539 0.9632
5.7308 7.2337 -1.6536 0.9632
5.4671 7.4342 -1.6535 0.9632
4.9189 7.8061 -1.6533 0.9632
4.3454 8.1376 -1.6530 0.9632
3.7497 8.4269 -1.6527 0.9632
2.5041 8.8735 -1.6521 0.9632
2.1838 8.9568 -1.6519 0.9632
1.8607 9.0285 -1.6518 0.9632
0.8790 9.1733 -1.6513 0.9632
0.5491 9.1980 -1.6511 0.9632
0.2185 9.2108 -1.6509 0.9633
-0.7727 9.1779 -1.6504 0.9633
-1.1015 9.1432 -1.6502 0.9633
-3.0285 8.6907 -1.6491 0.9633
-3.3381 8.5754 -1.6489 0.9633
-3.6434 8.4491 -1.6487 0.9633
-4.5291 8.0059 -1.6482 0.9633
-5.0908 7.6587 -1.6478 0.9633
-5.6260 7.2722 -1.6475 0.9633
-5.8828 7.0649 -1.6473 0.9633
-6.8308 6.1479 -1.6467 0.9633
-7.2530 5.6409 -1.6464 0.9633
-7.4502 5.3765 -1.6463 0.9634
-7.9335 4.9002 -1.6709 0.9628
-8.8925 4.6465 -1.7978 0.9600
-9.2017 3.9959 -1.7976 0.9601
-9.3386 3.6628 -1.7974 0.9601
-9.4635 3.3251 -1.7973 0.9601
-9.5762 2.9830 -1.7972 0.9601
-9.6765 2.6372 -1.7971 0.9601
-9.8399 1.9360 -1.7970 0.9601
-9.9026 1.5814 -1.7969 0.9601
-2.0522 0.1781 -0.3691 0.9917
-2.0422 0.1035 -0.3664 0.9917
-2.0198 0.0298 -0.3619 0.9918
-2.0247 -0.0428 -0.3629 0.9918
-2.0449 -0.1168 -0.3670 0.9917
-2.0516 -0.1913 -0.3692 0.9917
-2.0396 -0.2643 -0.3685 0.9917
-9.8901 -1.6445 -1.7965 0.9601
-9.8246 -1.9985 -1.7965 0.9601
-9.6559 -2.6982 -1.7965 0.9601
-9.5529 -3.0431 -1.7965 0.9601
-9.3102 -3.7207 -1.7965 0.9601
-9.1708 -4.0526 -1.7966 0.9601
-8.4974 -5.3241 -1.7968 0.9601
-8.0942 -5.9205 -1.7969 0.9601
-7.8768 -6.2075 -1.7970 0.9601
-7.6492 -6.4865 -1.7971 0.9601
-7.4119 -6.7573 -1.7972 0.9601
-6.9088 -7.2725 -1.7974 0.9601
-6.6437 -7.5163 -1.7975 0.9601
-6.3700 -7.7504 -1.7976 0.9601
-6.0881 -7.9747 -1.7978 0.9600
-5.1967 -8.5849 -1.7982 0.9600
-4.8856 -8.7666 -1.7983 0.9600
-4.5681 -8.9371 -1.7985 0.9600
-3.2432 -9.5023 -1.7991 0.9600
-2.9003 -9.6135 -1.7993 0.9600
-2.5535 -9.7124 -1.7995 0.9600
-2.2035 -9.7987 -1.7996 0.9600
-1.8505 -9.8725 -1.7998 0.9600
-0.3848 -9.2284 -1.8007 0.9631
-0.0533 -9.2371 -1.8009 0.9631
0.1967 -6.5241 -1.2725 0.9738
1.5334 -6.1185 -1.2297 0.9746
2.0075 -6.1117 -1.2541 0.9741
2.2525 -6.1087 -1.2693 0.9738
2.7640 -6.1060 -1.3067 0.9731
3.3104 -6.1048 -1.3539 0.9721
3.6050 -6.1136 -1.3837 0.9715
5.5301 -7.4198 -1.8041 0.9630
6.5375 -6.5543 -1.8048 0.9630
6.7691 -6.3159 -1.8049 0.9630
7.4107 -5.5530 -1.8054 0.9630
8.1316 -4.4365 -1.8059 0.9630
8.2861 -4.1420 -1.8060 0.9630
8.4300 -3.8421 -1.8061 0.9629
8.6850 -3.2278 -1.8063 0.9629
8.7957 -2.9141 -1.8064 0.9629
9.0593 -1.9520 -1.8067 0.9629
9.2177 -0.9668 -1.8069 0.9629
9.2639 -0.3030 -1.8070 0.9629
9.2690 0.0297 -1.8071 0.9629
9.2126 1.0260 -1.8072 0.9629
9.1699 1.3561 -1.8072 0.9629
9.1154 1.6844 -1.8072 0.9629
8.6679 3.2849 -1.8071 0.9629
8.2331 4.1817 -1.8003 0.9631
7.1076 4.6330 -1.6541 0.9660
6.9365 4.8850 -1.6540 0.9660
6.3703 5.6016 -1.6538 0.9660
6.1648 5.8264 -1.6537 0.9660
5.9513 6.0436 -1.6536 0.9660
5.7302 6.2530 -1.6535 0.9660
5.2662 6.6472 -1.6533 0.9660
4.7751 7.0070 -1.6531 0.9660
3.7220 7.6160 -1.6526 0.9660
3.4459 7.7441 -1.6525 0.9660
3.1654 7.8621 -1.6523 0.9660
2.3013 8.1547 -1.6519 0.9661
1.7100 8.2973 -1.6516 0.9661
1.4109 8.3525 -1.6514 0.9661
0.8078 8.4306 -1.6511 0.9661
0.5046 8.4534 -1.6510 0.9661
0.2008 8.4652 -1.6508 0.9661
-0.7101 8.4352 -1.6503 0.9661
-1.0124 8.4034 -1.6501 0.9661
-1.3132 8.3608 -1.6500 0.9661
-1.6123 8.3074 -1.6498 0.9661
-1.9093 8.2433 -1.6496 0.9661
-2.2038 8.1687 -1.6495 0.9661
-2.4953 8.0835 -1.6493 0.9661
-3.8966 7.5042 -1.6485 0.9661
-4.1631 7.3588 -1.6483 0.9661
-4.4241 7.2039 -1.6481 0.9661
-4.6794 7.0398 -1.6480 0.9661
-4.9286 6.8666 -1.6478 0.9661
-5.1714 6.6846 -1.6477 0.9661
-6.2791 5.6513 -1.6469 0.9662
-8.0071 4.5570 -1.7961 0.9632
-8.1747 4.2714 -1.7981 0.9631
-8.5849 3.3672 -1.7978 0.9631
-1.7744 0.5527 -0.3623 0.9925
-1.7138 0.3372 -0.3405 0.9929
-1.6983 0.2712 -0.3353 0.9930
-1.7084 0.0866 -0.3335 0.9931
-1.7069 -0.1591 -0.3342 0.9930
-1.7031 -0.2207 -0.3348 0.9930
-1.7178 -0.3494 -0.3418 0.9929
-1.7396 -0.4194 -0.3489 0.9927
-1.7595 -0.4916 -0.3562 0.9926
-8.6764 -3.1111 -1.7970 0.9631
-8.5592 -3.4206 -1.7970 0.9631
-8.4311 -3.7257 -1.7970 0.9631
-7.9823 -4.6108 -1.7971 0.9631
-7.8119 -4.8945 -1.7972 0.9631
-7.2412 -5.7066 -1.7974 0.9631
-6.8138 -6.2120 -1.7976 0.9631
-6.5867 -6.4529 -1.7977 0.9631
-6.3512 -6.6856 -1.7978 0.9631
-6.1075 -6.9097 -1.7979 0.9631
-5.8559 -7.1249 -1.7980 0.9631
-5.5967 -7.3310 -1.7981 0.9631
-5.0570 -7.7147 -1.7983 0.9631
-4.4911 -8.0588 -1.7986 0.9631
-4.1993 -8.2154 -1.7987 0.9631
-3.9020 -8.3616 -1.7989 0.9631
-3.2925 -8.6214 -1.7992 0.9631
-2.9812 -8.7348 -1.7993 0.9631
-2.6660 -8.8369 -1.7995 0.9631
-2.0254 -9.0071 -1.7998 0.9631
-1.7010 -9.0748 -1.8000 0.9631
-1.3743 -9.1309 -1.8002 0.9631
-0.6620 -8.5154 -1.8006 0.9657
-0.3559 -8.5344 -1.8008 0.9657
0.6252 -6.1116 -1.2952 0.9752
1.3018 -6.1181 -1.3187 0.9748
1.5321 -6.1133 -1.3287 0.9746
2.0093 -6.1173 -1.3574 0.9740
2.5068 -6.1128 -1.3928 0.9734
2.7652 -6.1086 -1.4136 0.9730
3.0344 -6.1095 -1.4381 0.9725
3.3094 -6.1029 -1.4636 0.9720
3.9075 -6.1138 -1.5297 0.9708
5.1135 -6.8609 -1.8040 0.9656
5.5935 -6.4774 -1.8043 0.9656
5.8229 -6.2729 -1.8044 0.9656
6.0449 -6.0604 -1.8046 0.9656
6.4651 -5.6120 -1.8048 0.9656
6.6629 -5.3767 -1.8050 0.9656
6.8521 -5.1344 -1.8051 0.9656
7.2038 -4.6302 -1.8054 0.9656
7.3659 -4.3689 -1.8055 0.9656
7.7943 -3.5524 -1.8058 0.9656
7.9172 -3.2705 -1.8059 0.9656
8.0300 -2.9844 -1.8060 0.9656
8.2242 -2.4008 -1.8062 0.9656
8.3760 -1.8047 -1.8063 0.9656
8.4357 -1.5029 -1.8064 0.9656
8.4845 -1.1992 -1.8065 0.9656
8.5650 -0.2802 -1.8066 0.9656
8.4781 1.2538 -1.8068 0.9656
8.2114 2.4543 -1.8068 0.9656
8.0140 3.0370 -1.8068 0.9656
7.8997 3.3227 -1.8067 0.9656
7.7752 3.6040 -1.8067 0.9656
7.6317 3.8762 -1.8045 0.9656
6.9927 4.2084 -1.7206 0.9672
6.5714 4.2835 -1.6537 0.9684
6.2467 4.7436 -1.6536 0.9684
5.8898 5.1791 -1.6535 0.9684
5.6998 5.3870 -1.6534 0.9684
5.5025 5.5878 -1.6533 0.9684
5.2981 5.7814 -1.6532 0.9685
4.8691 6.1460 -1.6530 0.9685
4.1794 6.6325 -1.6527 0.9685
3.9383 6.7778 -1.6526 0.9685
3.6922 6.9143 -1.6525 0.9685
3.4414 7.0419 -1.6524 0.9685
3.1862 7.1604 -1.6523 0.9685
2.9269 7.2696 -1.6521 0.9685
2.3974 7.4596 -1.6519 0.9685
2.1279 7.5403 -1.6517 0.9685
1.0914 4.4764 -0.9714 0.9813
0.9285 4.5051 -0.9697 0.9814
1.3046 7.7233 -1.6513 0.9685
1.0264 7.7645 -1.6512 0.9685
0.7470 7.7957 -1.6510 0.9685
0.4666 7.8168 -1.6509 0.9685
-0.3763 7.8195 -1.6504 0.9685
-0.9362 7.7709 -1.6501 0.9685
-1.2144 7.7315 -1.6499 0.9685
-1.7656 7.6230 -1.6496 0.9685
-2.8374 7.2891 -1.6490 0.9685
-3.0969 7.1819 -1.6489 0.9685
-3.3525 7.0654 -1.6487 0.9685
-3.6036 6.9399 -1.6485 0.9685
-3.8500 6.8055 -1.6484 0.9685
-4.3276 6.5105 -1.6481 0.9685
-5.0011 6.0060 -1.6477 0.9686
-5.2131 5.8221 -1.6475 0.9686
-5.4183 5.6308 -1.6474 0.9686
-5.6164 5.4322 -1.6473 0.9686
-5.8073 5.2267 -1.6471 0.9686
-6.6828 4.4669 -1.6946 0.9677
-7.5608 3.9506 -1.7984 0.9657
-7.9403 3.1144 -1.7981 0.9657
-1.6255 0.5711 -0.3632 0.9930
-1.6130 0.5025 -0.3562 0.9931
-1.5642 0.2498 -0.3340 0.9935
-1.5728 0.1365 -0.3328 0.9936
-1.5740 0.0798 -0.3323 0.9936
-1.5731 0.0232 -0.3317 0.9936
-1.5734 -0.0333 -0.3318 0.9936
-1.5688 -0.2033 -0.3335 0.9936
-1.5631 -0.2599 -0.3341 0.9935
-1.6017 -0.4476 -0.3506 0.9932
-1.6275 -0.5836 -0.3645 0.9930
-7.9168 -3.1639 -1.7974 0.9657
-7.6697 -3.7238 -1.7974 0.9657
-7.0585 -4.7837 -1.7976 0.9657
-6.5041 -5.5155 -1.7978 0.9657
-6.3022 -5.7456 -1.7979 0.9657
-6.0922 -5.9685 -1.7980 0.9657
-5.8743 -6.1836 -1.7981 0.9657
-5.1764 -6.7804 -1.7984 0.9657
-4.9300 -6.9623 -1.7985 0.9657
-3.8838 -7.5983 -1.7990 0.9657
-2.7572 -8.0784 -1.7995 0.9657
-2.1708 -8.2567 -1.7998 0.9657
-1.8732 -8.3300 -1.8000 0.9657
-1.2710 -8.4444 -1.8003 0.9657
1.3012 -6.1154 -1.4180 0.9747
1.5330 -6.1171 -1.4302 0.9745
2.0115 -6.1240 -1.4619 0.9739
2.5103 -6.1215 -1.5005 0.9732
3.6050 -6.1136 -1.6096 0.9713
3.9075 -6.1138 -1.6455 0.9707
4.9794 -6.2031 -1.8040 0.9679
5.6187 -5.6332 -1.8044 0.9679
5.8177 -5.4283 -1.8045 0.9679
6.0093 -5.2163 -1.8046 0.9679
6.6958 -4.3037 -1.8051 0.9679
6.9881 -3.8126 -1.8053 0.9679
7.0197 -3.5090 -1.7798 0.9683
7.4635 -2.7738 -1.8057 0.9679
7.7194 -1.9557 -1.8060 0.9679
7.7850 -1.6774 -1.8060 0.9679
7.8404 -1.3969 -1.8061 0.9679
7.8858 -1.1146 -1.8062 0.9679
7.9210 -0.8308 -1.8062 0.9679
7.9459 -0.5460 -1.8063 0.9679
7.9606 -0.2604 -1.8063 0.9679
7.9650 0.0255 -1.8064 0.9679
7.9590 0.3114 -1.8064 0.9679
7.9428 0.5969 -1.8064 0.9679
7.9164 0.8817 -1.8064 0.9679
7.8797 1.1653 -1.8064 0.9679
7.8328 1.4474 -1.8065 0.9679
7.7759 1.7276 -1.8065 0.9679
7.7088 2.0057 -1.8065 0.9679
7.4484 2.8227 -1.8064 0.9679
7.3421 3.0882 -1.8064 0.9679
7.2264 3.3497 -1.8064 0.9679
6.8016 4.0934 -1.8003 0.9680
5.9920 4.2198 -1.6621 0.9704
5.6437 4.6143 -1.6533 0.9705
5.4742 4.8137 -1.6532 0.9705
5.2977 5.0069 -1.6531 0.9705
5.1143 5.1936 -1.6531 0.9705
4.9243 5.3736 -1.6530 0.9705
4.7280 5.5466 -1.6529 0.9705
4.5256 5.7124 -1.6528 0.9706
4.3174 5.8709 -1.6527 0.9706
3.4319 6.4268 -1.6523 0.9706
3.1988 6.5454 -1.6522 0.9706
2.4760 6.8498 -1.6518 0.9706
1.9779 7.0088 -1.6516 0.9706
1.0907 4.4733 -1.0442 0.9813
0.9222 4.4749 -1.0362 0.9814
0.6944 7.2464 -1.6509 0.9706
0.4338 7.2660 -1.6508 0.9706
0.1726 7.2763 -1.6506 0.9706
-0.0887 7.2772 -1.6505 0.9706
-0.3498 7.2687 -1.6504 0.9706
-0.6104 7.2508 -1.6502 0.9706
-0.8702 7.2236 -1.6501 0.9706
-1.3860 7.1413 -1.6498 0.9706
-2.1451 6.9491 -1.6493 0.9706
-2.3930 6.8670 -1.6492 0.9706
-2.8790 6.6765 -1.6489 0.9706
-3.1165 6.5683 -1.6488 0.9706
-3.3500 6.4516 -1.6486 0.9706
-3.5791 6.3267 -1.6485 0.9706
-4.0232 6.0525 -1.6482 0.9706
-4.2375 5.9037 -1.6481 0.9706
-4.4463 5.7474 -1.6479 0.9706
-4.8465 5.4127 -1.6477 0.9706
-5.0372 5.2349 -1.6476 0.9706
-5.3991 4.8592 -1.6473 0.9706
-5.7330 4.4587 -1.6471 0.9707
-6.7386 4.1622 -1.7962 0.9680
-7.1564 3.4181 -1.7986 0.9680
-7.2741 3.1588 -1.7985 0.9680
-1.4675 0.3999 -0.3449 0.9938
-1.4420 0.2837 -0.3333 0.9940
-1.4573 0.1265 -0.3317 0.9940
-1.4585 0.0739 -0.3312 0.9940
-1.4578 0.0215 -0.3307 0.9940
-1.4584 -0.0833 -0.3313 0.9940
-1.4569 -0.1358 -0.3318 0.9940
-1.4534 -0.1883 -0.3324 0.9940
-1.4441 -0.2937 -0.3342 0.9940
-1.4575 -0.3514 -0.3400 0.9939
-7.2505 -3.2040 -1.7977 0.9680
-7.1310 -3.4623 -1.7978 0.9680
-7.0022 -3.7161 -1.7978 0.9680
-6.8645 -3.9652 -1.7978 0.9680
-6.7179 -4.2092 -1.7979 0.9680
-6.5627 -4.4477 -1.7979 0.9680
-6.3990 -4.6806 -1.7980 0.9680
-6.2271 -4.9074 -1.7981 0.9680
-6.0472 -5.1280 -1.7981 0.9680
-5.4616 -5.7491 -1.7984 0.9680
-5.2520 -5.9418 -1.7985 0.9680
-5.0355 -6.1268 -1.7986 0.9680
-4.8126 -6.3040 -1.7987 0.9680
-4.1078 -6.7860 -1.7990 0.9680
-3.3551 -7.1897 -1.7993 0.9680
-2.8310 -7.4129 -1.7996 0.9680
-2.5633 -7.5104 -1.7997 0.9680
-2.0182 -7.6761 -1.8000 0.9680
-1.4625 -7.8023 -1.8003 0.9680
-1.1816 -7.8504 -1.8004 0.9680
-0.8991 -7.8884 -1.8006 0.9680
-0.5747 -7.3926 -1.8008 0.9699
-0.3090 -7.4090 -1.8010 0.9699
-0.0428 -7.4159 -1.8011 0.9699
0.2234 -7.4133 -1.8012 0.9699
0.4096 -6.1933 -1.5074 0.9748
0.6252 -6.1117 -1.4920 0.9750
1.0728 -6.1120 -1.5071 0.9748
1.3017 -6.1176 -1.5190 0.9746
1.5328 -6.1163 -1.5314 0.9744
2.0134 -6.1297 -1.5669 0.9738
2.5678 -6.9638 -1.8026 0.9699
2.8163 -6.8677 -1.8027 0.9699
3.0613 -6.7627 -1.8029 0.9699
3.3023 -6.6490 -1.8030 0.9699
3.5392 -6.5267 -1.8031 0.9699
3.9989 -6.2569 -1.8034 0.9699
4.2213 -6.1098 -1.8036 0.9699
4.4382 -5.9548 -1.8037 0.9699
5.4321 -5.0684 -1.8043 0.9699
5.6109 -4.8705 -1.8045 0.9699
6.1032 -4.2399 -1.8048 0.9699
6.2518 -4.0183 -1.8049 0.9699
6.3924 -3.7915 -1.8050 0.9699
6.8707 -2.8382 -1.8054 0.9699
7.1369 -2.0834 -1.8056 0.9699
7.2074 -1.8259 -1.8057 0.9699
7.2685 -1.5661 -1.8058 0.9699
7.3626 -1.0406 -1.8059 0.9699
7.4324 -0.2431 -1.8060 0.9699
7.4310 0.2908 -1.8061 0.9699
7.4158 0.5573 -1.8061 0.9699
7.3911 0.8232 -1.8061 0.9699
7.2599 1.6130 -1.8062 0.9699
6.9542 2.6354 -1.8061 0.9699
6.6302 3.3676 -1.8060 0.9699
6.3661 3.8313 -1.8045 0.9699
6.2115 4.0489 -1.8007 0.9699
5.2693 4.3082 -1.6530 0.9724
4.7751 4.8491 -1.6528 0.9724
4.5977 5.0172 -1.6527 0.9724
4.2255 5.3336 -1.6526 0.9724
4.0311 5.4816 -1.6525 0.9724
3.8316 5.6224 -1.6524 0.9724
3.4179 5.8821 -1.6522 0.9724
3.2043 6.0007 -1.6521 0.9724
2.7652 6.2143 -1.6519 0.9724
1.8468 6.5443 -1.6514 0.9724
1.1323 6.7034 -1.6511 0.9724
0.4050 6.7847 -1.6507 0.9724
-0.0828 6.7952 -1.6504 0.9724
-0.3266 6.7873 -1.6503 0.9724
-0.5700 6.7707 -1.6502 0.9724
-0.8126 6.7453 -1.6500 0.9724
-1.2943 6.6685 -1.6498 0.9724
-2.0032 6.4892 -1.6494 0.9724
-2.2346 6.4125 -1.6492 0.9724
-3.1284 6.0248 -1.6487 0.9724
-3.3424 5.9081 -1.6486 0.9724
-3.9572 5.5133 -1.6482 0.9725
-4.1523 5.3673 -1.6481 0.9725
-4.3419 5.2144 -1.6479 0.9725
-4.5260 5.0548 -1.6478 0.9725
-4.8763 4.7164 -1.6476 0.9725
-5.0421 4.5380 -1.6475 0.9725
-5.2014 4.3538 -1.6474 0.9725
-5.9682 4.3070 -1.7875 0.9702
-6.4379 3.6639 -1.7990 0.9700
-6.5649 3.4303 -1.7989 0.9700
-1.3767 0.5979 -0.3645 0.9938
-1.3743 0.5391 -0.3585 0.9939
-1.3636 0.4248 -0.3469 0.9941
-1.3555 0.3694 -0.3412 0.9942
