ply
format ascii 1.0
element vertex 1562
property float32 x
property float32 y
property float32 z
property float32 I
end_header
-24.3305 23.5326 -0.8441 0.8733
-48.1473 37.4459 -1.5211 0.7834
-49.1526 35.4713 -1.5116 0.7846
-53.1136 35.5017 -1.5932 0.7744
-59.4768 25.8285 -1.6171 0.7715
-60.3480 23.6700 -1.6166 0.7715
-61.1422 21.4827 -1.6162 0.7716
-63.0567 14.7756 -1.6151 0.7717
-63.9353 10.2104 -1.6146 0.7718
-70.6194 3.5800 -1.7634 0.7536
-47.1411 0.6952 -1.1758 0.8281
-70.4093 -6.5646 -1.7635 0.7536
-70.1345 -9.0885 -1.7637 0.7535
-69.7706 -11.6015 -1.7639 0.7535
-61.7375 -19.6666 -1.6159 0.7716
-54.7833 -19.6438 -1.4514 0.7923
-46.2209 -20.4251 -1.2602 0.8169
-46.3255 -22.4923 -1.2843 0.8138
-46.2110 -24.5243 -1.3047 0.8111
-25.9675 -14.9997 -0.7479 0.8869
-36.1753 -24.5170 -1.0898 0.8396
-36.1903 -26.4715 -1.1182 0.8358
-36.2062 -28.5332 -1.1496 0.8316
-27.6722 -23.4660 -0.9048 0.8649
-27.7004 -27.1378 -0.9671 0.8563
-17.9954 -23.5719 -0.7396 0.8881
-36.2389 -59.8664 -1.7452 0.7558
-34.1723 -61.3180 -1.7506 0.7551
-0.8428 -20.2119 -0.8131 0.9222
-0.1187 -20.5796 -0.8271 0.9209
0.6120 -20.3046 -0.8164 0.9219
1.3707 -20.7255 -0.8348 0.9202
2.0708 -20.2432 -0.8179 0.9218
2.7850 -20.0756 -0.8146 0.9221
4.3284 -20.3424 -0.8359 0.9201
2.8831 -9.9712 -0.4172 0.9593
4.4469 -9.8235 -0.4334 0.9578
4.8800 -9.8255 -0.4409 0.9570
9.6725 -16.4032 -0.7654 0.9266
15.0564 -20.2012 -1.0126 0.9041
16.6549 -20.7478 -1.0693 0.8990
14.1713 -15.2665 -0.8372 0.9200
20.3943 -20.4467 -1.1607 0.8908
22.0325 -20.5575 -1.2111 0.8864
23.3704 -20.2865 -1.2438 0.8835
25.4192 -20.5123 -1.3128 0.8774
15.1763 -11.3719 -0.7622 0.9269
15.1817 -10.5468 -0.7430 0.9287
15.1868 -9.7612 -0.7256 0.9303
16.5223 -9.7999 -0.7721 0.9260
17.4495 -9.5203 -0.7989 0.9235
19.0512 -9.5232 -0.8560 0.9183
17.8654 -7.3800 -0.7769 0.9255
17.9125 -6.6573 -0.7680 0.9264
38.8059 -9.8312 -1.6090 0.8519
44.4215 -9.5712 -1.8264 0.8337
45.0016 -6.3606 -1.8267 0.8336
45.2038 -4.7414 -1.8268 0.8336
39.4943 -1.2919 -1.5882 0.8537
41.1570 6.0865 -1.6722 0.8466
40.9087 7.5593 -1.6720 0.8466
34.6701 10.3625 -1.4544 0.8651
34.2662 11.5971 -1.4540 0.8652
28.1210 13.0350 -1.2458 0.8833
28.1972 14.3216 -1.2711 0.8811
28.1863 15.6134 -1.2951 0.8790
28.3350 24.9160 -1.5165 0.8598
28.3701 26.8129 -1.5689 0.8553
28.3928 28.8330 -1.6264 0.8504
23.2587 25.3805 -1.3836 0.8713
22.6016 26.5146 -1.4003 0.8698
22.6438 28.5818 -1.4656 0.8642
20.7916 28.2726 -1.4105 0.8689
6.2407 11.6867 -0.5325 0.9483
5.7370 11.7391 -0.5251 0.9490
5.2253 11.7431 -0.5166 0.9498
3.3237 11.7777 -0.4919 0.9522
2.4299 11.7905 -0.4838 0.9530
0.6010 4.5464 -0.1843 0.9818
1.1308 11.8005 -0.4765 0.9537
-0.1439 11.8103 -0.4747 0.9538
-0.5670 11.7816 -0.4741 0.9539
-1.8571 11.8234 -0.4810 0.9532
-2.2954 11.8268 -0.4842 0.9529
-3.1925 11.8337 -0.4926 0.9521
-4.1192 11.8205 -0.5031 0.9511
-5.4028 13.8794 -0.5986 0.9421
-5.9870 13.8839 -0.6077 0.9413
-12.5343 26.4167 -1.1752 0.8895
-23.2973 37.9359 -1.7893 0.8368
-23.7016 35.6572 -1.7208 0.8425
-23.8541 33.2340 -1.6442 0.8489
-17.1524 20.5988 -1.0773 0.8982
-35.9601 25.9508 -1.7824 0.8373
-36.6821 24.5187 -1.7733 0.8381
-24.4024 15.0724 -1.1528 0.8915
-37.3570 21.2605 -1.7276 0.8419
-26.5604 13.8782 -1.2045 0.8869
-38.6839 12.0502 -1.6285 0.8503
-39.4388 9.2414 -1.6281 0.8503
-40.9819 6.5448 -1.6680 0.8469
-42.8021 5.2678 -1.7333 0.8414
-44.0703 3.8240 -1.7779 0.8377
-44.1777 2.2395 -1.7779 0.8377
-44.1628 -2.5227 -1.7779 0.8377
-44.0453 -4.1065 -1.7779 0.8377
-43.8718 -5.6853 -1.7780 0.8377
-43.6425 -7.2569 -1.7782 0.8377
-43.3577 -8.8196 -1.7783 0.8377
-42.1737 -13.4345 -1.7790 0.8376
-40.9139 -14.6707 -1.7469 0.8403
-37.6375 -15.0414 -1.6290 0.8502
-37.0803 -16.3859 -1.6294 0.8502
-36.4756 -17.7100 -1.6297 0.8502
-33.9515 -23.0098 -1.6484 0.8486
-33.1277 -24.2313 -1.6496 0.8485
-27.6725 -23.4663 -1.4583 0.8648
-27.4361 -31.0398 -1.6650 0.8472
-19.2951 -23.4766 -1.2214 0.8855
-18.0100 -25.4346 -1.2526 0.8827
-18.0259 -27.4994 -1.3215 0.8767
-9.3699 -27.4534 -1.1659 0.8904
-12.2276 -40.5312 -1.7015 0.8441
-10.7798 -40.9958 -1.7037 0.8439
-0.8428 -20.2119 -1.1220 0.9222
-0.1194 -20.6912 -1.1476 0.9204
2.0708 -20.2432 -1.1286 0.9217
1.6711 -6.6681 -0.3813 0.9728
1.9369 -6.6987 -0.3868 0.9725
2.2080 -6.7220 -0.3924 0.9721
3.9908 -9.7317 -0.5834 0.9587
4.4023 -9.7250 -0.5921 0.9581
5.2733 -9.7246 -0.6136 0.9567
13.0418 -20.4057 -1.3432 0.9075
15.0564 -20.2012 -1.3974 0.9040
14.0966 -15.1860 -1.1492 0.9203
20.3992 -20.4516 -1.6021 0.8907
21.9047 -20.4381 -1.6616 0.8869
15.1758 -11.3715 -1.0518 0.9268
15.1812 -10.5464 -1.0253 0.9286
15.9090 -9.4361 -1.0259 0.9286
17.4311 -9.5102 -1.1013 0.9235
19.0434 -9.5193 -1.1808 0.9182
17.2056 -7.1074 -1.0325 0.9281
31.4869 -9.1916 -1.8193 0.8769
32.4880 -4.5919 -1.8198 0.8768
32.7964 -1.0725 -1.8200 0.8768
32.7888 1.2830 -1.8200 0.8768
32.7209 2.4591 -1.8199 0.8768
32.6105 3.6319 -1.8199 0.8768
31.4344 5.8086 -1.7730 0.8798
30.3815 6.7502 -1.7262 0.8828
28.5712 9.6696 -1.6730 0.8862
28.2770 10.7160 -1.6772 0.8859
28.1217 11.8283 -1.6921 0.8850
28.1029 13.0266 -1.7180 0.8833
28.1052 14.2749 -1.7484 0.8814
22.5003 15.8458 -1.5264 0.8956
22.5609 17.1322 -1.5712 0.8927
25.3469 20.7235 -1.8159 0.8771
23.7835 22.4780 -1.8151 0.8771
22.0982 24.1142 -1.8141 0.8772
13.7464 16.1263 -1.1753 0.9186
13.8628 20.3422 -1.3653 0.9061
13.8014 21.9023 -1.4359 0.9015
7.9812 13.7354 -0.8811 0.9383
6.2406 11.6865 -0.7348 0.9483
5.7370 11.7391 -0.7247 0.9490
3.7776 11.7542 -0.6848 0.9517
2.8661 11.7552 -0.6711 0.9527
2.4233 11.7586 -0.6659 0.9530
1.1308 11.8005 -0.6575 0.9536
0.7047 11.8038 -0.6558 0.9537
-0.5670 11.7816 -0.6542 0.9538
-1.4038 11.6530 -0.6510 0.9541
-2.2892 11.7948 -0.6664 0.9530
-5.9870 13.8839 -0.8386 0.9412
-12.5208 26.3882 -1.6200 0.8896
-15.9205 28.1418 -1.7933 0.8785
-16.9153 27.5438 -1.7928 0.8785
-17.8879 26.9109 -1.7922 0.8786
-18.8368 26.2438 -1.7917 0.8786
-19.7612 25.5436 -1.7912 0.8786
-17.7033 17.1227 -1.3660 0.9060
-20.8594 18.7738 -1.5565 0.8937
-23.7947 18.5060 -1.6719 0.8862
-24.0371 17.3466 -1.6441 0.8880
-24.4025 15.0725 -1.5908 0.8915
-26.2530 13.7176 -1.6429 0.8881
-26.7243 12.7644 -1.6426 0.8881
-27.1613 11.7951 -1.6424 0.8881
-29.9715 11.7555 -1.7856 0.8790
-30.7306 9.5727 -1.7852 0.8790
-31.0513 8.4626 -1.7850 0.8790
-31.3324 7.3419 -1.7849 0.8790
-31.5734 6.2120 -1.7848 0.8791
-31.7741 5.0743 -1.7847 0.8791
-32.1320 1.6289 -1.7845 0.8791
-32.1658 -0.6807 -1.7844 0.8791
-32.1210 -1.8349 -1.7845 0.8791
-31.9086 -4.1350 -1.7846 0.8791
-31.5334 -6.4144 -1.7848 0.8790
-29.8964 -11.9478 -1.7857 0.8790
-28.9704 -14.0659 -1.7862 0.8790
-27.6711 -14.6852 -1.7375 0.8821
-25.5366 -14.7508 -1.6357 0.8886
-24.9951 -15.6608 -1.6360 0.8885
-24.4215 -16.5511 -1.6363 0.8885
-23.1807 -18.2682 -1.6370 0.8885
-21.8202 -19.8933 -1.6377 0.8884
-19.9009 -22.5162 -1.6668 0.8866
-19.0932 -23.2310 -1.6678 0.8865
-17.4006 -24.5739 -1.6701 0.8864
-16.5191 -25.2007 -1.6713 0.8863
-15.6154 -25.7966 -1.6725 0.8862
-14.6905 -26.3604 -1.6738 0.8861
-9.3472 -24.4752 -1.4531 0.9004
-4.5279 -30.0844 -1.6874 0.8853
-3.4480 -30.2530 -1.6888 0.8852
-0.8428 -20.2119 -1.4315 0.9221
-0.1188 -20.6027 -1.4579 0.9207
0.6110 -20.2704 -1.4350 0.9219
2.0708 -20.2432 -1.4399 0.9216
1.4084 -10.1524 -0.7253 0.9597
1.6191 -6.4604 -0.4713 0.9736
2.1222 -6.4608 -0.4812 0.9731
2.3899 -6.4813 -0.4888 0.9727
4.3842 -9.6851 -0.7523 0.9583
5.2407 -9.6645 -0.7780 0.9569
12.6071 -19.7256 -1.6565 0.9104
13.3101 -19.2648 -1.6569 0.9104
13.9962 -18.7788 -1.6573 0.9104
17.1421 -15.9945 -1.6590 0.9103
17.7086 -15.3717 -1.6593 0.9103
18.2761 -14.7480 -1.6618 0.9101
16.3923 -11.3878 -1.4124 0.9231
15.4644 -9.9397 -1.3008 0.9289
22.5083 -12.2803 -1.8144 0.9023
22.9376 -11.4659 -1.8146 0.9023
17.1058 -7.0662 -1.3096 0.9285
17.2433 -6.4086 -1.3017 0.9289
18.7749 -6.2204 -1.3996 0.9238
25.0846 -5.4048 -1.8158 0.9022
25.4102 -3.5915 -1.8160 0.9022
25.6646 0.0822 -1.8161 0.9022
25.6450 1.0034 -1.8161 0.9022
25.5920 1.9233 -1.8160 0.9022
25.5058 2.8407 -1.8160 0.9022
25.3865 3.7543 -1.8159 0.9022
25.2342 4.6629 -1.8159 0.9022
25.0492 5.5654 -1.8157 0.9022
24.8316 6.4606 -1.8156 0.9022
24.5818 7.3472 -1.8155 0.9022
23.2680 10.7855 -1.8148 0.9023
22.8631 11.6124 -1.8146 0.9023
21.9650 13.2192 -1.8141 0.9023
21.4732 13.9971 -1.8138 0.9023
14.4375 10.1676 -1.2495 0.9316
14.1722 12.4622 -1.3354 0.9271
13.1377 12.4166 -1.2792 0.9301
12.8670 13.0665 -1.2977 0.9291
13.8310 16.2256 -1.5087 0.9181
14.5465 18.3611 -1.6576 0.9103
13.8749 18.8672 -1.6572 0.9104
12.4798 19.8050 -1.6565 0.9104
7.9811 13.7354 -1.1241 0.9383
6.2405 11.6863 -0.9375 0.9483
3.7776 11.7542 -0.8736 0.9517
0.6947 11.6369 -0.8249 0.9543
-0.1418 11.6433 -0.8240 0.9544
-0.5604 11.6465 -0.8251 0.9543
-0.9808 11.6497 -0.8273 0.9542
-1.8308 11.6563 -0.8349 0.9538
-2.7014 11.6630 -0.8471 0.9531
-4.0679 11.6735 -0.8748 0.9516
-5.9870 13.8839 -1.0699 0.9412
-11.4353 20.2135 -1.6434 0.9111
-12.1507 19.7854 -1.6430 0.9111
-16.2153 19.4735 -1.7932 0.9034
-16.9003 18.8749 -1.7928 0.9034
-18.2037 17.6067 -1.7921 0.9034
-18.8205 16.9388 -1.7917 0.9034
-19.4129 16.2493 -1.7914 0.9035
-20.5218 14.8097 -1.7908 0.9035
-21.5248 13.2951 -1.7903 0.9035
-21.9850 12.5121 -1.7900 0.9035
-22.4171 11.7133 -1.7898 0.9035
-22.8203 10.8997 -1.7895 0.9036
-23.1942 10.0723 -1.7893 0.9036
-24.3881 6.6466 -1.7887 0.9036
-24.7990 4.8791 -1.7885 0.9036
-24.9570 3.9856 -1.7884 0.9036
-25.0830 3.0871 -1.7883 0.9036
-25.1769 2.1846 -1.7883 0.9036
-25.2681 0.3726 -1.7882 0.9036
-25.2300 -1.4412 -1.7882 0.9036
-24.7675 -5.0381 -1.7885 0.9036
-24.5722 -5.9243 -1.7886 0.9036
-24.3453 -6.8029 -1.7887 0.9036
-22.3421 -11.8571 -1.7898 0.9035
-21.9050 -12.6531 -1.7901 0.9035
-21.4398 -13.4332 -1.7903 0.9035
-20.9469 -14.1963 -1.7906 0.9035
-17.1297 -15.6170 -1.6403 0.9112
-15.9713 -16.8123 -1.6409 0.9112
-15.3607 -17.3783 -1.6412 0.9112
-14.7300 -17.9222 -1.6416 0.9112
-14.0803 -18.4434 -1.6419 0.9112
-13.4121 -18.9412 -1.6423 0.9111
-12.7265 -19.4149 -1.6427 0.9111
-12.0242 -19.8638 -1.6431 0.9111
-5.7968 -15.1787 -1.1497 0.9369
-6.8417 -22.6953 -1.6774 0.9093
-5.2272 -23.2449 -1.6859 0.9089
-2.7032 -23.7185 -1.6892 0.9087
-0.7981 -19.1396 -1.6492 0.9260
-0.1106 -19.1602 -1.6496 0.9260
0.5774 -19.1562 -1.6500 0.9259
0.9612 -6.9288 -0.6022 0.9723
1.1283 -6.4282 -0.5619 0.9741
1.3629 -6.4054 -0.5638 0.9741
4.9236 -9.9132 -0.9529 0.9565
9.7642 -16.5588 -1.6550 0.9257
11.4943 -15.4220 -1.6559 0.9257
12.7249 -14.7356 -1.6762 0.9248
13.6701 -14.7265 -1.7299 0.9225
15.3653 -14.3366 -1.8092 0.9191
15.8832 -13.7872 -1.8107 0.9190
17.2806 -12.0049 -1.8115 0.9190
17.7026 -11.3783 -1.8117 0.9190
15.9043 -9.4334 -1.5920 0.9284
19.1573 -8.7313 -1.8125 0.9189
20.2161 -5.9015 -1.8131 0.9189
20.4162 -5.1723 -1.8132 0.9189
20.7367 -3.6946 -1.8134 0.9189
20.8566 -2.9479 -1.8135 0.9189
21.0154 -1.4440 -1.8135 0.9189
21.0539 -0.6887 -1.8136 0.9189
21.0652 0.0675 -1.8136 0.9189
20.8372 3.0815 -1.8134 0.9189
20.7124 3.8273 -1.8134 0.9189
20.5607 4.5682 -1.8133 0.9189
19.9467 6.7508 -1.8130 0.9189
19.1005 8.8537 -1.8125 0.9190
18.7685 9.5327 -1.8123 0.9190
18.4122 10.1992 -1.8121 0.9190
17.6288 11.4912 -1.8117 0.9190
14.4214 10.1562 -1.5186 0.9316
14.0908 12.3906 -1.6154 0.9274
13.0689 12.3516 -1.5481 0.9303
12.8017 13.0003 -1.5708 0.9294
10.8292 15.8908 -1.6556 0.9257
4.7295 11.7469 -1.0902 0.9504
3.7776 11.7542 -1.0629 0.9516
3.2784 11.6170 -1.0392 0.9527
2.3955 11.6238 -1.0218 0.9535
1.9640 11.6271 -1.0152 0.9538
1.1148 11.6337 -1.0062 0.9542
0.2762 11.6401 -1.0024 0.9543
-0.1418 11.6433 -1.0025 0.9543
-0.5605 11.6465 -1.0038 0.9543
-2.7014 11.6630 -1.0307 0.9531
-3.6024 11.6699 -1.0515 0.9521
-4.0679 11.6735 -1.0643 0.9516
-8.8042 16.9555 -1.6448 0.9262
-11.6791 15.0966 -1.6432 0.9262
-12.2113 14.6650 -1.6430 0.9262
-13.2275 13.7464 -1.6424 0.9263
-15.9727 13.3698 -1.7933 0.9198
-16.8861 12.1859 -1.7928 0.9198
-17.7124 10.9403 -1.7923 0.9198
-18.0916 10.2962 -1.7921 0.9198
-18.4475 9.6391 -1.7919 0.9198
-19.0878 8.2891 -1.7916 0.9198
-20.0717 5.4703 -1.7911 0.9199
-20.7217 1.7980 -1.7907 0.9199
-20.7655 -1.1862 -1.7907 0.9199
-20.7099 -1.9309 -1.7907 0.9199
-20.5192 -3.4119 -1.7908 0.9199
-20.2234 -4.8758 -1.7910 0.9199
-17.2363 -11.6815 -1.7926 0.9198
-16.8081 -12.2943 -1.7928 0.9198
-15.3956 -14.0360 -1.7936 0.9198
-13.9619 -14.6970 -1.7452 0.9218
-13.0006 -14.7082 -1.6900 0.9242
-12.1175 -14.7436 -1.6430 0.9262
-11.0325 -15.5806 -1.6436 0.9262
-10.4681 -15.9695 -1.6439 0.9262
-9.8900 -16.3382 -1.6442 0.9262
-8.0811 -17.3171 -1.6452 0.9261
-5.5242 -18.3110 -1.6466 0.9261
-4.1980 -18.6684 -1.6474 0.9261
-3.5260 -18.8112 -1.6477 0.9260
-2.8491 -18.9299 -1.6481 0.9260
-1.2595 -16.2027 -1.6490 0.9367
-0.0938 -16.2576 -1.6496 0.9367
1.0733 -16.2288 -1.6502 0.9367
1.5834 -6.3179 -0.6609 0.9742
2.3320 -6.3242 -0.6839 0.9733
2.5978 -6.3346 -0.6947 0.9728
2.8791 -6.3603 -0.7084 0.9723
5.6613 -9.6009 -1.1309 0.9562
9.4045 -14.7146 -1.7719 0.9322
10.0934 -14.6090 -1.8017 0.9311
11.6490 -13.4896 -1.8084 0.9308
12.1274 -13.0647 -1.8087 0.9308
13.0371 -12.1643 -1.8092 0.9308
13.8797 -11.2004 -1.8096 0.9308
14.2746 -10.6962 -1.8099 0.9308
16.2407 -7.4020 -1.8109 0.9308
16.7324 -6.2187 -1.8112 0.9307
17.4540 -3.7607 -1.8116 0.9307
17.6800 -2.4989 -1.8117 0.9307
17.7587 -1.8627 -1.8118 0.9307
17.8145 -1.2241 -1.8118 0.9307
17.8471 -0.5838 -1.8118 0.9307
17.8429 0.6982 -1.8118 0.9307
17.8062 1.3382 -1.8118 0.9307
17.4293 3.8724 -1.8116 0.9307
16.4529 6.9203 -1.8110 0.9308
16.1927 7.5058 -1.8109 0.9308
15.9114 8.0816 -1.8107 0.9308
15.6096 8.6467 -1.8106 0.9308
13.9948 8.4225 -1.6573 0.9364
13.6821 8.9185 -1.6571 0.9364
13.0040 9.8749 -1.6568 0.9365
12.6396 10.3341 -1.6566 0.9365
11.4509 11.6285 -1.6559 0.9365
11.0246 12.0303 -1.6557 0.9365
10.5841 12.4165 -1.6554 0.9365
10.1300 12.7865 -1.6552 0.9365
9.6630 13.1398 -1.6549 0.9365
6.2402 11.6859 -1.3442 0.9481
5.7370 11.7391 -1.3257 0.9488
5.2254 11.7431 -1.3041 0.9496
4.2475 11.7506 -1.2678 0.9510
3.2784 11.6170 -1.2248 0.9526
2.8332 11.6205 -1.2136 0.9530
1.9641 11.6271 -1.1965 0.9537
0.6008 4.5450 -0.4652 0.9817
0.6947 11.6369 -1.1828 0.9542
0.2762 11.6401 -1.1814 0.9543
-0.9808 11.6497 -1.1862 0.9541
-2.2629 11.6596 -1.2051 0.9534
-2.7014 11.6630 -1.2147 0.9530
-3.1474 11.6664 -1.2260 0.9526
-3.6024 11.6699 -1.2392 0.9521
-5.9731 13.8519 -1.5306 0.9412
-7.4738 14.3933 -1.6455 0.9369
-8.4843 13.8153 -1.6450 0.9369
-8.9733 13.4996 -1.6447 0.9369
-10.8064 12.0690 -1.6437 0.9369
-11.6412 11.2595 -1.6433 0.9370
-12.0363 10.8329 -1.6431 0.9370
-12.4159 10.3926 -1.6428 0.9370
-14.3391 10.3479 -1.7942 0.9314
-14.6997 9.8254 -1.7940 0.9314
-15.0413 9.2905 -1.7938 0.9314
-15.3636 8.7437 -1.7936 0.9314
-15.6661 8.1858 -1.7935 0.9314
-16.2104 7.0395 -1.7932 0.9314
-16.4514 6.4526 -1.7930 0.9314
-16.6713 5.8576 -1.7929 0.9314
-16.8698 5.2550 -1.7928 0.9314
-17.0466 4.6458 -1.7927 0.9314
-17.2016 4.0307 -1.7926 0.9314
-17.3345 3.4105 -1.7926 0.9314
-17.6632 0.2605 -1.7924 0.9314
-17.6612 -0.3737 -1.7924 0.9314
-17.6365 -1.0074 -1.7924 0.9314
-17.5194 -2.2703 -1.7925 0.9314
-17.4271 -2.8978 -1.7925 0.9314
-17.3125 -3.5216 -1.7926 0.9314
-17.1756 -4.1410 -1.7926 0.9314
-17.0167 -4.7551 -1.7927 0.9314
-16.8360 -5.3631 -1.7928 0.9314
-16.6337 -5.9644 -1.7929 0.9314
-16.4099 -6.5581 -1.7931 0.9314
-15.8996 -7.7197 -1.7933 0.9314
-15.6136 -8.2862 -1.7935 0.9314
-15.3076 -8.8422 -1.7937 0.9314
-14.9818 -9.3869 -1.7938 0.9314
-14.6367 -9.9197 -1.7940 0.9314
-13.4902 -11.4397 -1.7947 0.9314
-13.0725 -11.9181 -1.7949 0.9313
-12.6380 -12.3813 -1.7951 0.9313
-12.1871 -12.8287 -1.7954 0.9313
-11.7204 -13.2598 -1.7956 0.9313
-11.2385 -13.6740 -1.7959 0.9313
-10.2141 -14.4248 -1.7934 0.9314
-7.5219 -14.7159 -1.6769 0.9357
-6.8717 -14.7255 -1.6488 0.9368
-5.2425 -15.3601 -1.6468 0.9368
-4.1284 -15.7025 -1.6474 0.9368
-3.5628 -15.8435 -1.6477 0.9368
-2.4178 -16.0644 -1.6483 0.9368
-1.8400 -16.1440 -1.6486 0.9368
-0.6136 -14.7143 -1.7214 0.9424
0.6803 -6.6499 -0.7813 0.9734
0.8740 -6.3004 -0.7435 0.9747
3.1248 -6.2915 -0.8211 0.9721
3.4373 -6.3389 -0.8428 0.9714
9.2393 -12.3964 -1.8071 0.9396
9.6796 -12.0584 -1.8073 0.9396
10.9239 -10.9520 -1.8080 0.9396
12.0421 -9.7175 -1.8086 0.9396
13.0208 -8.3691 -1.8092 0.9396
13.3140 -7.8970 -1.8093 0.9396
13.5900 -7.4146 -1.8095 0.9396
14.3115 -5.9119 -1.8099 0.9395
14.5154 -5.3947 -1.8100 0.9395
14.8666 -4.3398 -1.8102 0.9395
15.0135 -3.8035 -1.8103 0.9395
15.2487 -2.7168 -1.8104 0.9395
15.3368 -2.1677 -1.8104 0.9395
15.4534 -1.0618 -1.8105 0.9395
15.4899 0.0496 -1.8105 0.9395
15.3226 2.2660 -1.8104 0.9395
15.2309 2.8145 -1.8104 0.9395
15.1196 3.3593 -1.8103 0.9395
14.8383 4.4350 -1.8102 0.9395
14.6688 4.9645 -1.8101 0.9395
14.2731 6.0034 -1.8099 0.9395
13.8037 7.0110 -1.8096 0.9396
12.3967 6.8670 -1.6564 0.9445
11.8700 7.7374 -1.6561 0.9445
11.2822 8.5674 -1.6558 0.9445
10.9662 8.9659 -1.6556 0.9446
10.6361 9.3528 -1.6555 0.9446
10.2924 9.7274 -1.6553 0.9446
9.5656 10.4383 -1.6549 0.9446
9.1836 10.7736 -1.6547 0.9446
7.3008 11.5862 -1.6007 0.9463
6.2401 11.6857 -1.5484 0.9480
5.7214 11.7073 -1.5231 0.9489
4.2475 11.7506 -1.4604 0.9509
3.7776 11.7542 -1.4431 0.9515
2.8332 11.6205 -1.3980 0.9530
2.3955 11.6238 -1.3872 0.9533
-0.1418 11.6433 -1.3610 0.9542
-0.5605 11.6465 -1.3629 0.9541
-0.9808 11.6497 -1.3665 0.9540
-1.4039 11.6530 -1.3719 0.9538
-1.8308 11.6563 -1.3791 0.9536
-3.1474 11.6664 -1.4124 0.9525
-3.6024 11.6699 -1.4275 0.9520
-5.2858 12.2580 -1.5603 0.9477
-7.3678 11.9973 -1.6456 0.9449
-7.7926 11.7234 -1.6454 0.9449
-8.2073 11.4346 -1.6451 0.9449
-8.6113 11.1311 -1.6449 0.9449
-9.0042 10.8134 -1.6447 0.9449
-9.3853 10.4819 -1.6445 0.9449
-10.4541 9.4088 -1.6439 0.9449
-11.4014 8.2279 -1.6434 0.9449
-11.6882 7.8126 -1.6432 0.9450
-13.0650 8.0697 -1.7949 0.9400
-13.6080 7.1104 -1.7946 0.9400
-14.2906 5.6051 -1.7942 0.9401
-14.4817 5.0883 -1.7941 0.9401
-14.8080 4.0357 -1.7939 0.9401
-15.0583 2.9627 -1.7938 0.9401
-15.1545 2.4202 -1.7937 0.9401
-15.2312 1.8746 -1.7937 0.9401
-15.2884 1.3266 -1.7937 0.9401
-15.3439 0.2263 -1.7936 0.9401
-15.3422 -0.3246 -1.7936 0.9401
-15.3208 -0.8752 -1.7937 0.9401
-15.2190 -1.9722 -1.7937 0.9401
-14.9201 -3.5972 -1.7939 0.9401
-14.7820 -4.1306 -1.7940 0.9401
-14.2546 -5.6967 -1.7942 0.9401
-13.0132 -8.1535 -1.7949 0.9400
-12.0648 -9.5080 -1.7954 0.9400
-11.7169 -9.9360 -1.7956 0.9400
-11.3540 -10.3513 -1.7958 0.9400
-10.9764 -10.7534 -1.7960 0.9400
-10.5845 -11.1418 -1.7963 0.9400
-10.1790 -11.5160 -1.7965 0.9400
-9.7603 -11.8755 -1.7967 0.9400
-9.3290 -12.2198 -1.7969 0.9400
-8.4305 -12.8612 -1.7974 0.9399
-7.9645 -13.1574 -1.7977 0.9399
-7.4882 -13.4367 -1.7979 0.9399
-6.0030 -14.1703 -1.7988 0.9399
-4.9592 -14.5303 -1.7945 0.9400
-4.4289 -14.6805 -1.7923 0.9401
-3.8651 -14.7009 -1.7767 0.9406
-3.3066 -14.7043 -1.7616 0.9411
-2.7567 -14.7071 -1.7490 0.9415
-2.2139 -14.7096 -1.7387 0.9419
-0.2800 -6.7140 -0.8894 0.9733
-0.0379 -6.5637 -0.8688 0.9739
0.1932 -6.4101 -0.8488 0.9745
1.0876 -6.1966 -0.8327 0.9749
1.3171 -6.1898 -0.8376 0.9748
1.7864 -6.1783 -0.8512 0.9744
2.2808 -6.1854 -0.8726 0.9738
2.5386 -6.1904 -0.8856 0.9734
2.7960 -6.1766 -0.8974 0.9730
3.0788 -6.1989 -0.9161 0.9725
3.3989 -6.2680 -0.9437 0.9716
6.9301 -11.7526 -1.8058 0.9464
7.3485 -11.4977 -1.8061 0.9464
7.7574 -11.2279 -1.8063 0.9464
8.1564 -10.9435 -1.8065 0.9464
8.5450 -10.6450 -1.8067 0.9464
8.9226 -10.3325 -1.8069 0.9464
9.2888 -10.0067 -1.8071 0.9464
9.6431 -9.6679 -1.8073 0.9464
10.9317 -8.1914 -1.8080 0.9464
11.9955 -6.5446 -1.8086 0.9464
12.4357 -5.6678 -1.8089 0.9464
12.8118 -4.7616 -1.8091 0.9463
12.9751 -4.2988 -1.8091 0.9463
13.1216 -3.8304 -1.8092 0.9463
13.3636 -2.8794 -1.8094 0.9463
13.4587 -2.3979 -1.8094 0.9463
13.5365 -1.9133 -1.8095 0.9463
13.5967 -1.4261 -1.8095 0.9463
13.6642 -0.4470 -1.8095 0.9463
13.6715 0.0438 -1.8095 0.9463
13.5872 1.5133 -1.8095 0.9463
13.5238 2.0000 -1.8094 0.9463
13.4430 2.4841 -1.8094 0.9463
13.3448 2.9649 -1.8093 0.9463
13.0967 3.9144 -1.8092 0.9463
12.9471 4.3818 -1.8091 0.9463
12.7808 4.8435 -1.8090 0.9463
11.1535 5.6650 -1.6557 0.9508
10.7167 6.4496 -1.6555 0.9508
10.4775 6.8296 -1.6554 0.9508
9.9588 7.5625 -1.6551 0.9508
9.3888 8.2559 -1.6548 0.9508
9.0855 8.5867 -1.6546 0.9508
8.7704 8.9064 -1.6544 0.9508
8.4442 9.2145 -1.6543 0.9508
7.4021 10.0654 -1.6537 0.9508
7.0351 10.3234 -1.6535 0.9508
5.0755 11.4063 -1.6524 0.9509
4.6621 11.5795 -1.6522 0.9509
4.1967 11.6100 -1.6340 0.9514
3.2784 11.6170 -1.5977 0.9525
2.8332 11.6205 -1.5831 0.9529
1.9640 11.6271 -1.5607 0.9535
0.6008 4.5443 -0.6067 0.9817
0.6947 11.6369 -1.5430 0.9541
0.2762 11.6401 -1.5411 0.9541
-0.1418 11.6433 -1.5412 0.9541
-0.9808 11.6497 -1.5474 0.9539
-1.4038 11.6530 -1.5535 0.9537
-1.8308 11.6563 -1.5617 0.9535
-3.1474 11.6664 -1.5993 0.9524
-3.6024 11.6699 -1.6165 0.9519
-4.0679 11.6735 -1.6362 0.9513
-5.3334 11.2403 -1.6467 0.9510
-5.7327 11.0402 -1.6465 0.9510
-6.5083 10.5977 -1.6461 0.9511
-7.6071 9.8330 -1.6455 0.9511
-7.9543 9.5525 -1.6453 0.9511
-8.2911 9.2598 -1.6451 0.9511
-8.9321 8.6393 -1.6448 0.9511
-10.0729 7.2692 -1.6441 0.9511
-10.5858 6.5384 -1.6468 0.9510
-11.7905 6.7102 -1.7956 0.9467
-12.0229 6.2822 -1.7955 0.9467
-12.2399 5.8462 -1.7953 0.9467
-12.4411 5.4027 -1.7952 0.9467
-12.6263 4.9523 -1.7951 0.9467
-12.7953 4.4957 -1.7950 0.9467
-12.9478 4.0333 -1.7950 0.9468
-13.4578 1.6563 -1.7947 0.9468
-13.5084 1.1721 -1.7946 0.9468
-13.5416 0.6865 -1.7946 0.9468
-13.5006 -1.2587 -1.7947 0.9468
-13.4470 -1.7426 -1.7947 0.9468
-13.2879 -2.7030 -1.7948 0.9468
-13.1828 -3.1783 -1.7948 0.9468
-13.0607 -3.6496 -1.7949 0.9468
-12.9218 -4.1163 -1.7950 0.9468
-12.7663 -4.5777 -1.7951 0.9467
-12.5944 -5.0332 -1.7952 0.9467
-12.2023 -5.9246 -1.7954 0.9467
-11.9826 -6.3592 -1.7955 0.9467
-11.2321 -7.6123 -1.7959 0.9467
-10.9525 -8.0112 -1.7961 0.9467
-10.3514 -8.7780 -1.7964 0.9467
-9.6969 -9.4999 -1.7967 0.9467
-9.3506 -9.8430 -1.7969 0.9467
-8.6222 -10.4908 -1.7973 0.9467
-7.4471 -11.3610 -1.7980 0.9467
-7.0354 -11.6224 -1.7982 0.9467
-6.6145 -11.8690 -1.7984 0.9467
-6.1850 -12.1004 -1.7987 0.9466
-5.7474 -12.3162 -1.7989 0.9466
-5.3023 -12.5163 -1.7991 0.9466
-4.8503 -12.7003 -1.7994 0.9466
-4.3919 -12.8680 -1.7996 0.9466
-3.9277 -13.0192 -1.7999 0.9466
-3.4583 -13.1537 -1.8002 0.9466
-2.9844 -13.2713 -1.8004 0.9466
-1.5410 -13.5211 -1.8012 0.9466
-0.0363 -6.2835 -0.9293 0.9749
0.1873 -6.2133 -0.9193 0.9752
0.4096 -6.1935 -0.9180 0.9752
0.6311 -6.1689 -0.9171 0.9752
1.0775 -6.1392 -0.9218 0.9751
1.5362 -6.1296 -0.9346 0.9748
2.0133 -6.1294 -0.9541 0.9743
2.5143 -6.1310 -0.9800 0.9736
2.7751 -6.1304 -0.9952 0.9732
3.3681 -6.2112 -1.0450 0.9718
6.9408 -10.0459 -1.8058 0.9518
7.6453 -9.5241 -1.8062 0.9518
8.3106 -8.9528 -1.8066 0.9518
8.6274 -8.6496 -1.8068 0.9518
8.9332 -8.3351 -1.8069 0.9518
9.2274 -8.0098 -1.8071 0.9518
9.5098 -7.6740 -1.8073 0.9518
9.7799 -7.3283 -1.8074 0.9518
10.0375 -6.9731 -1.8075 0.9518
10.9351 -5.4662 -1.8080 0.9518
11.1249 -5.0704 -1.8081 0.9518
11.3004 -4.6680 -1.8082 0.9518
11.6072 -3.8456 -1.8084 0.9518
11.7382 -3.4266 -1.8085 0.9518
11.9546 -2.5758 -1.8086 0.9518
12.1092 -1.7115 -1.8087 0.9518
12.1630 -1.2758 -1.8087 0.9518
12.2011 -0.8384 -1.8087 0.9518
12.2234 -0.3998 -1.8087 0.9518
12.2206 0.4782 -1.8087 0.9518
12.1955 0.9165 -1.8087 0.9518
12.1546 1.3537 -1.8087 0.9518
12.0256 2.2222 -1.8086 0.9518
11.7160 3.5017 -1.8085 0.9518
11.5822 3.9199 -1.8084 0.9518
11.2701 4.7403 -1.8082 0.9518
11.0609 5.1271 -1.8030 0.9519
9.7890 5.4224 -1.6550 0.9558
9.5874 5.7700 -1.6549 0.9558
9.3734 6.1099 -1.6548 0.9558
9.1474 6.4420 -1.6546 0.9558
8.9095 6.7657 -1.6545 0.9558
8.3997 7.3863 -1.6542 0.9558
7.8467 7.9684 -1.6539 0.9558
7.2534 8.5091 -1.6536 0.9558
6.9425 8.7631 -1.6534 0.9558
5.6144 9.6623 -1.6527 0.9558
4.9055 10.0378 -1.6523 0.9558
4.5415 10.2062 -1.6521 0.9558
3.4167 10.6313 -1.6515 0.9559
2.2531 10.9328 -1.6509 0.9559
1.0643 11.1073 -1.6502 0.9559
0.6649 11.1369 -1.6500 0.9559
-0.1358 11.1529 -1.6496 0.9559
-0.5360 11.1394 -1.6493 0.9559
-1.3335 11.0692 -1.6489 0.9559
-2.5148 10.8575 -1.6483 0.9559
-2.9024 10.7588 -1.6481 0.9559
-3.6660 10.5202 -1.6476 0.9560
-4.0408 10.3805 -1.6474 0.9560
-4.7740 10.0614 -1.6470 0.9560
-5.4823 9.6907 -1.6466 0.9560
-6.4901 9.0421 -1.6461 0.9560
-7.4223 8.2894 -1.6456 0.9560
-7.9963 7.7341 -1.6453 0.9560
-8.5291 7.1392 -1.6450 0.9560
-9.2450 6.1794 -1.6446 0.9560
-10.5314 5.9936 -1.7921 0.9522
-10.7640 5.6244 -1.7961 0.9521
-10.9583 5.2341 -1.7960 0.9521
-11.1386 4.8371 -1.7959 0.9521
-11.3045 4.4339 -1.7959 0.9521
-11.5924 3.6111 -1.7957 0.9521
-11.8208 2.7699 -1.7956 0.9521
-11.9123 2.3437 -1.7955 0.9521
-11.9884 1.9146 -1.7955 0.9521
-12.0945 1.0495 -1.7954 0.9521
-12.1243 0.6146 -1.7954 0.9521
-12.1385 0.1790 -1.7954 0.9521
-12.1201 -0.6923 -1.7954 0.9521
-12.0876 -1.1270 -1.7954 0.9521
-11.9760 -1.9914 -1.7955 0.9521
-10.5173 -6.0751 -1.7963 0.9521
-10.2931 -6.4492 -1.7964 0.9521
-10.0557 -6.8150 -1.7965 0.9521
-9.8054 -7.1722 -1.7967 0.9521
-9.5424 -7.5201 -1.7968 0.9521
-8.6809 -8.5046 -1.7973 0.9520
-7.7186 -9.3913 -1.7978 0.9520
-7.3773 -9.6633 -1.7980 0.9520
-6.6664 -10.1699 -1.7984 0.9520
-5.1446 -11.0244 -1.7992 0.9520
-4.3414 -11.3679 -1.7997 0.9520
-3.5155 -11.6530 -1.8001 0.9520
-2.6711 -11.8782 -1.8006 0.9520
-2.2433 -11.9680 -1.8008 0.9520
-0.4951 -6.3696 -1.0446 0.9744
-0.2592 -6.2156 -1.0171 0.9751
-0.0355 -6.1540 -1.0062 0.9754
0.4082 -6.1730 -1.0115 0.9752
0.6291 -6.1499 -1.0108 0.9753
1.0752 -6.1258 -1.0169 0.9751
1.3019 -6.1184 -1.0228 0.9750
2.0094 -6.1173 -1.0528 0.9742
2.5101 -6.1209 -1.0817 0.9735
2.7653 -6.1087 -1.0963 0.9732
3.0390 -6.1187 -1.1170 0.9727
3.3525 -6.1824 -1.1499 0.9719
5.6078 -9.5102 -1.8051 0.9562
6.5997 -8.8549 -1.8057 0.9562
7.5155 -8.0963 -1.8062 0.9562
7.8020 -7.8220 -1.8063 0.9562
8.8439 -6.6269 -1.8069 0.9562
9.0767 -6.3056 -1.8070 0.9562
9.2978 -5.9761 -1.8071 0.9562
9.5070 -5.6389 -1.8072 0.9562
9.7038 -5.2943 -1.8074 0.9562
10.2183 -4.2211 -1.8076 0.9562
10.6142 -3.0985 -1.8079 0.9562
10.7189 -2.7156 -1.8079 0.9562
10.8098 -2.3291 -1.8080 0.9562
10.9981 -1.1536 -1.8081 0.9562
10.9905 1.2241 -1.8081 0.9562
10.7946 2.3983 -1.8079 0.9562
10.7012 2.7842 -1.8079 0.9562
10.5940 3.1664 -1.8078 0.9562
10.3387 3.9180 -1.8077 0.9562
10.1910 4.2864 -1.8076 0.9562
8.6696 5.2176 -1.6544 0.9598
8.4762 5.5251 -1.6543 0.9598
8.2718 5.8254 -1.6542 0.9598
8.0568 6.1181 -1.6540 0.9598
7.8314 6.4029 -1.6539 0.9598
7.5959 6.6794 -1.6538 0.9598
7.3507 6.9472 -1.6537 0.9598
7.0959 7.2060 -1.6535 0.9598
6.5595 7.6951 -1.6532 0.9598
4.7601 8.9141 -1.6522 0.9599
4.4366 9.0783 -1.6521 0.9599
4.1074 9.2307 -1.6519 0.9599
2.7428 9.7191 -1.6511 0.9599
1.6814 9.9541 -1.6506 0.9599
0.2394 10.0875 -1.6498 0.9599
-0.1229 10.0884 -1.6496 0.9599
-0.4849 10.0762 -1.6494 0.9599
-0.8462 10.0511 -1.6492 0.9599
-1.5647 9.9621 -1.6488 0.9600
-2.2749 9.8219 -1.6484 0.9600
-3.3165 9.5171 -1.6478 0.9600
-3.6556 9.3909 -1.6476 0.9600
-3.9899 9.2526 -1.6475 0.9600
-4.3190 9.1024 -1.6473 0.9600
-4.6424 8.9405 -1.6471 0.9600
-4.9598 8.7672 -1.6469 0.9600
-5.2708 8.5826 -1.6468 0.9600
-5.8718 8.1807 -1.6464 0.9600
-6.1611 7.9639 -1.6463 0.9600
-6.4424 7.7369 -1.6461 0.9600
-6.9796 7.2534 -1.6458 0.9600
-7.2349 6.9976 -1.6457 0.9600
-7.4808 6.7329 -1.6455 0.9600
-7.7171 6.4595 -1.6454 0.9600
-7.9434 6.1778 -1.6453 0.9600
-8.5597 5.2870 -1.6450 0.9600
-10.2287 4.0120 -1.7964 0.9564
-10.3657 3.6421 -1.7964 0.9564
-10.6961 2.5063 -1.7962 0.9564
-10.7789 2.1207 -1.7961 0.9565
-10.8479 1.7324 -1.7961 0.9565
-10.9439 0.9496 -1.7961 0.9565
-10.9824 -0.2324 -1.7960 0.9565
-10.9376 -1.0198 -1.7961 0.9565
-10.8941 -1.4117 -1.7961 0.9565
-10.7652 -2.1898 -1.7962 0.9565
-10.6799 -2.5749 -1.7962 0.9564
-10.4683 -3.3347 -1.7963 0.9564
-10.3423 -3.7085 -1.7964 0.9564
-10.2029 -4.0775 -1.7965 0.9564
-10.0504 -4.4413 -1.7965 0.9564
-9.7069 -5.1515 -1.7967 0.9564
-9.5163 -5.4969 -1.7968 0.9564
-9.3134 -5.8354 -1.7969 0.9564
-8.3847 -7.1103 -1.7975 0.9564
-8.1247 -7.4072 -1.7976 0.9564
-7.5736 -7.9724 -1.7979 0.9564
-6.9834 -8.4968 -1.7982 0.9564
-5.6976 -9.4125 -1.7989 0.9564
-5.0087 -9.7990 -1.7993 0.9564
-4.6542 -9.9736 -1.7995 0.9564
-4.2937 -10.1353 -1.7997 0.9564
-3.5562 -10.4196 -1.8001 0.9564
-3.1803 -10.5418 -1.8003 0.9564
-2.0293 -10.8263 -1.8009 0.9563
-1.2476 -10.9466 -1.8014 0.9563
0.1845 -6.1210 -1.0973 0.9754
1.5287 -6.1000 -1.1268 0.9748
2.2531 -6.1104 -1.1670 0.9739
2.5047 -6.1077 -1.1829 0.9735
3.0370 -6.1147 -1.2234 0.9726
5.4249 -8.4880 -1.8050 0.9599
6.0210 -8.0783 -1.8053 0.9599
6.3076 -7.8577 -1.8055 0.9599
6.5862 -7.6269 -1.8056 0.9599
6.8562 -7.3861 -1.8058 0.9599
7.1175 -7.1358 -1.8059 0.9599
7.3696 -6.8762 -1.8061 0.9599
8.0679 -6.0454 -1.8065 0.9599
8.8521 -4.8296 -1.8069 0.9599
9.0203 -4.5090 -1.8070 0.9598
9.1767 -4.1825 -1.8071 0.9598
9.3214 -3.8505 -1.8071 0.9598
9.7779 -2.4772 -1.8074 0.9598
9.8607 -2.1246 -1.8074 0.9598
9.9881 -1.4117 -1.8075 0.9598
10.0325 -1.0523 -1.8075 0.9598
10.0639 -0.6915 -1.8076 0.9598
10.0823 -0.3298 -1.8076 0.9598
10.0592 0.7560 -1.8075 0.9598
9.9193 1.8329 -1.8075 0.9598
9.7617 2.5397 -1.8074 0.9598
9.6640 2.8884 -1.8073 0.9598
9.2964 3.9102 -1.8071 0.9598
9.1313 4.2327 -1.8034 0.9599
8.5891 4.3625 -1.7262 0.9616
8.0749 4.4730 -1.6541 0.9632
7.9087 4.7597 -1.6540 0.9632
7.7323 5.0402 -1.6539 0.9632
7.3498 5.5813 -1.6537 0.9632
7.1443 5.8411 -1.6536 0.9632
6.9295 6.0934 -1.6534 0.9632
6.4735 6.5739 -1.6532 0.9632
6.2329 6.8014 -1.6531 0.9632
5.9842 7.0202 -1.6529 0.9632
5.7278 7.2299 -1.6528 0.9632
4.6324 7.9723 -1.6522 0.9632
4.3428 8.1327 -1.6520 0.9632
4.0477 8.2826 -1.6519 0.9632
3.4424 8.5499 -1.6515 0.9632
2.5025 8.8677 -1.6510 0.9632
1.8594 9.0224 -1.6507 0.9633
1.5342 9.0824 -1.6505 0.9633
0.6006 4.5432 -0.8212 0.9815
0.5487 9.1917 -1.6499 0.9633
-0.1121 9.2053 -1.6496 0.9633
-0.7721 9.1716 -1.6492 0.9633
-1.1007 9.1369 -1.6490 0.9633
-1.4279 9.0905 -1.6489 0.9633
-2.3961 8.8815 -1.6483 0.9633
-2.7131 8.7888 -1.6482 0.9633
-4.5263 8.0009 -1.6472 0.9633
-4.8102 7.8326 -1.6470 0.9633
-5.3587 7.4659 -1.6467 0.9633
-6.3700 6.6199 -1.6462 0.9634
-7.2497 5.6384 -1.6457 0.9634
-8.6868 4.9438 -1.7910 0.9602
-8.8881 4.6442 -1.7969 0.9601
-9.0499 4.3225 -1.7971 0.9601
-9.1989 3.9947 -1.7970 0.9601
-9.4610 3.3242 -1.7969 0.9601
-2.0428 0.2514 -0.3688 0.9917
-2.0197 0.0298 -0.3619 0.9918
-2.0246 -0.0429 -0.3629 0.9918
-2.0450 -0.1168 -0.3670 0.9917
-2.0516 -0.1913 -0.3692 0.9917
-2.0396 -0.2643 -0.3685 0.9917
-9.8909 -1.6447 -1.7966 0.9601
-9.8257 -1.9987 -1.7967 0.9601
-9.6574 -2.6986 -1.7968 0.9601
-9.5546 -3.0437 -1.7968 0.9601
-9.3123 -3.7216 -1.7969 0.9601
-9.1731 -4.0536 -1.7970 0.9601
-8.8595 -4.7018 -1.7972 0.9601
-8.3041 -5.6279 -1.7975 0.9601
-7.1682 -7.0227 -1.7981 0.9600
-6.9121 -7.2760 -1.7983 0.9600
-6.6470 -7.5200 -1.7984 0.9600
-6.0913 -7.9789 -1.7987 0.9600
-5.1997 -8.5898 -1.7992 0.9600
-4.5709 -8.9425 -1.7995 0.9600
-4.2473 -9.1017 -1.7997 0.9600
-3.9183 -9.2492 -1.7999 0.9600
-3.2453 -9.5084 -1.8003 0.9600
-2.9021 -9.6198 -1.8005 0.9600
-2.5552 -9.7188 -1.8006 0.9600
-2.2050 -9.8053 -1.8008 0.9600
-1.1384 -9.9888 -1.8014 0.9600
-0.4839 -6.2254 -1.2173 0.9749
-0.2550 -6.1160 -1.1934 0.9754
0.1842 -6.1123 -1.1922 0.9754
0.6262 -6.1214 -1.1996 0.9752
0.8481 -6.1136 -1.2033 0.9752
1.2995 -6.1075 -1.2173 0.9749
1.7645 -6.1027 -1.2385 0.9744
2.0048 -6.1036 -1.2525 0.9742
4.9854 -7.8003 -1.8048 0.9630
5.5331 -7.4238 -1.8051 0.9630
6.3006 -6.7875 -1.8055 0.9630
7.2091 -5.8175 -1.8060 0.9630
7.4138 -5.5553 -1.8061 0.9629
7.6089 -5.2859 -1.8062 0.9629
7.9694 -4.7269 -1.8064 0.9629
8.4325 -3.8433 -1.8067 0.9629
8.7978 -2.9148 -1.8069 0.9629
8.8970 -2.5972 -1.8069 0.9629
9.0609 -1.9523 -1.8070 0.9629
9.1253 -1.6258 -1.8070 0.9629
9.2475 -0.6354 -1.8071 0.9629
9.2693 0.0297 -1.8071 0.9629
9.2432 0.6947 -1.8071 0.9629
9.2123 1.0260 -1.8071 0.9629
9.1146 1.6843 -1.8070 0.9629
9.0481 2.0103 -1.8070 0.9629
8.7789 2.9711 -1.8068 0.9629
8.6663 3.2842 -1.8068 0.9629
8.5425 3.5930 -1.8067 0.9629
8.4048 3.8959 -1.8060 0.9630
8.2352 4.1828 -1.8007 0.9631
6.7540 5.1288 -1.6533 0.9660
6.5651 5.3676 -1.6532 0.9660
6.1623 5.8240 -1.6530 0.9660
5.9488 6.0410 -1.6529 0.9660
5.4992 6.4513 -1.6527 0.9660
5.2637 6.6440 -1.6525 0.9660
5.0214 6.8281 -1.6524 0.9660
4.5178 7.1696 -1.6521 0.9661
4.2572 7.3265 -1.6520 0.9661
3.9911 7.4740 -1.6518 0.9661
3.7199 7.6117 -1.6517 0.9661
3.4439 7.7396 -1.6515 0.9661
3.1636 7.8576 -1.6514 0.9661
2.2999 8.1498 -1.6509 0.9661
0.5043 8.4480 -1.6499 0.9661
0.2007 8.4598 -1.6497 0.9661
-0.4067 8.4507 -1.6494 0.9661
-0.7097 8.4298 -1.6493 0.9661
-1.0117 8.3981 -1.6491 0.9661
-1.3124 8.3555 -1.6489 0.9661
-1.9081 8.2382 -1.6486 0.9661
-2.7819 7.9830 -1.6481 0.9661
-3.0663 7.8772 -1.6480 0.9661
-3.3468 7.7614 -1.6478 0.9661
-4.1607 7.3546 -1.6474 0.9662
-4.9260 6.8629 -1.6469 0.9662
-5.1687 6.6812 -1.6468 0.9662
-5.4048 6.4908 -1.6467 0.9662
-6.0699 5.8709 -1.6463 0.9662
-6.4746 5.4195 -1.6461 0.9662
-6.8459 4.9404 -1.6459 0.9662
-7.0185 4.6912 -1.6458 0.9662
-7.3476 4.5384 -1.6837 0.9654
-7.9928 4.5488 -1.7929 0.9632
-8.1721 4.2700 -1.7976 0.9631
-8.3197 3.9737 -1.7975 0.9631
-8.6977 3.0560 -1.7973 0.9631
-1.7744 0.5527 -0.3623 0.9925
-1.7138 0.3372 -0.3405 0.9929
-1.7073 0.1481 -0.3341 0.9930
-1.7084 0.0866 -0.3335 0.9931
-1.7076 -0.0361 -0.3330 0.9931
-1.7084 -0.0976 -0.3336 0.9931
-1.7069 -0.1591 -0.3342 0.9930
-1.7774 -0.5662 -0.3637 0.9924
-8.4330 -3.7266 -1.7974 0.9631
-8.1446 -4.3224 -1.7976 0.9631
-7.9846 -4.6122 -1.7977 0.9631
-7.8143 -4.8961 -1.7978 0.9631
-7.6339 -5.1737 -1.7979 0.9631
-7.4437 -5.4447 -1.7980 0.9631
-7.2439 -5.7088 -1.7981 0.9631
-6.5895 -6.4557 -1.7984 0.9631
-6.3540 -6.6886 -1.7986 0.9631
-5.8586 -7.1283 -1.7988 0.9631
-5.5994 -7.3346 -1.7990 0.9631
-5.3330 -7.5315 -1.7991 0.9631
-5.0596 -7.7187 -1.7993 0.9631
-4.4935 -8.0632 -1.7996 0.9631
-3.6017 -8.5018 -1.8001 0.9631
-2.9830 -8.7400 -1.8004 0.9631
-2.0267 -9.0126 -1.8009 0.9631
-1.7020 -9.0805 -1.8011 0.9630
-0.4824 -6.2056 -1.3122 0.9749
-0.2549 -6.1120 -1.2896 0.9753
-0.0353 -6.1122 -1.2886 0.9753
0.1842 -6.1123 -1.2892 0.9753
0.6257 -6.1163 -1.2962 0.9752
1.0734 -6.1157 -1.3090 0.9749
1.3007 -6.1128 -1.3175 0.9748
1.7662 -6.1086 -1.3406 0.9743
2.2531 -6.1104 -1.3730 0.9737
4.3475 -7.3728 -1.8044 0.9656
4.6097 -7.2125 -1.8046 0.9656
5.1161 -6.8643 -1.8048 0.9656
5.3596 -6.6767 -1.8050 0.9656
5.5962 -6.4804 -1.8051 0.9656
5.8256 -6.2758 -1.8052 0.9656
6.0475 -6.0631 -1.8054 0.9656
6.4678 -5.6143 -1.8056 0.9656
6.6655 -5.3788 -1.8057 0.9656
7.0350 -4.8873 -1.8059 0.9656
7.5208 -4.1033 -1.8062 0.9656
7.6636 -3.8308 -1.8062 0.9656
7.7965 -3.5534 -1.8063 0.9656
7.9193 -3.2714 -1.8064 0.9656
8.2258 -2.4013 -1.8065 0.9656
8.3773 -1.8050 -1.8066 0.9656
8.4855 -1.1994 -1.8067 0.9656
8.5232 -0.8940 -1.8067 0.9656
8.5498 -0.5875 -1.8067 0.9656
8.5635 0.3351 -1.8067 0.9656
8.5172 0.9486 -1.8067 0.9656
8.4270 1.5572 -1.8067 0.9656
8.3655 1.8586 -1.8066 0.9656
8.2932 2.1577 -1.8066 0.9656
8.1166 2.7470 -1.8065 0.9656
8.0125 3.0365 -1.8064 0.9656
7.8981 3.3220 -1.8064 0.9656
7.7735 3.6032 -1.8063 0.9656
7.6311 3.8759 -1.8044 0.9656
7.4678 4.1367 -1.7998 0.9657
6.2447 4.7420 -1.6531 0.9685
4.4130 6.4756 -1.6521 0.9685
4.1774 6.6293 -1.6519 0.9685
3.9364 6.7745 -1.6518 0.9685
3.4396 7.0383 -1.6515 0.9685
3.1845 7.1566 -1.6514 0.9685
2.9253 7.2657 -1.6512 0.9685
2.6624 7.3654 -1.6511 0.9685
2.3961 7.4555 -1.6510 0.9685
2.1267 7.5361 -1.6508 0.9685
1.8546 7.6069 -1.6507 0.9685
1.5803 7.6678 -1.6505 0.9685
1.3039 7.7189 -1.6504 0.9685
0.7466 7.7911 -1.6500 0.9685
0.4664 7.8122 -1.6499 0.9685
-0.6563 7.7956 -1.6493 0.9685
-1.2137 7.7270 -1.6490 0.9685
-1.4901 7.6777 -1.6488 0.9685
-1.7646 7.6186 -1.6487 0.9685
-2.5727 7.3828 -1.6482 0.9685
-2.8358 7.2850 -1.6481 0.9685
-3.6017 6.9362 -1.6477 0.9686
-3.8480 6.8019 -1.6475 0.9686
-4.5558 6.3473 -1.6471 0.9686
-4.7804 6.1792 -1.6470 0.9686
-5.4158 5.6283 -1.6467 0.9686
-5.8049 5.2246 -1.6465 0.9686
-5.9884 5.0125 -1.6464 0.9686
-6.1641 4.7940 -1.6463 0.9686
-7.2270 4.4638 -1.7908 0.9659
-7.5585 3.9495 -1.7979 0.9657
-7.8218 3.3967 -1.7978 0.9657
-1.6255 0.5711 -0.3632 0.9930
-1.5992 0.4358 -0.3494 0.9932
-1.5836 0.3711 -0.3429 0.9934
-1.5663 0.3082 -0.3365 0.9935
-1.5696 0.1932 -0.3334 0.9936
-1.5740 0.0798 -0.3323 0.9936
-1.5734 -0.0333 -0.3318 0.9936
-1.5739 -0.0899 -0.3324 0.9936
-1.5688 -0.2033 -0.3335 0.9936
-1.5631 -0.2599 -0.3341 0.9935
-1.5695 -0.3193 -0.3377 0.9935
-1.5865 -0.3825 -0.3441 0.9934
-1.6018 -0.4476 -0.3506 0.9932
-7.9183 -3.1645 -1.7977 0.9657
-7.5331 -3.9979 -1.7979 0.9657
-7.3851 -4.2659 -1.7980 0.9657
-7.0607 -4.7852 -1.7982 0.9657
-6.8847 -5.0359 -1.7983 0.9657
-6.6999 -5.2801 -1.7984 0.9657
-6.5064 -5.5175 -1.7985 0.9657
-6.3046 -5.7478 -1.7986 0.9657
-6.0946 -5.9708 -1.7987 0.9657
-5.6513 -6.3936 -1.7990 0.9657
-5.4185 -6.5928 -1.7991 0.9657
-5.1787 -6.7835 -1.7992 0.9657
-4.9323 -6.9656 -1.7993 0.9657
-4.1558 -7.4572 -1.7998 0.9657
-3.8858 -7.6022 -1.7999 0.9657
-3.6107 -7.7374 -1.8001 0.9657
-3.3309 -7.8627 -1.8002 0.9657
-2.7587 -8.0828 -1.8005 0.9657
-2.4670 -8.1774 -1.8007 0.9657
-0.0353 -6.1121 -1.3862 0.9752
0.1842 -6.1123 -1.3868 0.9752
0.4044 -6.1154 -1.3899 0.9752
0.6257 -6.1165 -1.3944 0.9751
1.0745 -6.1221 -1.4096 0.9748
1.3023 -6.1202 -1.4191 0.9747
1.5332 -6.1177 -1.4303 0.9745
1.7679 -6.1144 -1.4435 0.9742
2.0069 -6.1099 -1.4585 0.9740
2.2532 -6.1106 -1.4770 0.9736
3.0370 -6.1147 -1.5484 0.9724
4.0410 -6.8530 -1.8043 0.9679
4.2847 -6.7041 -1.8044 0.9679
4.5229 -6.5464 -1.8045 0.9679
5.2016 -6.0235 -1.8049 0.9679
5.4148 -5.8333 -1.8050 0.9679
5.8200 -5.4304 -1.8052 0.9679
6.0116 -5.2183 -1.8053 0.9679
6.3712 -4.7740 -1.8055 0.9679
6.6979 -4.3051 -1.8057 0.9679
7.7207 -1.9560 -1.8063 0.9679
7.8414 -1.3971 -1.8063 0.9679
7.8866 -1.1147 -1.8064 0.9679
7.9464 -0.5460 -1.8064 0.9679
7.9609 -0.2604 -1.8064 0.9679
7.9428 0.5969 -1.8064 0.9679
7.9162 0.8817 -1.8064 0.9679
7.8793 1.1652 -1.8064 0.9679
7.8323 1.4473 -1.8063 0.9679
7.7752 1.7275 -1.8063 0.9679
7.7080 2.0054 -1.8063 0.9679
7.5439 2.5531 -1.8062 0.9679
7.3408 3.0876 -1.8061 0.9679
6.9582 3.8544 -1.8039 0.9679
5.8042 4.4075 -1.6528 0.9706
5.2958 5.0051 -1.6525 0.9706
5.1124 5.1917 -1.6524 0.9706
4.7262 5.5444 -1.6522 0.9706
3.8829 6.1620 -1.6518 0.9706
2.2273 6.9303 -1.6509 0.9706
1.9769 7.0052 -1.6507 0.9706
1.7240 7.0710 -1.6506 0.9706
1.2120 7.1752 -1.6503 0.9706
0.6940 7.2425 -1.6500 0.9706
0.4335 7.2621 -1.6499 0.9706
-0.0886 7.2732 -1.6496 0.9706
-0.3496 7.2647 -1.6494 0.9706
-1.1283 7.1832 -1.6490 0.9706
-1.3853 7.1374 -1.6489 0.9706
-1.6404 7.0825 -1.6487 0.9706
-1.8935 7.0185 -1.6486 0.9706
-2.3917 6.8634 -1.6483 0.9706
-2.6363 6.7726 -1.6482 0.9706
-3.5774 6.3236 -1.6477 0.9706
-3.8018 6.1906 -1.6476 0.9706
-4.6474 5.5812 -1.6471 0.9707
-4.8444 5.4104 -1.6470 0.9707
-5.3970 4.8574 -1.6467 0.9707
-5.7309 4.4571 -1.6465 0.9707
-5.9185 4.2711 -1.6553 0.9705
-7.0275 3.6720 -1.7982 0.9680
-7.1545 3.4172 -1.7981 0.9680
-7.2723 3.1581 -1.7981 0.9680
-1.4942 0.5860 -0.3640 0.9934
-1.4872 0.5225 -0.3575 0.9936
-1.4674 0.3999 -0.3449 0.9938
-1.4420 0.2837 -0.3333 0.9940
-1.4573 0.1264 -0.3317 0.9940
-1.4585 0.0739 -0.3312 0.9940
-1.4578 0.0215 -0.3307 0.9940
-1.4581 -0.0309 -0.3308 0.9940
-1.4569 -0.1358 -0.3318 0.9940
-1.4534 -0.1883 -0.3324 0.9940
-1.4480 -0.2408 -0.3329 0.9940
-1.4695 -0.4106 -0.3460 0.9938
-1.4886 -0.5338 -0.3586 0.9935
-1.4952 -0.5975 -0.3652 0.9934
-7.2520 -3.2047 -1.7981 0.9680
-7.0039 -3.7170 -1.7982 0.9680
-6.7197 -4.2103 -1.7984 0.9680
-6.5646 -4.4490 -1.7985 0.9680
-6.4010 -4.6820 -1.7985 0.9680
-6.2291 -4.9090 -1.7986 0.9680
-5.2540 -5.9441 -1.7992 0.9680
-4.8146 -6.3066 -1.7994 0.9680
-4.3504 -6.6367 -1.7997 0.9680
-4.1096 -6.7891 -1.7998 0.9680
-3.8636 -6.9328 -1.7999 0.9680
-3.6125 -7.0675 -1.8001 0.9680
-3.3567 -7.1932 -1.8002 0.9680
-3.0966 -7.3096 -1.8004 0.9680
-2.5646 -7.5142 -1.8006 0.9680
-2.0192 -7.6801 -1.8009 0.9680
-1.7424 -7.7483 -1.8011 0.9680
-0.4822 -6.2027 -1.5110 0.9747
-0.2549 -6.1120 -1.4857 0.9751
0.1842 -6.1123 -1.4851 0.9751
0.4046 -6.1174 -1.4889 0.9751
0.8498 -6.1260 -1.5020 0.9749
1.3037 -6.1267 -1.5213 0.9745
1.5353 -6.1261 -1.5338 0.9743
1.7703 -6.1228 -1.5479 0.9741
2.0097 -6.1184 -1.5640 0.9738
2.7679 -6.1145 -1.6300 0.9728
3.5408 -6.5297 -1.8040 0.9699
4.2231 -6.1125 -1.8044 0.9699
4.8567 -5.6241 -1.8047 0.9699
5.0558 -5.4465 -1.8048 0.9699
5.4341 -5.0703 -1.8050 0.9699
5.6129 -4.8722 -1.8051 0.9699
5.7845 -4.6679 -1.8052 0.9699
5.9486 -4.4574 -1.8053 0.9699
6.2537 -4.0195 -1.8055 0.9699
6.4846 -3.5380 -1.7940 0.9701
6.5823 -3.2904 -1.7872 0.9702
6.8722 -2.8388 -1.8058 0.9699
7.1381 -2.0838 -1.8060 0.9699
7.3634 -1.0408 -1.8061 0.9699
7.4192 -0.5098 -1.8061 0.9699
7.4367 0.0238 -1.8061 0.9699
7.4310 0.2908 -1.8061 0.9699
7.4158 0.5573 -1.8061 0.9699
7.3909 0.8232 -1.8061 0.9699
7.1966 1.8724 -1.8060 0.9699
7.1246 2.1295 -1.8059 0.9699
6.9531 2.6350 -1.8058 0.9699
5.5474 4.2126 -1.6917 0.9717
5.2678 4.3069 -1.6525 0.9724
5.1095 4.4930 -1.6524 0.9724
4.9447 4.6733 -1.6523 0.9724
4.5961 5.0154 -1.6522 0.9724
3.8300 5.6201 -1.6517 0.9724
3.4164 5.8796 -1.6515 0.9724
2.7639 6.2115 -1.6512 0.9724
2.3108 6.3928 -1.6509 0.9724
2.0797 6.4712 -1.6508 0.9724
1.6098 6.6027 -1.6505 0.9724
1.3717 6.6557 -1.6504 0.9724
1.1318 6.7001 -1.6503 0.9724
0.5910 4.4709 -1.0953 0.9816
0.6480 6.7629 -1.6500 0.9724
0.1611 6.7909 -1.6497 0.9724
-0.0827 6.7918 -1.6496 0.9724
-0.5697 6.7672 -1.6493 0.9724
-2.0022 6.4859 -1.6485 0.9724
-2.2335 6.4094 -1.6484 0.9724
-2.4620 6.3246 -1.6483 0.9724
-2.9090 6.1308 -1.6480 0.9725
-3.1269 6.0220 -1.6479 0.9725
-3.3408 5.9054 -1.6478 0.9725
-3.5504 5.7813 -1.6477 0.9725
-3.9555 5.5109 -1.6475 0.9725
-4.5242 5.0528 -1.6472 0.9725
-4.7024 4.8868 -1.6471 0.9725
-4.8745 4.7146 -1.6470 0.9725
-5.0403 4.5363 -1.6469 0.9725
-5.1996 4.3523 -1.6468 0.9725
-5.4441 4.2340 -1.6750 0.9720
-5.8867 4.2481 -1.7631 0.9706
-6.4361 3.6629 -1.7985 0.9700
-1.3743 0.5390 -0.3585 0.9939
-1.3636 0.4248 -0.3469 0.9941
-1.3555 0.3694 -0.3412 0.9942
-1.3456 0.3153 -0.3356 0.9943
-1.3424 0.2641 -0.3323 0.9944
-1.3491 0.2154 -0.3318 0.9944
-1.3583 0.0688 -0.3303 0.9944
-1.3577 0.0200 -0.3298 0.9944
-1.3566 -0.1265 -0.3309 0.9944
-1.3532 -0.1754 -0.3314 0.9944
-1.3480 -0.2242 -0.3319 0.9944
-1.3410 -0.2728 -0.3323 0.9944
-1.3475 -0.3249 -0.3366 0.9943
-1.3571 -0.3792 -0.3422 0.9942
-1.3709 -0.4916 -0.3537 0.9940
-1.3749 -0.5495 -0.3596 0.9939
-1.3769 -0.6085 -0.3656 0.9938
-6.2757 -3.9321 -1.7986 0.9700
-5.9780 -4.3726 -1.7988 0.9700
-5.8175 -4.5846 -1.7989 0.9700
-5.4741 -4.9907 -1.7990 0.9700
-5.2917 -5.1843 -1.7991 0.9700
-5.1025 -5.3712 -1.7993 0.9700
-4.7046 -5.7241 -1.7995 0.9700
-4.2823 -6.0477 -1.7997 0.9700
-4.0627 -6.1979 -1.7998 0.9700
-3.8379 -6.3402 -1.7999 0.9700
-3.6081 -6.4743 -1.8001 0.9700
-2.8918 -6.8262 -1.8005 0.9699
-2.3950 -7.0171 -1.8007 0.9699
-1.6271 -7.2356 -1.8012 0.9699
-1.3664 -7.2899 -1.8013 0.9699
-0.8400 -7.3704 -1.8016 0.9699
-0.5390 -6.9340 -1.8018 0.9717
-0.0353 -6.1121 -1.5834 0.9751
0.7080 -6.9214 -1.8024 0.9717
1.4483 -6.8068 -1.8028 0.9717
1.6919 -6.7509 -1.8030 0.9717
1.9333 -6.6863 -1.8031 0.9716
2.1722 -6.6130 -1.8032 0.9716
2.4083 -6.5313 -1.8034 0.9716
2.6414 -6.4411 -1.8035 0.9716
2.7679 -6.1145 -1.7388 0.9726
3.3192 -6.1211 -1.8039 0.9716
3.7503 -5.8679 -1.8041 0.9716
4.5526 -5.2720 -1.8045 0.9716
4.7392 -5.1055 -1.8046 0.9716
5.0939 -4.7528 -1.8048 0.9716
5.2615 -4.5671 -1.8049 0.9716
5.5761 -4.1783 -1.8051 0.9716
5.7227 -3.9756 -1.8052 0.9716
5.8620 -3.7678 -1.8053 0.9716
5.9937 -3.5551 -1.8053 0.9716
6.2338 -3.1161 -1.8055 0.9716
6.3418 -2.8904 -1.8055 0.9716
6.6909 -1.9532 -1.8057 0.9716
6.8625 -1.2227 -1.8058 0.9716
6.9020 -0.9755 -1.8058 0.9716
6.9327 -0.7272 -1.8058 0.9716
6.9708 0.0223 -1.8059 0.9716
6.9655 0.2725 -1.8059 0.9716
6.9511 0.5224 -1.8058 0.9716
6.8045 1.5118 -1.8058 0.9716
6.7457 1.7551 -1.8057 0.9716
6.6783 1.9960 -1.8057 0.9716
6.5175 2.4699 -1.8056 0.9716
6.4245 2.7022 -1.8056 0.9716
6.2137 3.1560 -1.8054 0.9716
6.0961 3.3769 -1.8054 0.9716
5.9708 3.5934 -1.8053 0.9716
5.6832 4.0024 -1.8008 0.9717
5.5220 4.1932 -1.7962 0.9718
5.1459 4.2073 -1.7220 0.9729
4.4746 4.5439 -1.6521 0.9740
3.9595 4.9978 -1.6518 0.9740
2.7985 5.7264 -1.6512 0.9740
2.5910 5.8228 -1.6511 0.9740
2.3801 5.9116 -1.6509 0.9740
1.9496 6.0663 -1.6507 0.9740
1.7304 6.1319 -1.6506 0.9740
1.5091 6.1896 -1.6505 0.9740
1.2859 6.2394 -1.6503 0.9740
0.5906 4.4678 -1.1675 0.9816
0.1511 6.3663 -1.6497 0.9740
-0.3061 6.3598 -1.6495 0.9740
-0.5341 6.3442 -1.6493 0.9740
-0.9877 6.2886 -1.6491 0.9740
-1.2128 6.2486 -1.6490 0.9740
-1.4362 6.2006 -1.6489 0.9740
-2.0940 6.0089 -1.6485 0.9740
-2.3082 5.9295 -1.6484 0.9741
-2.7272 5.7478 -1.6481 0.9741
-3.5209 5.2969 -1.6477 0.9741
-3.8914 5.0300 -1.6475 0.9741
-4.0692 4.8868 -1.6474 0.9741
-4.7257 4.2532 -1.6471 0.9741
-5.4185 4.2141 -1.7783 0.9720
-5.6159 4.0528 -1.7941 0.9718
-6.0345 3.4343 -1.7987 0.9717
-6.1536 3.2154 -1.7987 0.9717
-1.2882 0.6153 -0.3698 0.9941
-1.2805 0.3490 -0.3438 0.9945
-1.2799 0.2518 -0.3379 0.9946
-1.2844 0.2051 -0.3370 0.9946
-1.2877 0.1585 -0.3361 0.9947
-1.2899 0.1119 -0.3354 0.9947
-1.2910 0.0654 -0.3349 0.9947
-1.2909 -0.0737 -0.3350 0.9947
-1.2896 -0.1202 -0.3355 0.9947
-1.2790 -0.2602 -0.3381 0.9946
-1.2771 -0.3079 -0.3403 0.9946
-1.2813 -0.3580 -0.3446 0.9945
-1.2851 -0.4094 -0.3494 0.9944
-1.2892 -0.5697 -0.3651 0.9942
-1.2878 -0.6253 -0.3709 0.9941
-5.7482 -3.8957 -1.7989 0.9717
-5.4544 -4.2985 -1.7991 0.9717
-5.2968 -4.4917 -1.7991 0.9717
-5.1324 -4.6792 -1.7992 0.9717
-4.9614 -4.8606 -1.7993 0.9717
-4.7840 -5.0359 -1.7994 0.9717
-4.2156 -5.5219 -1.7997 0.9717
-4.0149 -5.6700 -1.7998 0.9717
-3.5982 -5.9442 -1.8001 0.9717
-3.3827 -6.0700 -1.8002 0.9717
-3.1629 -6.1879 -1.8003 0.9717
-2.9389 -6.2979 -1.8004 0.9717
-1.7678 -6.7238 -1.8011 0.9717
-1.5254 -6.7835 -1.8012 0.9717
-0.0353 -6.1121 -1.6832 0.9750
1.1317 -6.4474 -1.8027 0.9732
1.8186 -6.2897 -1.8030 0.9732
2.2655 -6.1438 -1.8033 0.9732
2.4847 -6.0590 -1.8034 0.9732
2.9134 -5.8658 -1.8036 0.9732
3.1223 -5.7578 -1.8038 0.9732
3.3272 -5.6424 -1.8039 0.9732
3.5278 -5.5197 -1.8040 0.9732
3.7238 -5.3898 -1.8041 0.9732
4.1014 -5.1093 -1.8043 0.9732
4.4579 -4.8024 -1.8045 0.9732
5.1003 -4.1158 -1.8048 0.9732
5.5139 -3.5441 -1.8051 0.9732
5.6378 -3.3440 -1.8051 0.9732
5.7544 -3.1396 -1.8052 0.9732
6.0591 -2.5029 -1.8054 0.9732
6.1452 -2.2839 -1.8054 0.9732
6.2935 -1.8372 -1.8055 0.9732
6.3555 -1.6101 -1.8055 0.9732
6.4094 -1.3810 -1.8056 0.9732
6.4549 -1.1500 -1.8056 0.9732
6.4921 -0.9176 -1.8056 0.9732
6.5413 -0.4495 -1.8056 0.9732
6.5532 -0.2144 -1.8056 0.9732
6.4860 0.9592 -1.8056 0.9732
6.4474 1.1914 -1.8056 0.9732
6.4003 1.4220 -1.8055 0.9732
6.3451 1.6508 -1.8055 0.9732
6.0429 2.5417 -1.8053 0.9732
5.7341 3.1763 -1.8052 0.9732
5.4911 3.5793 -1.8050 0.9732
5.2093 3.9558 -1.8013 0.9732
4.2089 4.2742 -1.6519 0.9754
3.8910 4.5647 -1.6518 0.9754
3.7245 4.7011 -1.6517 0.9754
3.5531 4.8315 -1.6516 0.9754
3.0126 5.1846 -1.6513 0.9754
2.6325 5.3867 -1.6511 0.9754
2.4373 5.4773 -1.6510 0.9754
2.2389 5.5609 -1.6509 0.9754
2.0377 5.6373 -1.6508 0.9754
1.4196 5.8225 -1.6504 0.9754
1.2096 5.8693 -1.6503 0.9754
0.7539 4.4632 -1.2465 0.9814
0.5902 4.4647 -1.2402 0.9815
0.5715 5.9641 -1.6500 0.9754
0.3570 5.9803 -1.6498 0.9755
0.1421 5.9889 -1.6497 0.9755
-0.0729 5.9897 -1.6496 0.9755
-0.2879 5.9828 -1.6495 0.9755
-0.5024 5.9682 -1.6494 0.9755
-0.9292 5.9159 -1.6491 0.9755
-1.1409 5.8783 -1.6490 0.9755
-1.3511 5.8332 -1.6489 0.9755
-2.1714 5.5782 -1.6485 0.9755
-2.5657 5.4074 -1.6482 0.9755
-2.7580 5.3114 -1.6481 0.9755
-3.1316 5.0992 -1.6479 0.9755
-3.4889 4.8608 -1.6477 0.9755
-3.6610 4.7322 -1.6476 0.9755
-3.8283 4.5975 -1.6475 0.9755
-4.1478 4.3105 -1.6474 0.9755
-4.3668 4.2236 -1.6730 0.9751
-5.1453 4.0016 -1.7950 0.9733
-5.4313 3.6304 -1.7991 0.9733
-1.2254 0.5322 -0.3679 0.9945
-1.2261 0.4809 -0.3627 0.9946
-1.2212 0.2862 -0.3454 0.9948
-1.2268 0.2414 -0.3443 0.9948
-1.2312 0.1966 -0.3434 0.9948
-1.2368 0.1073 -0.3419 0.9949
-1.2377 -0.0707 -0.3414 0.9949
-1.2364 -0.1153 -0.3420 0.9949
-1.2305 -0.2046 -0.3435 0.9948
-1.2257 -0.4395 -0.3586 0.9946
-1.2252 -0.5414 -0.3689 0.9945
-1.2230 -0.5938 -0.3744 0.9944
-5.6566 -3.2674 -1.7989 0.9733
-5.2731 -3.8571 -1.7992 0.9733
-5.1315 -4.0440 -1.7992 0.9733
-4.9833 -4.2258 -1.7993 0.9733
-4.6677 -4.5729 -1.7995 0.9733
-4.3280 -4.8965 -1.7997 0.9733
-4.1497 -5.0490 -1.7998 0.9732
-3.9660 -5.1950 -1.7999 0.9732
-3.5835 -5.4668 -1.8001 0.9732
-3.1824 -5.7105 -1.8003 0.9732
