ply
format ascii 1.0
element vertex 1558
property float32 x
property float32 y
property float32 z
property float32 I
end_header
2.2626 -10.6335 -0.1054 0.9574
2.4962 -9.9604 -0.0996 0.9598
4.0818 -9.9535 -0.1043 0.9579
8.1376 -16.3844 -0.1774 0.9294
9.3741 -15.8972 -0.1789 0.9288
37.4513 -58.5979 -0.6743 0.7572
21.9369 -31.7510 -0.3742 0.8569
37.2877 -50.0291 -0.6050 0.7791
18.8969 -20.3574 -0.2693 0.8948
31.8216 -31.9034 -0.4369 0.8351
34.1558 -31.8691 -0.4530 0.8296
42.9759 -34.6798 -0.5355 0.8018
15.3475 -10.6620 -0.1812 0.9280
16.1324 -9.5686 -0.1819 0.9277
17.4803 -9.5371 -0.1931 0.9234
79.3152 -36.1495 -0.8452 0.7056
87.5719 -36.1750 -0.9187 0.6845
92.3100 -34.3075 -0.9549 0.6744
92.3591 -26.9614 -0.9329 0.6805
39.3288 -9.9637 -0.3934 0.8502
38.5723 0.1236 -0.3740 0.8570
42.7289 4.7589 -0.4169 0.8420
52.7663 9.7504 -0.5203 0.8068
44.1445 9.8080 -0.4385 0.8345
37.8590 9.8500 -0.3793 0.8551
36.2021 10.8204 -0.3664 0.8597
36.2117 12.2555 -0.3707 0.8582
36.1919 16.7761 -0.3868 0.8525
36.3943 18.4850 -0.3958 0.8493
36.2230 20.0652 -0.4015 0.8473
35.6961 25.1389 -0.4233 0.8398
36.5202 29.8587 -0.4574 0.8280
36.4799 34.4776 -0.4865 0.8181
36.4085 36.9730 -0.5032 0.8126
36.4255 45.9776 -0.5688 0.7909
7.8928 11.5819 -0.1359 0.9455
18.4525 29.2834 -0.3356 0.8707
18.5035 31.8443 -0.3571 0.8630
7.4294 13.9128 -0.1529 0.9389
5.7236 11.7117 -0.1264 0.9492
4.7309 11.7503 -0.1228 0.9506
4.2486 11.7535 -0.1212 0.9512
2.4301 11.7916 -0.1167 0.9530
1.9923 11.7945 -0.1160 0.9533
1.5596 11.7974 -0.1154 0.9535
1.1307 11.8003 -0.1149 0.9537
0.7046 11.8031 -0.1147 0.9538
0.1089 4.5914 -0.0445 0.9818
-0.5684 11.8116 -0.1147 0.9538
-0.9940 11.8065 -0.1149 0.9537
-1.4236 11.8173 -0.1154 0.9535
-1.8331 11.6704 -0.1145 0.9538
-2.2947 11.8231 -0.1168 0.9530
-2.7392 11.8261 -0.1177 0.9526
-4.5959 11.8066 -0.1229 0.9506
-5.9838 13.8765 -0.1465 0.9413
-39.8532 64.8944 -0.7384 0.7374
-47.7121 66.4733 -0.7934 0.7209
-29.5845 38.2413 -0.4688 0.8241
-48.5213 54.1904 -0.7053 0.7475
-51.8764 50.1751 -0.6998 0.7492
-69.4129 62.4729 -0.9055 0.6883
-48.6114 40.6896 -0.6147 0.7760
-49.2428 35.5364 -0.5888 0.7843
-53.0305 35.4462 -0.6185 0.7748
-62.3928 35.5087 -0.6961 0.7504
-71.2718 34.0417 -0.7659 0.7291
-66.7012 28.9658 -0.7052 0.7476
-73.1906 25.7159 -0.7522 0.7332
-73.1494 22.7864 -0.7429 0.7360
-73.4536 -9.5187 -0.7182 0.7436
-63.5546 -10.5679 -0.6247 0.7728
-87.7077 -17.8410 -0.8679 0.6991
-82.3120 -19.8451 -0.8210 0.7127
-54.9350 -19.6982 -0.5659 0.7918
-46.5309 -20.5621 -0.4933 0.8159
-46.5197 -22.5866 -0.5014 0.8131
-36.6140 -26.7813 -0.4399 0.8341
-29.7274 -23.4275 -0.3670 0.8595
-28.0993 -23.8282 -0.3572 0.8630
-28.1242 -27.5530 -0.3818 0.8543
-19.3119 -23.4970 -0.2949 0.8854
-18.4508 -28.1475 -0.3263 0.8740
-18.9159 -31.2489 -0.3542 0.8641
-15.9826 -31.2685 -0.3405 0.8689
-9.9805 -23.5593 -0.2481 0.9027
-9.7990 -28.7104 -0.2942 0.8857
-10.3961 -34.4600 -0.3490 0.8659
-10.4309 -39.6738 -0.3978 0.8487
2.7926 -20.1311 -0.5068 0.9219
4.0614 -9.9037 -0.2669 0.9581
4.4750 -9.8858 -0.2706 0.9575
8.1376 -16.3843 -0.4562 0.9294
12.9267 -20.2257 -0.5986 0.9084
16.3698 -20.3927 -0.6521 0.9007
17.6206 -20.4049 -0.6723 0.8977
20.3905 -20.4430 -0.7201 0.8909
23.5475 -20.4402 -0.7776 0.8827
25.4483 -20.5357 -0.8155 0.8774
14.4892 -10.8571 -0.4515 0.9301
16.0438 -9.5161 -0.4652 0.9281
65.0056 -29.6276 -1.7816 0.7514
17.5595 -7.2537 -0.4738 0.9268
37.6106 -10.9793 -0.9771 0.8549
38.0781 -9.6469 -0.9796 0.8546
66.1717 -14.2576 -1.6881 0.7627
37.9378 -6.7592 -0.9610 0.8571
68.6640 -9.7051 -1.7294 0.7577
73.7676 -5.0687 -1.8440 0.7439
73.8594 2.8900 -1.8433 0.7440
42.6555 4.7507 -1.0703 0.8422
73.0763 10.8069 -1.8422 0.7441
52.7667 9.7505 -1.3382 0.8068
37.8591 9.8500 -0.9756 0.8551
36.4126 13.7992 -0.9711 0.8557
27.7100 12.8445 -0.7617 0.8850
27.7521 15.3728 -0.7912 0.8808
27.6761 16.6562 -0.8056 0.8788
27.8881 18.1786 -0.8302 0.8753
22.8760 16.1104 -0.6978 0.8941
22.2361 18.1802 -0.7163 0.8914
27.8071 24.4519 -0.9234 0.8623
27.8019 26.2758 -0.9540 0.8581
23.4671 25.6079 -0.8662 0.8702
22.1785 27.9945 -0.8907 0.8668
19.8471 26.9882 -0.8354 0.8746
18.4404 29.2643 -0.8626 0.8707
18.5042 31.8455 -0.9185 0.8630
5.7236 11.7117 -0.3251 0.9492
3.7784 11.7567 -0.3080 0.9518
3.3186 11.7597 -0.3047 0.9523
2.8665 11.7568 -0.3018 0.9527
2.4301 11.7916 -0.3002 0.9530
1.9923 11.7945 -0.2983 0.9533
1.5596 11.7974 -0.2968 0.9535
1.1307 11.8003 -0.2956 0.9537
0.1089 4.5905 -0.1145 0.9818
-0.5684 11.8116 -0.2949 0.9538
-0.9941 11.8077 -0.2955 0.9537
-1.8332 11.6710 -0.2947 0.9538
-3.1913 11.8291 -0.3055 0.9522
-4.1243 11.8354 -0.3126 0.9511
-6.5861 13.8806 -0.3832 0.9404
-6.6664 11.7838 -0.3377 0.9473
-17.7487 19.8225 -0.6635 0.8990
-17.8027 18.5011 -0.6403 0.9024
-18.7577 18.1426 -0.6508 0.9008
-21.5954 19.4362 -0.7246 0.8903
-24.8078 17.9027 -0.7629 0.8848
-56.2914 32.0363 -1.6152 0.7717
-57.3895 29.9869 -1.6148 0.7718
-59.3653 25.7801 -1.6141 0.7718
-61.0405 21.4469 -1.6135 0.7719
-62.9724 14.7559 -1.6130 0.7720
-63.8646 10.1992 -1.6129 0.7720
-64.1898 7.9001 -1.6129 0.7720
-64.4345 5.5911 -1.6129 0.7720
-70.5659 3.5772 -1.7621 0.7537
-70.6563 -1.4951 -1.7624 0.7537
-70.5676 -4.0311 -1.7627 0.7537
-70.1234 -9.0871 -1.7634 0.7536
-69.7684 -11.6012 -1.7638 0.7535
-62.9766 -15.1834 -1.6155 0.7717
-49.9785 -19.9734 -1.3422 0.8063
-46.6484 -20.6140 -1.2719 0.8154
-46.6783 -22.6636 -1.2940 0.8125
-46.6882 -24.7776 -1.3181 0.8094
-46.6221 -26.9305 -1.3427 0.8062
-36.6011 -24.8055 -1.1026 0.8379
-28.1117 -25.6291 -0.9487 0.8588
-19.3119 -23.4970 -0.7585 0.8854
-18.4510 -28.1479 -0.8393 0.8740
-36.3409 -60.0348 -1.7501 0.7552
-32.1416 -62.8818 -1.7612 0.7538
-10.9909 -23.5525 -0.6482 0.9012
-9.7992 -28.7112 -0.7566 0.8857
-15.7695 -70.1259 -1.7925 0.7501
-10.7368 -71.3367 -1.7991 0.7493
-1.5575 -20.0349 -0.8077 0.9227
2.0528 -20.0680 -0.8108 0.9224
2.8089 -20.2486 -0.8216 0.9214
1.9809 -11.2860 -0.4605 0.9552
2.0922 -9.8326 -0.4040 0.9606
2.8399 -9.8221 -0.4109 0.9599
3.2309 -9.8364 -0.4161 0.9594
4.0304 -9.8283 -0.4269 0.9584
13.0517 -20.4212 -0.9741 0.9075
15.1768 -20.3628 -1.0207 0.9033
16.5871 -20.6633 -1.0650 0.8994
20.3759 -20.4283 -1.1597 0.8909
21.9499 -20.4804 -1.2066 0.8868
14.2268 -11.4804 -0.7348 0.9294
14.2313 -10.6638 -0.7147 0.9313
15.9975 -9.4887 -0.7476 0.9282
17.4157 -9.5018 -0.7974 0.9237
18.9295 -9.4624 -0.8506 0.9188
17.1655 -6.3797 -0.7360 0.9293
19.0071 -6.2973 -0.8048 0.9230
37.9136 -9.6052 -1.5720 0.8551
44.4586 -9.5792 -1.8279 0.8335
37.7431 -6.7245 -1.5409 0.8577
45.2311 -4.7442 -1.8279 0.8335
45.4512 -1.4868 -1.8277 0.8336
45.4335 1.7777 -1.8275 0.8336
45.3356 3.4071 -1.8273 0.8336
41.1598 6.0869 -1.6723 0.8466
37.8593 9.8501 -1.5723 0.8550
33.6919 11.4027 -1.4296 0.8673
36.4123 13.7990 -1.5650 0.8557
29.5486 12.4284 -1.2884 0.8796
27.7407 15.3665 -1.2746 0.8808
27.7000 16.6707 -1.2994 0.8786
22.3456 15.7369 -1.0985 0.8964
22.1051 18.0731 -1.1476 0.8920
12.9764 11.4107 -0.6945 0.9332
27.8139 26.2872 -1.5382 0.8580
27.8872 28.3195 -1.5974 0.8529
22.1273 25.9582 -1.3709 0.8724
20.3219 27.6339 -1.3786 0.8717
7.8928 11.5819 -0.5633 0.9454
20.3417 32.2815 -1.5336 0.8583
18.4405 31.7358 -1.4752 0.8633
5.2271 11.7470 -0.5168 0.9498
4.7309 11.7503 -0.5091 0.9506
3.3186 11.7597 -0.4911 0.9523
2.8664 11.7568 -0.4864 0.9527
0.7046 11.8031 -0.4752 0.9538
-0.1438 11.8088 -0.4747 0.9538
-0.5684 11.8117 -0.4753 0.9538
-0.9942 11.8090 -0.4763 0.9537
-1.8333 11.6716 -0.4749 0.9538
-2.2947 11.8232 -0.4841 0.9529
-2.7392 11.8261 -0.4879 0.9526
-3.1913 11.8292 -0.4924 0.9521
-3.6525 11.8322 -0.4977 0.9516
-4.1243 11.8354 -0.5037 0.9511
-5.9838 13.8766 -0.6074 0.9413
-6.5861 13.8806 -0.6175 0.9403
-6.6664 11.7839 -0.5441 0.9472
-23.2511 37.8606 -1.7857 0.8371
-24.1764 36.3716 -1.7553 0.8396
-24.2029 33.7199 -1.6682 0.8469
-24.7388 31.9776 -1.6250 0.8506
-17.8106 21.3893 -1.1187 0.8946
-17.6303 19.6902 -1.0623 0.8996
-17.7656 17.1830 -0.9934 0.9058
-24.8079 19.2940 -1.2631 0.8818
-38.2041 18.2474 -1.7017 0.8441
-38.6463 12.0385 -1.6269 0.8504
-39.0510 10.6428 -1.6268 0.8504
-40.1763 7.9046 -1.6457 0.8488
-44.1570 2.2385 -1.7770 0.8378
-44.2097 -0.9355 -1.7773 0.8378
-44.1519 -2.5221 -1.7774 0.8377
-44.0378 -4.1058 -1.7776 0.8377
-43.8677 -5.6847 -1.7779 0.8377
-43.6420 -7.2568 -1.7781 0.8377
-42.1860 -13.4384 -1.7795 0.8376
-36.4970 -17.7204 -1.6306 0.8501
-26.3126 -15.1990 -1.2213 0.8855
-33.9872 -23.0340 -1.6502 0.8484
-33.1649 -24.2586 -1.6515 0.8483
-28.0999 -23.8287 -1.4808 0.8629
-28.1120 -25.6294 -1.5290 0.8587
-28.1249 -27.5536 -1.5825 0.8542
-28.5055 -30.0064 -1.6634 0.8473
-18.4245 -24.1338 -1.2203 0.8855
-18.4513 -28.1484 -1.3527 0.8739
-21.7126 -35.8686 -1.6852 0.8455
-20.4500 -36.6953 -1.6884 0.8452
-10.9909 -23.5525 -1.0446 0.9012
-9.7787 -25.6050 -1.1016 0.8961
-9.7995 -28.7120 -1.2193 0.8856
-12.2529 -40.6144 -1.7050 0.8438
-9.3311 -41.4947 -1.7094 0.8434
-4.8311 -42.3883 -1.7147 0.8430
-0.8651 -20.7478 -1.1518 0.9202
-0.1189 -20.6136 -1.1433 0.9207
0.6103 -20.2465 -1.1235 0.9221
0.6945 -10.5019 -0.5837 0.9587
0.6951 -6.7954 -0.3789 0.9730
1.1899 -6.7795 -0.3818 0.9728
2.0657 -9.7081 -0.5505 0.9610
2.4394 -9.7337 -0.5566 0.9606
2.8155 -9.7377 -0.5622 0.9602
3.1981 -9.7366 -0.5684 0.9598
4.4025 -9.7255 -0.5921 0.9581
8.8873 -16.3893 -1.0341 0.9280
9.3736 -15.8964 -1.0235 0.9287
13.0338 -20.3933 -1.3424 0.9076
14.0627 -20.3540 -1.3722 0.9056
15.1767 -20.3628 -1.4086 0.9033
16.6114 -20.6936 -1.4718 0.8991
20.3808 -20.4332 -1.6007 0.8908
21.9324 -20.4640 -1.6637 0.8868
22.6575 -19.6676 -1.6641 0.8867
14.2308 -10.6634 -0.9863 0.9312
14.2352 -9.8892 -0.9614 0.9329
15.9884 -9.4833 -1.0310 0.9282
17.4037 -9.4953 -1.0996 0.9236
16.2740 -6.7226 -0.9766 0.9319
18.8020 -6.2293 -1.0986 0.9237
31.5091 -9.1981 -1.8206 0.8768
32.3182 -5.7580 -1.8207 0.8768
32.5041 -4.5943 -1.8207 0.8768
32.6478 -3.4244 -1.8207 0.8768
32.7488 -2.2502 -1.8207 0.8768
32.8073 -1.0732 -1.8206 0.8768
32.8230 0.1052 -1.8205 0.8768
32.7263 2.4595 -1.8202 0.8768
32.6139 3.6323 -1.8201 0.8768
32.3789 4.7883 -1.8154 0.8771
30.0343 6.6730 -1.7064 0.8840
29.2325 7.6056 -1.6753 0.8860
28.7638 8.5972 -1.6651 0.8867
28.0633 10.6351 -1.6645 0.8867
27.6890 11.6463 -1.6661 0.8866
27.6446 12.8142 -1.6900 0.8851
27.6464 15.3143 -1.7529 0.8811
27.6467 16.6386 -1.7897 0.8787
22.0411 15.5224 -1.4952 0.8976
22.0970 16.7799 -1.5389 0.8948
22.1038 18.0720 -1.5836 0.8919
23.7631 22.4587 -1.8135 0.8772
22.9347 23.2903 -1.8130 0.8773
22.0772 24.0913 -1.8124 0.8773
13.5706 15.9201 -1.1603 0.9196
7.9851 13.7422 -0.8815 0.9383
5.2271 11.7470 -0.7131 0.9498
4.7309 11.7503 -0.7026 0.9505
2.8665 11.7568 -0.6712 0.9527
2.4235 11.7598 -0.6660 0.9530
1.9869 11.7627 -0.6616 0.9533
1.5596 11.7975 -0.6600 0.9534
0.7046 11.8032 -0.6558 0.9537
-0.1439 11.8088 -0.6550 0.9538
-0.9943 11.8102 -0.6573 0.9536
-1.4226 11.8090 -0.6597 0.9535
-1.8334 11.6723 -0.6553 0.9538
-2.2885 11.7912 -0.6662 0.9530
-3.6426 11.8002 -0.6850 0.9517
-5.9838 13.8766 -0.8382 0.9413
-6.5861 13.8806 -0.8521 0.9403
-13.2603 18.4745 -1.2613 0.9129
-17.6184 19.6769 -1.4649 0.8996
-17.6368 18.3287 -1.4108 0.9031
-17.6857 17.1057 -1.3647 0.9061
-18.5609 16.7052 -1.3850 0.9048
-21.3811 17.8968 -1.5465 0.8943
-24.2544 18.8635 -1.7042 0.8842
-26.7004 12.7529 -1.6412 0.8882
-27.1383 11.7851 -1.6410 0.8882
-27.5414 10.8024 -1.6409 0.8882
-30.7089 9.5660 -1.7840 0.8791
-31.0310 8.4571 -1.7839 0.8791
-31.5559 6.2085 -1.7838 0.8791
-31.7582 5.0718 -1.7838 0.8791
-32.1210 1.6283 -1.7838 0.8791
-32.1601 0.4743 -1.7839 0.8791
-32.1583 -0.6805 -1.7840 0.8791
-31.9065 -4.1347 -1.7845 0.8791
-31.5349 -6.4147 -1.7849 0.8790
-30.6757 -9.7718 -1.7856 0.8790
-28.9828 -14.0720 -1.7870 0.8789
-27.7193 -14.7107 -1.7405 0.8819
-25.5502 -14.7587 -1.6365 0.8885
-24.4371 -16.5616 -1.6373 0.8885
-22.5328 -19.1079 -1.6386 0.8884
-21.8385 -19.9099 -1.6391 0.8883
-21.1158 -20.6869 -1.6395 0.8883
-20.5180 -21.5986 -1.6523 0.8875
-17.4229 -24.6054 -1.6722 0.8862
-16.5409 -25.2339 -1.6735 0.8861
-14.7110 -26.3972 -1.6761 0.8860
-10.9909 -23.5525 -1.4415 0.9011
-9.9805 -23.5592 -1.4191 0.9026
-9.8015 -28.7179 -1.6830 0.8855
-7.7289 -29.3968 -1.6859 0.8854
-0.1192 -20.6580 -1.4618 0.9205
0.8966 -6.4630 -0.4617 0.9742
1.1351 -6.4671 -0.4646 0.9740
1.3777 -6.4747 -0.4684 0.9738
2.8036 -9.6963 -0.7142 0.9603
3.5677 -9.6755 -0.7297 0.9595
8.8809 -16.3775 -1.3183 0.9280
12.6215 -19.7481 -1.6584 0.9103
14.6805 -18.2882 -1.6595 0.9102
15.9608 -17.1943 -1.6601 0.9102
16.5706 -16.6132 -1.6604 0.9102
17.1591 -16.0104 -1.6607 0.9102
14.4378 -10.8185 -1.2766 0.9302
14.3158 -9.9452 -1.2335 0.9325
14.6314 -9.4043 -1.2308 0.9326
19.2023 -11.3895 -1.5798 0.9144
18.8696 -9.4324 -1.4928 0.9189
16.1600 -6.6755 -1.2372 0.9323
16.6700 -6.1955 -1.2584 0.9312
18.7193 -6.2019 -1.3954 0.9240
24.8856 -6.3046 -1.8166 0.9022
25.0965 -5.4074 -1.8166 0.9022
25.2747 -4.5031 -1.8167 0.9022
25.4201 -3.5929 -1.8167 0.9022
25.5325 -2.6781 -1.8166 0.9022
25.6702 0.0822 -1.8165 0.9022
25.5079 2.8409 -1.8162 0.9022
25.3875 3.7544 -1.8160 0.9022
25.0479 5.5651 -1.8157 0.9022
24.8293 6.4600 -1.8155 0.9022
24.5785 7.3462 -1.8152 0.9022
23.6365 9.9418 -1.8145 0.9023
23.2608 10.7822 -1.8142 0.9023
22.8550 11.6082 -1.8139 0.9023
22.4196 12.4190 -1.8136 0.9023
21.4629 13.9904 -1.8129 0.9024
13.7436 10.4365 -1.2211 0.9331
19.8223 16.2067 -1.8118 0.9024
12.8184 11.2717 -1.2079 0.9338
13.1776 12.4543 -1.2830 0.9299
16.5907 19.4631 -1.8097 0.9025
13.8632 18.8513 -1.6558 0.9104
7.8928 11.5819 -0.9918 0.9453
5.2271 11.7470 -0.9098 0.9497
4.7309 11.7503 -0.8963 0.9505
4.2486 11.7536 -0.8844 0.9511
3.7784 11.7567 -0.8738 0.9517
2.3958 11.6250 -0.8399 0.9535
1.5376 11.6307 -0.8302 0.9540
0.1089 4.5877 -0.3247 0.9818
-0.5604 11.6447 -0.8250 0.9543
-0.9806 11.6475 -0.8271 0.9542
-1.4035 11.6503 -0.8304 0.9540
-1.8304 11.6531 -0.8347 0.9538
-2.2623 11.6560 -0.8402 0.9535
-2.7004 11.6590 -0.8469 0.9531
-3.1462 11.6619 -0.8547 0.9527
-3.6009 11.6650 -0.8639 0.9522
-4.5433 11.6713 -0.8863 0.9510
-5.9838 13.8766 -1.0693 0.9412
-6.6666 11.7841 -0.9580 0.9472
-12.1370 19.7630 -1.6411 0.9112
-12.8358 19.3104 -1.6408 0.9112
-13.2459 18.4545 -1.6074 0.9129
-15.4925 20.0258 -1.7916 0.9035
-16.8829 18.8555 -1.7909 0.9035
-17.5458 18.2341 -1.7906 0.9035
-18.1859 17.5895 -1.7903 0.9035
-18.8025 16.9226 -1.7900 0.9035
-19.3949 16.2343 -1.7898 0.9036
-19.9623 15.5254 -1.7895 0.9036
-20.5039 14.7968 -1.7893 0.9036
-21.5075 13.2844 -1.7888 0.9036
-22.4005 11.7046 -1.7885 0.9036
-23.8382 8.3757 -1.7879 0.9036
-24.3755 6.6432 -1.7878 0.9037
-24.7883 4.8770 -1.7877 0.9037
-25.0742 3.0860 -1.7877 0.9037
-25.2624 0.3726 -1.7878 0.9036
-25.2606 -0.5345 -1.7879 0.9036
-25.1602 -2.3458 -1.7881 0.9036
-25.0616 -3.2477 -1.7882 0.9036
-24.9309 -4.1455 -1.7884 0.9036
-24.7684 -5.0383 -1.7886 0.9036
-24.5742 -5.9247 -1.7887 0.9036
-24.0914 -7.6743 -1.7892 0.9036
-23.8035 -8.5353 -1.7894 0.9036
-23.4851 -9.3856 -1.7896 0.9036
-22.7582 -11.0498 -1.7902 0.9035
-22.3506 -11.8616 -1.7905 0.9035
-20.9575 -14.2034 -1.7915 0.9035
-20.1057 -14.7063 -1.7627 0.9049
-17.6870 -14.9986 -1.6410 0.9112
-17.1410 -15.6273 -1.6414 0.9112
-16.5728 -16.2362 -1.6417 0.9112
-15.9830 -16.8245 -1.6421 0.9111
-15.3724 -17.3916 -1.6425 0.9111
-14.7418 -17.9365 -1.6429 0.9111
-14.0920 -18.4588 -1.6433 0.9111
-12.7379 -19.4322 -1.6442 0.9110
-9.8618 -21.1326 -1.6502 0.9107
-9.1422 -21.5800 -1.6584 0.9103
-8.4007 -21.9957 -1.6661 0.9099
-6.8561 -22.7261 -1.6797 0.9092
-6.0572 -23.0383 -1.6856 0.9089
-5.2341 -23.2757 -1.6882 0.9088
-4.3981 -23.4641 -1.6893 0.9087
-1.4858 -19.1129 -1.6505 0.9259
-0.1107 -19.1793 -1.6512 0.9259
0.4240 -6.4119 -0.5532 0.9745
0.8865 -6.3904 -0.5554 0.9744
1.3627 -6.4042 -0.5637 0.9741
1.6105 -6.4263 -0.5704 0.9738
3.5557 -9.6431 -0.8848 0.9596
3.9332 -9.5912 -0.8925 0.9592
9.1705 -16.9116 -1.6563 0.9257
9.7735 -16.5746 -1.6566 0.9257
10.9414 -15.8364 -1.6572 0.9256
12.7126 -14.7214 -1.6746 0.9249
13.6560 -14.7114 -1.7281 0.9226
15.3741 -14.3448 -1.8103 0.9190
15.8957 -13.7981 -1.8122 0.9190
16.3828 -13.2203 -1.8124 0.9190
15.1658 -11.3640 -1.6316 0.9267
18.4894 -10.0876 -1.8133 0.9189
18.8411 -9.4182 -1.8135 0.9189
19.0485 -6.3110 -1.7276 0.9226
20.5977 -4.4381 -1.8140 0.9189
20.7440 -3.6959 -1.8140 0.9189
20.9556 -2.1980 -1.8140 0.9189
21.0585 -0.6888 -1.8140 0.9189
21.0689 0.0675 -1.8139 0.9189
21.0521 0.8237 -1.8138 0.9189
20.9365 2.3318 -1.8136 0.9189
20.1754 6.0302 -1.8129 0.9189
19.4036 8.1614 -1.8123 0.9190
18.0257 10.8484 -1.8113 0.9190
13.7322 10.4279 -1.4845 0.9331
16.2768 13.3078 -1.8101 0.9191
13.1033 12.3841 -1.5522 0.9302
12.4257 12.6184 -1.5247 0.9314
12.3204 13.4444 -1.5700 0.9294
11.9379 15.0685 -1.6551 0.9257
11.3869 15.4841 -1.6547 0.9257
10.2423 16.2541 -1.6540 0.9258
5.7236 11.7118 -1.1223 0.9490
4.2486 11.7536 -1.0760 0.9511
2.3958 11.6250 -1.0219 0.9535
1.5375 11.6307 -1.0100 0.9540
1.1148 11.6335 -1.0062 0.9542
0.6947 11.6363 -1.0036 0.9543
0.1088 4.5868 -0.3950 0.9817
-0.1418 11.6419 -1.0024 0.9543
-0.5604 11.6447 -1.0037 0.9543
-2.2623 11.6561 -1.0222 0.9534
-2.7004 11.6590 -1.0303 0.9531
-3.6009 11.6650 -1.0510 0.9522
-4.0661 11.6681 -1.0638 0.9516
-6.6666 11.7842 -1.1656 0.9471
-11.1217 15.4950 -1.6421 0.9263
-11.6689 15.0833 -1.6418 0.9263
-12.7170 14.2027 -1.6413 0.9263
-13.2166 13.7351 -1.6410 0.9263
-13.6992 13.2500 -1.6408 0.9263
-16.4279 12.7766 -1.7917 0.9198
-16.8740 12.1773 -1.7915 0.9199
-17.2985 11.5625 -1.7913 0.9199
-17.7007 10.9331 -1.7912 0.9199
-18.4363 9.6333 -1.7909 0.9199
-18.7689 8.9646 -1.7907 0.9199
-19.0774 8.2846 -1.7906 0.9199
-19.6206 6.8938 -1.7904 0.9199
-19.8546 6.1848 -1.7904 0.9199
-20.2461 4.7441 -1.7903 0.9199
-20.7165 1.7976 -1.7902 0.9199
-20.7681 1.0528 -1.7903 0.9199
-20.7914 -0.4399 -1.7904 0.9199
-20.7083 -1.9307 -1.7906 0.9199
-20.0385 -5.5995 -1.7913 0.9199
-19.3267 -7.7237 -1.7918 0.9198
-19.0393 -8.4135 -1.7921 0.9198
-18.3916 -9.7605 -1.7925 0.9198
-17.6491 -11.0581 -1.7931 0.9198
-17.2434 -11.6863 -1.7934 0.9198
-16.8156 -12.2998 -1.7936 0.9198
-13.9733 -14.7090 -1.7467 0.9218
-12.1255 -14.7533 -1.6441 0.9262
-11.5905 -15.1821 -1.6444 0.9262
-8.7028 -17.0261 -1.6462 0.9261
-8.0878 -17.3315 -1.6466 0.9261
-6.8267 -17.8753 -1.6473 0.9261
-6.1820 -18.1130 -1.6477 0.9260
-4.2020 -18.6858 -1.6489 0.9260
-3.5293 -18.8290 -1.6493 0.9260
-2.1704 -19.0427 -1.6501 0.9259
-0.6778 -16.2543 -1.6507 0.9367
0.1914 -6.3513 -0.6447 0.9748
0.6474 -6.3289 -0.6455 0.9747
0.8766 -6.3193 -0.6473 0.9747
1.3479 -6.3350 -0.6572 0.9743
1.5897 -6.3435 -0.6635 0.9740
1.8427 -6.3732 -0.6731 0.9737
4.3931 -9.7047 -1.0809 0.9581
4.7664 -9.5968 -1.0872 0.9578
10.0993 -14.6176 -1.8027 0.9311
10.6517 -14.2915 -1.8085 0.9308
11.1640 -13.9076 -1.8095 0.9308
11.6576 -13.4996 -1.8098 0.9308
12.1362 -13.0742 -1.8100 0.9308
12.5993 -12.6317 -1.8102 0.9308
14.2836 -10.7030 -1.8110 0.9308
14.6599 -10.1843 -1.8112 0.9307
15.6736 -8.5513 -1.8116 0.9307
16.2487 -7.4057 -1.8118 0.9307
16.7398 -6.2214 -1.8120 0.9307
17.1441 -5.0047 -1.8121 0.9307
17.3131 -4.3862 -1.8122 0.9307
17.4597 -3.7620 -1.8122 0.9307
17.7630 -1.8632 -1.8122 0.9307
17.8182 -1.2243 -1.8122 0.9307
17.8451 0.6982 -1.8120 0.9307
17.8078 1.3383 -1.8120 0.9307
17.7474 1.9766 -1.8119 0.9307
17.6640 2.6122 -1.8118 0.9307
17.1033 5.1120 -1.8112 0.9307
16.9073 5.7221 -1.8111 0.9308
16.6894 6.3247 -1.8109 0.9308
15.6054 8.6444 -1.8101 0.9308
13.6932 8.9257 -1.6585 0.9364
13.3468 9.3995 -1.6564 0.9365
12.6344 10.3298 -1.6559 0.9365
11.4453 11.6227 -1.6551 0.9365
10.5784 12.4098 -1.6545 0.9365
8.6871 13.7862 -1.6534 0.9366
7.7562 13.3483 -1.5664 0.9398
4.7309 11.7504 -1.2852 0.9503
3.7784 11.7567 -1.2530 0.9516
2.8336 11.6221 -1.2138 0.9530
1.9642 11.6279 -1.1965 0.9537
1.5375 11.6307 -1.1904 0.9539
1.1147 11.6335 -1.1858 0.9541
0.6947 11.6363 -1.1828 0.9542
-2.7004 11.6590 -1.2143 0.9530
-3.1462 11.6620 -1.2256 0.9526
-4.0661 11.6681 -1.2537 0.9515
-5.9700 13.8446 -1.5298 0.9412
-6.6667 11.7843 -1.3737 0.9470
-8.4777 13.8045 -1.6437 0.9369
-9.4434 13.1567 -1.6432 0.9370
-10.3602 12.4418 -1.6428 0.9370
-10.7987 12.0604 -1.6425 0.9370
-15.0329 9.2853 -1.7928 0.9314
-15.6581 8.1816 -1.7925 0.9314
-15.9407 7.6138 -1.7924 0.9314
-16.2028 7.0363 -1.7923 0.9314
-16.8633 5.2530 -1.7921 0.9314
-17.4404 2.7852 -1.7920 0.9315
-17.5292 2.1574 -1.7920 0.9315
-17.6393 0.8942 -1.7921 0.9315
-17.6604 0.2604 -1.7921 0.9315
-17.6348 -1.0074 -1.7922 0.9314
-17.5188 -2.2702 -1.7924 0.9314
-17.4270 -2.8978 -1.7925 0.9314
-17.0182 -4.7555 -1.7929 0.9314
-16.8380 -5.3638 -1.7930 0.9314
-16.1685 -7.1449 -1.7936 0.9314
-15.6178 -8.2884 -1.7940 0.9314
-14.9866 -9.3899 -1.7944 0.9314
-14.6419 -9.9232 -1.7947 0.9314
-14.2782 -10.4438 -1.7949 0.9313
-13.0786 -11.9236 -1.7957 0.9313
-12.6441 -12.3873 -1.7960 0.9313
-9.6372 -14.7020 -1.7837 0.9318
-7.5248 -14.7216 -1.6775 0.9357
-6.8743 -14.7311 -1.6494 0.9367
-6.3333 -14.9498 -1.6474 0.9368
-5.7937 -15.1705 -1.6477 0.9368
-5.2464 -15.3717 -1.6480 0.9368
-4.1317 -15.7148 -1.6487 0.9368
-2.9948 -15.9771 -1.6493 0.9367
-1.8415 -16.1573 -1.6500 0.9367
0.1822 -6.0436 -0.7067 0.9759
2.6243 -6.3995 -0.8084 0.9725
4.3296 -9.5646 -1.2272 0.9586
7.3710 -13.5931 -1.8074 0.9396
8.3295 -13.0328 -1.8079 0.9396
8.7931 -12.7270 -1.8081 0.9396
10.5291 -11.3429 -1.8089 0.9396
12.0489 -9.7230 -1.8097 0.9396
12.3912 -9.2850 -1.8098 0.9395
12.7175 -8.8349 -1.8100 0.9395
13.0274 -8.3734 -1.8101 0.9395
13.3205 -7.9008 -1.8102 0.9395
13.5964 -7.4181 -1.8103 0.9395
14.0951 -6.4242 -1.8105 0.9395
14.3173 -5.9143 -1.8106 0.9395
14.5209 -5.3968 -1.8107 0.9395
14.7058 -4.8722 -1.8107 0.9395
14.8716 -4.3413 -1.8108 0.9395
15.3405 -2.1682 -1.8109 0.9395
15.4083 -1.6162 -1.8109 0.9395
15.4562 -1.0620 -1.8108 0.9395
15.4841 -0.5065 -1.8108 0.9395
15.3952 1.7146 -1.8106 0.9395
14.9878 3.8995 -1.8101 0.9395
14.8371 4.4346 -1.8100 0.9395
14.6673 4.9640 -1.8099 0.9395
12.3938 6.8654 -1.6560 0.9445
12.1381 7.3050 -1.6559 0.9445
11.5800 8.1552 -1.6555 0.9446
11.2784 8.5645 -1.6553 0.9446
10.6321 9.3492 -1.6548 0.9446
9.9312 10.0851 -1.6544 0.9446
9.1793 10.7685 -1.6539 0.9446
7.8928 11.5819 -1.6382 0.9451
6.7380 11.5960 -1.5676 0.9474
5.7236 11.7118 -1.5236 0.9489
5.2130 11.7152 -1.4988 0.9497
4.7181 11.7185 -1.4765 0.9504
4.2486 11.7536 -1.4608 0.9509
2.8336 11.6221 -1.3982 0.9530
1.1148 11.6335 -1.3660 0.9540
0.6947 11.6363 -1.3625 0.9541
0.1088 4.5850 -0.5361 0.9817
-0.1418 11.6419 -1.3608 0.9542
-0.5604 11.6447 -1.3626 0.9541
-1.8304 11.6532 -1.3788 0.9536
-3.1462 11.6620 -1.4118 0.9525
-6.1455 11.8353 -1.5587 0.9477
-6.6106 11.6851 -1.5692 0.9474
-7.3628 11.9891 -1.6445 0.9449
-7.7874 11.7155 -1.6443 0.9449
-8.2019 11.4270 -1.6441 0.9449
-8.6057 11.1239 -1.6439 0.9449
-9.3795 10.4754 -1.6435 0.9449
-9.7484 10.1308 -1.6433 0.9450
-10.4480 9.4034 -1.6430 0.9450
-10.7779 9.0215 -1.6428 0.9450
-11.0938 8.6280 -1.6427 0.9450
-11.3954 8.2235 -1.6425 0.9450
-13.6020 7.1072 -1.7938 0.9401
-13.8476 6.6141 -1.7937 0.9401
-14.2852 5.6030 -1.7935 0.9401
-14.4766 5.0864 -1.7935 0.9401
-14.6494 4.5634 -1.7934 0.9401
-15.0543 2.9619 -1.7933 0.9401
-15.1509 2.4196 -1.7933 0.9401
-15.2280 1.8742 -1.7933 0.9401
-15.2856 1.3263 -1.7933 0.9401
-15.3236 0.7768 -1.7934 0.9401
-15.3405 -0.3246 -1.7935 0.9401
-15.3195 -0.8751 -1.7935 0.9401
-15.2788 -1.4245 -1.7936 0.9401
-14.9209 -3.5974 -1.7940 0.9401
-14.4509 -5.1817 -1.7944 0.9400
-14.0443 -6.2062 -1.7947 0.9400
-13.2998 -7.6824 -1.7952 0.9400
-12.7172 -8.6188 -1.7956 0.9400
-11.7214 -9.9397 -1.7963 0.9400
-9.7651 -11.8813 -1.7976 0.9399
-9.3337 -12.2260 -1.7979 0.9399
-8.8902 -12.5551 -1.7981 0.9399
-7.9690 -13.1648 -1.7987 0.9399
-4.9622 -14.5390 -1.7956 0.9400
-4.4316 -14.6894 -1.7934 0.9401
-3.8657 -14.7030 -1.7769 0.9406
-3.3070 -14.7058 -1.7618 0.9411
-2.7569 -14.7082 -1.7491 0.9415
-2.2140 -14.7101 -1.7387 0.9419
-0.7967 -6.9903 -0.8223 0.9721
-0.4903 -6.3076 -0.8374 0.9748
0.6334 -6.1916 -0.8238 0.9752
0.8586 -6.1891 -0.8270 0.9751
1.0872 -6.1941 -0.8324 0.9749
1.3196 -6.2018 -0.8392 0.9747
2.5877 -6.3101 -0.9027 0.9729
6.0713 -12.2241 -1.8065 0.9464
6.5070 -11.9998 -1.8067 0.9464
7.3529 -11.5048 -1.8072 0.9464
7.7621 -11.2347 -1.8074 0.9464
8.1613 -10.9500 -1.8076 0.9464
8.9277 -10.3384 -1.8080 0.9464
9.9902 -9.3214 -1.8085 0.9464
10.3193 -8.9575 -1.8086 0.9464
10.6350 -8.5821 -1.8088 0.9464
11.2250 -7.7980 -1.8090 0.9463
11.4984 -7.3906 -1.8092 0.9463
12.0004 -6.5473 -1.8094 0.9463
12.8161 -4.7632 -1.8097 0.9463
13.2548 -3.3580 -1.8098 0.9463
13.3670 -2.8801 -1.8098 0.9463
13.4618 -2.3984 -1.8098 0.9463
13.6661 -0.4470 -1.8098 0.9463
13.6623 0.5346 -1.8097 0.9463
13.5878 1.5133 -1.8096 0.9463
13.2287 3.4418 -1.8092 0.9463
13.0957 3.9142 -1.8091 0.9463
12.5963 5.2981 -1.8087 0.9464
12.1585 6.1754 -1.8049 0.9465
10.9399 6.0600 -1.6553 0.9508
10.2219 7.1988 -1.6548 0.9508
9.3856 8.2532 -1.6542 0.9508
9.0822 8.5837 -1.6540 0.9508
8.7672 8.9031 -1.6538 0.9508
8.4409 9.2109 -1.6536 0.9508
8.1037 9.5067 -1.6534 0.9508
6.6560 10.5629 -1.6525 0.9509
6.2717 10.7935 -1.6523 0.9509
5.8794 11.0100 -1.6520 0.9509
5.4795 11.2123 -1.6518 0.9509
5.0728 11.4001 -1.6515 0.9509
2.3958 11.6250 -1.5710 0.9532
1.5376 11.6308 -1.5528 0.9538
1.1148 11.6336 -1.5468 0.9539
0.1088 4.5841 -0.6069 0.9817
-0.9806 11.6475 -1.5471 0.9539
-1.4035 11.6504 -1.5532 0.9538
-1.8304 11.6532 -1.5613 0.9535
-2.2623 11.6561 -1.5716 0.9532
-2.7004 11.6590 -1.5840 0.9529
-4.0661 11.6681 -1.6354 0.9514
-4.5115 11.5898 -1.6461 0.9511
-5.3301 11.2333 -1.6457 0.9511
-6.5044 10.5913 -1.6451 0.9511
-6.8796 10.3498 -1.6449 0.9511
-7.2459 10.0951 -1.6447 0.9511
-7.6028 9.8274 -1.6445 0.9511
-8.2865 9.2547 -1.6442 0.9511
-10.5622 6.5239 -1.6432 0.9511
-12.0182 6.2797 -1.7948 0.9468
-12.2353 5.8440 -1.7947 0.9468
-12.6221 4.9507 -1.7945 0.9468
-13.0801 3.5648 -1.7944 0.9468
-13.1995 3.0929 -1.7944 0.9468
-13.5062 1.1719 -1.7944 0.9468
-13.5397 0.6864 -1.7944 0.9468
-13.5559 0.1999 -1.7944 0.9468
-13.5546 -0.2868 -1.7945 0.9468
-13.5360 -0.7732 -1.7945 0.9468
-13.5000 -1.2587 -1.7946 0.9468
-13.4466 -1.7425 -1.7946 0.9468
-13.3760 -2.2242 -1.7947 0.9468
-13.2882 -2.7030 -1.7948 0.9468
-13.1834 -3.1785 -1.7949 0.9468
-12.9230 -4.1166 -1.7951 0.9467
-12.7678 -4.5782 -1.7953 0.9467
-12.2046 -5.9257 -1.7957 0.9467
-11.9851 -6.3605 -1.7959 0.9467
-11.5000 -7.2054 -1.7962 0.9467
-10.9557 -8.0136 -1.7966 0.9467
-10.6622 -8.4026 -1.7968 0.9467
-9.7005 -9.5035 -1.7974 0.9467
-9.3543 -9.8468 -1.7976 0.9467
-8.9960 -10.1776 -1.7979 0.9467
-8.6259 -10.4953 -1.7981 0.9467
-7.8528 -11.0901 -1.7986 0.9466
-7.4507 -11.3664 -1.7988 0.9466
-7.0389 -11.6282 -1.7991 0.9466
-5.7505 -12.3229 -1.7999 0.9466
-4.3945 -12.8755 -1.8007 0.9466
-3.4604 -13.1616 -1.8012 0.9466
-0.9865 -6.5543 -0.8773 0.9736
-0.4812 -6.1901 -0.9182 0.9752
0.1852 -6.1445 -0.9091 0.9754
0.6276 -6.1350 -0.9121 0.9754
1.0772 -6.1372 -0.9215 0.9751
1.3067 -6.1412 -0.9286 0.9749
2.2829 -6.1913 -0.9759 0.9737
2.5672 -6.2602 -1.0007 0.9730
4.3296 -9.5646 -1.5527 0.9584
6.2042 -10.5215 -1.8064 0.9518
6.5785 -10.2931 -1.8066 0.9518
6.9445 -10.0513 -1.8068 0.9518
8.3147 -8.9573 -1.8075 0.9518
8.6316 -8.6538 -1.8076 0.9518
8.9374 -8.3391 -1.8078 0.9518
9.2317 -8.0135 -1.8079 0.9518
9.5141 -7.6775 -1.8081 0.9518
9.7842 -7.3315 -1.8082 0.9518
10.0417 -6.9760 -1.8083 0.9518
10.2862 -6.6114 -1.8084 0.9518
10.5175 -6.2383 -1.8085 0.9518
10.7352 -5.8570 -1.8086 0.9518
10.9390 -5.4681 -1.8087 0.9518
11.1287 -5.0721 -1.8087 0.9518
11.3040 -4.6696 -1.8088 0.9517
11.4647 -4.2609 -1.8089 0.9517
11.6105 -3.8467 -1.8089 0.9517
11.7414 -3.4275 -1.8090 0.9517
11.8570 -3.0039 -1.8090 0.9517
12.0422 -2.1455 -1.8090 0.9517
12.1114 -1.7119 -1.8090 0.9517
12.2312 0.0392 -1.8089 0.9517
11.8341 3.0789 -1.8084 0.9518
11.7152 3.5015 -1.8083 0.9518
11.5813 3.9196 -1.8082 0.9518
9.9763 5.0670 -1.6548 0.9558
9.3713 6.1086 -1.6544 0.9558
9.1451 6.4404 -1.6542 0.9558
8.9072 6.7639 -1.6541 0.9558
8.6578 7.0785 -1.6539 0.9558
7.5522 8.2412 -1.6532 0.9558
6.9399 8.7597 -1.6528 0.9558
5.9557 9.4515 -1.6522 0.9558
5.2609 9.8520 -1.6518 0.9558
4.9032 10.0331 -1.6516 0.9558
4.5393 10.2013 -1.6513 0.9559
4.1696 10.3563 -1.6511 0.9559
3.0309 10.7401 -1.6504 0.9559
2.6431 10.8405 -1.6502 0.9559
1.4617 11.0573 -1.6495 0.9559
1.0637 11.1011 -1.6493 0.9559
0.6645 11.1306 -1.6491 0.9559
0.1087 4.5832 -0.6780 0.9816
-0.1358 11.1465 -1.6486 0.9559
-2.1224 10.9358 -1.6475 0.9560
-2.5133 10.8512 -1.6473 0.9560
-2.9009 10.7526 -1.6471 0.9560
-3.6639 10.5142 -1.6467 0.9560
-4.4078 10.2218 -1.6463 0.9560
-5.1286 9.8769 -1.6459 0.9560
-5.4793 9.6854 -1.6457 0.9560
-5.8228 9.4815 -1.6456 0.9560
-6.1588 9.2654 -1.6454 0.9560
-6.4867 9.0374 -1.6452 0.9560
-6.8063 8.7979 -1.6451 0.9560
-7.9926 7.7305 -1.6445 0.9560
-9.0142 6.5051 -1.6440 0.9560
-9.2413 6.1770 -1.6439 0.9560
-9.4565 5.8410 -1.6438 0.9561
-9.6596 5.4974 -1.6437 0.9561
-10.7493 5.6167 -1.7937 0.9521
-11.3011 4.4326 -1.7953 0.9521
-11.4526 4.0239 -1.7953 0.9521
-11.5894 3.6101 -1.7952 0.9521
-11.8181 2.7692 -1.7952 0.9521
-11.9862 1.9142 -1.7951 0.9521
-12.0928 1.0493 -1.7952 0.9521
-12.1361 -0.2568 -1.7952 0.9521
-12.1194 -0.6923 -1.7953 0.9521
-11.8973 -2.4201 -1.7956 0.9521
-11.1091 -4.9091 -1.7962 0.9521
-10.7299 -5.6944 -1.7965 0.9521
-10.2955 -6.4507 -1.7968 0.9521
-9.8079 -7.1740 -1.7972 0.9521
-9.5451 -7.5222 -1.7973 0.9520
-9.2698 -7.8608 -1.7975 0.9520
-8.9826 -8.1894 -1.7977 0.9520
-8.0529 -9.1106 -1.7983 0.9520
-7.7216 -9.3949 -1.7985 0.9520
-7.3802 -9.6672 -1.7987 0.9520
-6.6693 -10.1743 -1.7992 0.9520
-6.3005 -10.4084 -1.7994 0.9520
-5.9236 -10.6293 -1.7996 0.9520
-5.5390 -10.8365 -1.7999 0.9520
-4.3437 -11.3737 -1.8006 0.9520
-3.9331 -11.5238 -1.8008 0.9520
-3.5174 -11.6591 -1.8011 0.9520
-3.0971 -11.7795 -1.8013 0.9519
-0.2564 -6.1478 -1.0060 0.9754
0.4046 -6.1182 -1.0025 0.9755
0.6255 -6.1147 -1.0050 0.9754
0.8481 -6.1137 -1.0092 0.9753
1.0739 -6.1187 -1.0157 0.9751
1.5340 -6.1212 -1.0318 0.9747
2.0090 -6.1165 -1.0526 0.9742
2.2660 -6.1453 -1.0709 0.9738
2.5502 -6.2186 -1.0989 0.9731
5.6107 -9.5150 -1.8060 0.9562
6.6029 -8.8591 -1.8065 0.9562
6.9172 -8.6171 -1.8067 0.9562
7.8054 -7.8254 -1.8071 0.9562
8.0818 -7.5408 -1.8072 0.9562
8.3479 -7.2463 -1.8074 0.9562
9.0802 -6.3080 -1.8077 0.9562
9.5103 -5.6409 -1.8079 0.9562
9.8914 -4.9445 -1.8080 0.9562
10.2213 -4.2223 -1.8082 0.9562
10.3666 -3.8528 -1.8082 0.9562
10.6167 -3.0992 -1.8083 0.9562
10.9514 -1.5479 -1.8083 0.9562
11.0341 -0.7582 -1.8083 0.9562
11.0540 -0.3616 -1.8083 0.9562
11.0597 0.0354 -1.8083 0.9562
11.0281 0.8288 -1.8082 0.9562
10.9395 1.6178 -1.8081 0.9562
10.7944 2.3983 -1.8079 0.9562
10.7008 2.7841 -1.8078 0.9562
10.3378 3.9177 -1.8075 0.9562
10.1898 4.2860 -1.8074 0.9562
9.2213 4.6836 -1.6910 0.9589
8.8504 4.9025 -1.6542 0.9598
8.4745 5.5240 -1.6539 0.9598
8.2700 5.8241 -1.6538 0.9598
8.0549 6.1167 -1.6537 0.9598
7.8294 6.4013 -1.6535 0.9598
7.3486 6.9452 -1.6532 0.9598
7.0938 7.2038 -1.6530 0.9599
6.5573 7.6926 -1.6527 0.9599
5.6905 8.3502 -1.6521 0.9599
5.3864 8.5481 -1.6519 0.9599
4.7582 8.9104 -1.6516 0.9599
3.7713 9.3670 -1.6510 0.9599
3.0888 9.6110 -1.6506 0.9599
2.7415 9.7145 -1.6504 0.9599
2.3907 9.8054 -1.6502 0.9599
0.1087 4.5822 -0.7494 0.9816
-0.4846 10.0710 -1.6485 0.9600
-1.2057 10.0079 -1.6481 0.9600
-1.5639 9.9569 -1.6479 0.9600
-2.2737 9.8168 -1.6475 0.9600
-2.6244 9.7277 -1.6473 0.9600
-3.3148 9.5122 -1.6470 0.9600
-3.6537 9.3861 -1.6468 0.9600
-4.3168 9.0978 -1.6464 0.9600
-4.6401 8.9361 -1.6463 0.9600
-4.9574 8.7629 -1.6461 0.9600
-5.5723 8.3830 -1.6458 0.9600
-7.2319 6.9946 -1.6450 0.9600
-7.9403 6.1754 -1.6447 0.9600
-8.1564 5.8861 -1.6446 0.9601
-8.7406 4.9744 -1.6443 0.9601
-9.7157 5.0766 -1.7923 0.9565
-9.9125 4.7345 -1.7961 0.9565
-10.3631 3.6411 -1.7959 0.9565
-10.4869 3.2667 -1.7959 0.9565
-10.6939 2.5058 -1.7958 0.9565
-10.7769 2.1203 -1.7958 0.9565
-10.8461 1.7321 -1.7958 0.9565
-10.9696 0.5561 -1.7958 0.9565
-10.9827 0.1620 -1.7959 0.9565
-10.9816 -0.2324 -1.7959 0.9565
-10.9372 -1.0197 -1.7960 0.9565
-10.8939 -1.4117 -1.7960 0.9565
-10.8366 -1.8019 -1.7961 0.9565
-10.6803 -2.5750 -1.7963 0.9564
-9.7085 -5.1524 -1.7970 0.9564
-9.5181 -5.4980 -1.7972 0.9564
-8.8741 -6.4909 -1.7976 0.9564
-8.1271 -7.4094 -1.7981 0.9564
-7.8567 -7.6971 -1.7983 0.9564
-7.5761 -7.9750 -1.7985 0.9564
-7.2857 -8.2426 -1.7987 0.9564
-6.0336 -9.2045 -1.7994 0.9564
-5.3589 -9.6159 -1.7999 0.9564
-5.0108 -9.8032 -1.8001 0.9564
-4.2956 -10.1399 -1.8005 0.9563
-3.9294 -10.2888 -1.8007 0.9563
-3.1818 -10.5468 -1.8012 0.9563
-1.4296 -6.3576 -1.0654 0.9739
-0.2557 -6.1321 -1.0997 0.9754
0.6240 -6.1000 -1.0987 0.9754
1.0712 -6.1031 -1.1103 0.9751
1.2996 -6.1078 -1.1189 0.9749
1.5317 -6.1119 -1.1290 0.9747
2.2587 -6.1254 -1.1698 0.9738
2.5431 -6.2013 -1.2010 0.9731
4.4818 -9.0237 -1.8053 0.9599
4.8032 -8.8578 -1.8055 0.9599
5.4273 -8.4918 -1.8058 0.9599
5.7291 -8.2922 -1.8060 0.9599
6.3103 -7.8611 -1.8063 0.9599
6.5889 -7.6301 -1.8064 0.9599
6.8591 -7.3892 -1.8065 0.9599
7.3725 -6.8790 -1.8068 0.9599
7.6152 -6.6103 -1.8069 0.9598
7.8480 -6.3331 -1.8070 0.9598
8.0708 -6.0476 -1.8071 0.9598
8.4847 -5.4535 -1.8073 0.9598
9.1793 -4.1837 -1.8076 0.9598
9.3238 -3.8516 -1.8076 0.9598
9.7799 -2.4777 -1.8078 0.9598
9.8626 -2.1250 -1.8078 0.9598
9.9325 -1.7696 -1.8078 0.9598
10.0339 -1.0525 -1.8078 0.9598
10.0651 -0.6916 -1.8078 0.9598
10.0833 -0.3298 -1.8078 0.9598
10.0885 0.0323 -1.8077 0.9598
9.9790 1.4757 -1.8075 0.9598
9.9193 1.8329 -1.8075 0.9598
9.8467 2.1877 -1.8074 0.9598
9.5531 3.2332 -1.8071 0.9598
9.2955 3.9098 -1.8069 0.9598
9.1424 4.2378 -1.8056 0.9599
8.0737 4.4723 -1.6538 0.9632
7.5444 5.3131 -1.6534 0.9632
6.7041 6.3361 -1.6529 0.9632
6.4717 6.5720 -1.6527 0.9632
6.2310 6.7995 -1.6526 0.9632
5.7260 7.2276 -1.6523 0.9632
5.4624 7.4277 -1.6521 0.9632
5.1917 7.6183 -1.6519 0.9632
4.9144 7.7989 -1.6517 0.9632
4.0462 8.2794 -1.6512 0.9632
3.4410 8.5464 -1.6509 0.9633
3.1316 8.6635 -1.6507 0.9633
1.8586 9.0184 -1.6499 0.9633
1.5335 9.0783 -1.6497 0.9633
1.2065 9.1264 -1.6495 0.9633
0.8780 9.1628 -1.6494 0.9633
0.1087 4.5813 -0.8211 0.9816
-1.4272 9.0862 -1.6481 0.9633
-2.3949 8.8773 -1.6475 0.9633
-2.7118 8.7847 -1.6474 0.9633
-3.3344 8.5658 -1.6470 0.9633
-3.9396 8.3029 -1.6467 0.9633
-4.5243 7.9973 -1.6464 0.9633
-4.8080 7.8291 -1.6463 0.9634
-5.0855 7.6508 -1.6461 0.9634
-5.6204 7.2650 -1.6459 0.9634
-6.1263 6.8420 -1.6456 0.9634
-6.3675 6.6173 -1.6455 0.9634
-6.6004 6.3840 -1.6454 0.9634
-7.4444 5.3723 -1.6450 0.9634
-7.8099 4.8239 -1.6448 0.9634
-8.1558 4.6416 -1.6815 0.9626
-9.0475 4.3213 -1.7966 0.9601
-9.1965 3.9937 -1.7965 0.9601
-9.3336 3.6609 -1.7965 0.9601
-9.5718 2.9817 -1.7964 0.9601
-9.6725 2.6361 -1.7964 0.9601
-9.7608 2.2872 -1.7964 0.9601
-9.8366 1.9353 -1.7964 0.9601
-2.0422 0.1035 -0.3664 0.9917
-2.0197 0.0298 -0.3619 0.9918
-2.0246 -0.0428 -0.3629 0.9918
-2.0450 -0.1168 -0.3670 0.9917
-2.0516 -0.1913 -0.3692 0.9917
-9.7482 -2.3503 -1.7968 0.9601
-9.6579 -2.6988 -1.7969 0.9601
-9.3133 -3.7220 -1.7971 0.9601
-9.1742 -4.0541 -1.7972 0.9601
-8.6870 -5.0179 -1.7976 0.9601
-8.5019 -5.3269 -1.7977 0.9600
-8.3058 -5.6291 -1.7979 0.9600
-8.0990 -5.9240 -1.7980 0.9600
-7.1702 -7.0246 -1.7986 0.9600
-6.9141 -7.2781 -1.7988 0.9600
-5.8035 -8.1960 -1.7995 0.9600
-5.5061 -8.3999 -1.7997 0.9600
-5.2016 -8.5930 -1.7999 0.9600
-4.5727 -8.9460 -1.8002 0.9600
-4.2491 -9.1054 -1.8004 0.9600
-3.9199 -9.2530 -1.8006 0.9600
-3.5856 -9.3888 -1.8008 0.9600
-3.2467 -9.5125 -1.8010 0.9600
-2.9034 -9.6240 -1.8012 0.9600
-0.4757 -6.1191 -1.1966 0.9753
-0.0353 -6.1110 -1.1914 0.9754
0.1841 -6.1066 -1.1911 0.9754
0.6239 -6.0992 -1.1953 0.9753
1.0705 -6.0990 -1.2072 0.9751
1.5304 -6.1069 -1.2274 0.9747
1.7666 -6.1099 -1.2400 0.9744
2.2829 -6.1911 -1.2864 0.9735
2.5413 -6.1970 -1.3058 0.9731
3.8179 -8.4342 -1.8049 0.9630
4.4140 -8.1400 -1.8052 0.9630
4.7037 -7.9770 -1.8054 0.9630
4.9874 -7.8036 -1.8055 0.9630
5.2648 -7.6201 -1.8057 0.9630
5.5353 -7.4268 -1.8058 0.9630
5.7987 -7.2238 -1.8059 0.9630
6.0547 -7.0115 -1.8061 0.9630
6.5430 -6.5598 -1.8063 0.9629
6.9976 -6.0742 -1.8065 0.9629
7.4162 -5.5571 -1.8067 0.9629
7.6113 -5.2876 -1.8068 0.9629
7.7965 -5.0112 -1.8069 0.9629
7.9717 -4.7283 -1.8069 0.9629
8.1366 -4.4393 -1.8070 0.9629
8.2910 -4.1445 -1.8071 0.9629
8.5675 -3.5391 -1.8072 0.9629
8.6892 -3.2294 -1.8072 0.9629
8.8988 -2.5978 -1.8073 0.9629
9.1267 -1.6261 -1.8073 0.9629
9.1792 -1.2974 -1.8073 0.9629
9.2486 -0.6355 -1.8073 0.9629
9.1147 1.6842 -1.8070 0.9629
8.9697 2.3337 -1.8069 0.9629
8.8797 2.6540 -1.8068 0.9629
8.6656 3.2840 -1.8066 0.9629
7.7838 4.3117 -1.7347 0.9644
7.2663 4.3731 -1.6534 0.9660
7.1042 4.6308 -1.6533 0.9660
6.9329 4.8824 -1.6531 0.9660
6.7526 5.1278 -1.6530 0.9660
5.9473 6.0395 -1.6525 0.9660
5.7262 6.2486 -1.6523 0.9660
5.4977 6.4495 -1.6522 0.9661
5.2622 6.6421 -1.6520 0.9661
5.0199 6.8261 -1.6519 0.9661
4.7712 7.0012 -1.6517 0.9661
4.5163 7.1673 -1.6516 0.9661
4.2557 7.3241 -1.6514 0.9661
3.9897 7.4714 -1.6513 0.9661
3.7186 7.6090 -1.6511 0.9661
2.5902 8.0596 -1.6504 0.9661
2.2990 8.1466 -1.6502 0.9661
1.1089 8.3882 -1.6496 0.9661
0.8070 8.4217 -1.6494 0.9661
0.5041 8.4444 -1.6492 0.9661
-0.1030 8.4571 -1.6489 0.9661
-1.0113 8.3944 -1.6484 0.9661
-1.9073 8.2346 -1.6479 0.9661
-2.2014 8.1600 -1.6477 0.9661
-2.4927 8.0750 -1.6476 0.9661
-2.7807 7.9795 -1.6474 0.9661
-3.3454 7.7581 -1.6471 0.9662
-3.6214 7.6323 -1.6470 0.9662
-3.8927 7.4968 -1.6468 0.9662
-4.9240 6.8603 -1.6463 0.9662
-5.4028 6.4884 -1.6461 0.9662
-5.6318 6.2898 -1.6459 0.9662
-5.8536 6.0832 -1.6458 0.9662
-6.0678 5.8688 -1.6457 0.9662
-6.2742 5.6469 -1.6456 0.9662
-6.4725 5.4177 -1.6455 0.9662
-6.6624 5.1816 -1.6455 0.9662
-6.8438 4.9389 -1.6454 0.9662
-7.9794 4.5412 -1.7899 0.9633
-8.4546 3.6715 -1.7970 0.9631
-8.5808 3.3656 -1.7969 0.9631
-1.7744 0.5527 -0.3623 0.9925
-1.7561 0.4786 -0.3548 0.9926
-1.7358 0.4067 -0.3476 0.9928
-1.7138 0.3372 -0.3405 0.9929
-1.6983 0.2712 -0.3353 0.9930
-1.7039 0.2097 -0.3347 0.9930
-1.7072 0.0252 -0.3329 0.9931
-1.7076 -0.0361 -0.3330 0.9931
-1.7084 -0.0976 -0.3336 0.9931
-1.6971 -0.2822 -0.3354 0.9930
-1.7178 -0.3494 -0.3418 0.9929
-1.7395 -0.4194 -0.3489 0.9927
-1.7775 -0.5662 -0.3637 0.9924
-8.5618 -3.4216 -1.7975 0.9631
-8.4339 -3.7270 -1.7976 0.9631
-8.2952 -4.0276 -1.7977 0.9631
-6.8182 -6.2161 -1.7988 0.9631
-6.1120 -6.9148 -1.7992 0.9631
-5.8604 -7.1304 -1.7994 0.9631
-5.6012 -7.3368 -1.7995 0.9631
-5.0613 -7.7212 -1.7999 0.9631
-4.7813 -7.8987 -1.8000 0.9631
-3.9056 -8.3694 -1.8006 0.9631
-3.6030 -8.5050 -1.8008 0.9631
-2.6687 -8.8458 -1.8013 0.9630
-1.4007 -6.2287 -1.2447 0.9743
-1.1955 -6.3782 -1.2651 0.9739
-0.6964 -6.1104 -1.1990 0.9752
-0.2549 -6.1135 -1.2900 0.9753
0.1842 -6.1117 -1.2890 0.9753
1.0712 -6.1029 -1.3063 0.9750
1.7666 -6.1099 -1.3409 0.9743
2.2529 -6.1098 -1.3729 0.9737
2.5400 -6.1939 -1.4113 0.9730
3.8082 -7.6675 -1.8049 0.9656
4.0813 -7.5264 -1.8050 0.9656
4.6114 -7.2153 -1.8053 0.9656
4.8678 -7.0456 -1.8054 0.9656
5.3615 -6.6791 -1.8056 0.9656
5.5982 -6.4828 -1.8058 0.9656
5.8276 -6.2780 -1.8059 0.9656
6.0496 -6.0652 -1.8060 0.9656
6.2638 -5.8445 -1.8061 0.9656
6.4699 -5.6161 -1.8062 0.9656
7.5228 -4.1044 -1.8066 0.9656
7.6655 -3.8318 -1.8067 0.9656
7.9211 -3.2721 -1.8068 0.9656
8.1357 -2.6955 -1.8069 0.9656
8.2274 -2.4017 -1.8069 0.9656
8.3084 -2.1049 -1.8069 0.9656
8.3786 -1.8053 -1.8069 0.9656
8.4381 -1.5034 -1.8069 0.9656
8.4866 -1.1995 -1.8069 0.9656
8.5242 -0.8941 -1.8069 0.9656
8.5507 -0.5875 -1.8069 0.9656
8.5640 0.3351 -1.8068 0.9656
8.5463 0.6423 -1.8068 0.9656
8.5175 0.9486 -1.8068 0.9656
8.4270 1.5572 -1.8067 0.9656
8.3654 1.8586 -1.8066 0.9656
8.2099 2.4538 -1.8065 0.9656
8.0119 3.0363 -1.8063 0.9656
7.7727 3.6029 -1.8061 0.9656
7.6342 3.8775 -1.8051 0.9656
7.4699 4.1378 -1.8003 0.9657
6.4101 4.5143 -1.6529 0.9685
6.2435 4.7412 -1.6528 0.9685
5.8864 5.1762 -1.6525 0.9685
5.4990 5.5843 -1.6523 0.9685
5.2946 5.7776 -1.6521 0.9685
4.8656 6.1416 -1.6519 0.9685
4.4117 6.4737 -1.6516 0.9685
3.4385 7.0360 -1.6510 0.9685
3.1834 7.1542 -1.6508 0.9685
2.6614 7.3628 -1.6505 0.9685
2.1259 7.5333 -1.6502 0.9685
1.5797 7.6650 -1.6499 0.9685
0.1087 4.5794 -0.9657 0.9814
-0.0953 7.8209 -1.6489 0.9685
-0.3759 7.8117 -1.6488 0.9685
-0.6560 7.7925 -1.6486 0.9685
-0.9352 7.7632 -1.6485 0.9685
-1.4895 7.6746 -1.6482 0.9685
-1.7639 7.6155 -1.6480 0.9685
-2.0360 7.5466 -1.6479 0.9686
-2.3053 7.4680 -1.6477 0.9686
-2.8347 7.2821 -1.6474 0.9686
-3.0940 7.1751 -1.6473 0.9686
-3.6003 6.9335 -1.6470 0.9686
-3.8465 6.7993 -1.6469 0.9686
-4.0878 6.6563 -1.6468 0.9686
-4.3238 6.5048 -1.6467 0.9686
-4.7787 6.1770 -1.6464 0.9686
-4.9970 6.0011 -1.6463 0.9686
-5.4140 5.6264 -1.6461 0.9686
-5.8031 5.2229 -1.6459 0.9686
-6.1623 4.7926 -1.6458 0.9686
-7.3926 4.2073 -1.7932 0.9658
-7.8201 3.3959 -1.7974 0.9657
-1.6130 0.5025 -0.3562 0.9931
-1.5836 0.3711 -0.3429 0.9934
-1.5642 0.2498 -0.3340 0.9935
-1.5728 0.1365 -0.3328 0.9936
-1.5739 -0.0899 -0.3324 0.9936
-1.5723 -0.1466 -0.3329 0.9936
-1.5688 -0.2033 -0.3335 0.9936
-1.5695 -0.3193 -0.3377 0.9935
-1.5865 -0.3825 -0.3441 0.9934
-1.6275 -0.5836 -0.3645 0.9930
-7.8007 -3.4472 -1.7980 0.9657
-7.6724 -3.7252 -1.7981 0.9657
-7.3862 -4.2665 -1.7983 0.9657
-7.2287 -4.5292 -1.7984 0.9657
-6.7013 -5.2811 -1.7987 0.9657
-6.5078 -5.5186 -1.7989 0.9657
-5.8782 -6.1877 -1.7993 0.9657
-5.6528 -6.3952 -1.7994 0.9657
-4.9337 -6.9676 -1.7999 0.9657
-4.6808 -7.1408 -1.8000 0.9657
-4.1572 -7.4596 -1.8004 0.9657
-3.3321 -7.8655 -1.8009 0.9657
-3.0479 -7.9808 -1.8010 0.9657
-2.7597 -8.0858 -1.8012 0.9657
-2.4679 -8.1804 -1.8014 0.9657
-1.1454 -6.1104 -1.3106 0.9749
-0.9197 -6.1104 -1.3027 0.9751
-0.6964 -6.1104 -1.2965 0.9752
-0.4752 -6.1131 -1.3905 0.9752
-0.2550 -6.1140 -1.3878 0.9752
0.1844 -6.1179 -1.3881 0.9752
0.4044 -6.1147 -1.3898 0.9752
0.8473 -6.1077 -1.3984 0.9750
1.2993 -6.1063 -1.4158 0.9747
1.5286 -6.0994 -1.4260 0.9745
1.7666 -6.1099 -1.4424 0.9743
2.0069 -6.1099 -1.4585 0.9740
2.2529 -6.1098 -1.4768 0.9736
3.5397 -7.1269 -1.8047 0.9679
3.7935 -6.9957 -1.8048 0.9679
4.0425 -6.8555 -1.8049 0.9679
4.5245 -6.5487 -1.8052 0.9679
4.7570 -6.3825 -1.8053 0.9679
4.9833 -6.2080 -1.8054 0.9679
5.8218 -5.4321 -1.8058 0.9679
6.1972 -5.0009 -1.8060 0.9679
6.5406 -4.5438 -1.8061 0.9679
6.6997 -4.3062 -1.8062 0.9679
6.8502 -4.0631 -1.8063 0.9679
6.9919 -3.8147 -1.8063 0.9679
7.1245 -3.5613 -1.8064 0.9679
7.4666 -2.7750 -1.8065 0.9679
7.5615 -2.5053 -1.8065 0.9679
7.7220 -1.9563 -1.8066 0.9679
7.8425 -1.3973 -1.8066 0.9679
7.8876 -1.1148 -1.8066 0.9679
7.9616 -0.2604 -1.8066 0.9679
7.9431 0.5970 -1.8065 0.9679
7.8794 1.1652 -1.8064 0.9679
7.4466 2.8220 -1.8060 0.9679
7.2243 3.3487 -1.8058 0.9679
7.0991 3.6057 -1.8057 0.9679
6.9590 3.8548 -1.8042 0.9679
6.8000 4.0925 -1.7999 0.9680
5.4713 4.8112 -1.6523 0.9706
5.2947 5.0041 -1.6522 0.9706
5.1113 5.1906 -1.6521 0.9706
4.7250 5.5431 -1.6518 0.9706
4.1008 6.0175 -1.6514 0.9706
2.2265 6.9279 -1.6503 0.9706
1.2116 7.1727 -1.6497 0.9706
0.6937 7.2398 -1.6494 0.9706
0.2672 4.4757 -1.0168 0.9818
-0.8695 7.2170 -1.6485 0.9706
-1.6398 7.0799 -1.6481 0.9706
-2.1432 6.9428 -1.6479 0.9706
-2.3908 6.8609 -1.6477 0.9706
-3.3472 6.4461 -1.6472 0.9706
-3.8005 6.1885 -1.6470 0.9707
-4.0199 6.0476 -1.6469 0.9707
-4.2341 5.8990 -1.6468 0.9707
-4.8429 5.4087 -1.6465 0.9707
-5.3954 4.8559 -1.6462 0.9707
-5.7293 4.4559 -1.6460 0.9707
-6.7245 4.1535 -1.7925 0.9681
-7.0259 3.6712 -1.7978 0.9680
-7.1530 3.4165 -1.7977 0.9680
-1.4942 0.5860 -0.3640 0.9934
-1.4675 0.3999 -0.3449 0.9938
-1.4420 0.2837 -0.3333 0.9940
-1.4491 0.2314 -0.3328 0.9940
-1.4573 0.1264 -0.3317 0.9940
-1.4579 0.0215 -0.3307 0.9940
-1.4480 -0.2408 -0.3329 0.9940
-1.4575 -0.3514 -0.3400 0.9939
-1.4800 -0.4715 -0.3523 0.9936
-1.4886 -0.5338 -0.3586 0.9935
-1.4952 -0.5975 -0.3652 0.9934
-7.2527 -3.2050 -1.7982 0.9680
-7.1333 -3.4634 -1.7983 0.9680
-7.0047 -3.7175 -1.7984 0.9680
-6.5656 -4.4497 -1.7987 0.9680
-6.4021 -4.6828 -1.7989 0.9680
-5.6675 -5.5524 -1.7993 0.9680
-5.4649 -5.7527 -1.7995 0.9680
-5.2553 -5.9456 -1.7996 0.9680
-4.5868 -6.4776 -1.8000 0.9680
-3.8648 -6.9349 -1.8005 0.9680
-2.8334 -7.4192 -1.8011 0.9680
-2.0200 -7.6828 -1.8016 0.9679
-1.3987 -6.2197 -1.4458 0.9742
-0.6964 -6.1104 -1.3947 0.9751
-0.4754 -6.1151 -1.4896 0.9751
-0.2550 -6.1146 -1.4863 0.9751
0.6260 -6.1197 -1.4940 0.9750
0.8484 -6.1158 -1.4995 0.9749
1.0725 -6.1108 -1.5068 0.9748
2.0069 -6.1099 -1.5619 0.9739
3.0638 -6.7683 -1.8044 0.9699
3.5420 -6.5320 -1.8046 0.9699
3.7745 -6.4010 -1.8047 0.9699
4.4416 -5.9593 -1.8051 0.9699
4.8582 -5.6259 -1.8053 0.9699
5.0573 -5.4482 -1.8054 0.9699
5.2499 -5.2634 -1.8055 0.9699
5.4357 -5.0718 -1.8055 0.9699
5.7861 -4.6692 -1.8057 0.9699
5.9502 -4.4586 -1.8058 0.9699
6.2552 -4.0205 -1.8059 0.9699
6.3957 -3.7935 -1.8060 0.9699
6.6518 -3.3251 -1.8061 0.9699
6.8735 -2.8394 -1.8062 0.9699
6.9712 -2.5909 -1.8062 0.9699
7.2096 -1.8265 -1.8063 0.9698
7.3221 -1.3046 -1.8063 0.9698
7.3642 -1.0409 -1.8063 0.9698
7.4199 -0.5098 -1.8063 0.9698
7.4333 -0.2431 -1.8063 0.9698
7.3911 0.8232 -1.8061 0.9699
7.3567 1.0879 -1.8061 0.9699
7.2592 1.6129 -1.8060 0.9699
7.0430 2.3836 -1.8058 0.9699
6.9527 2.6348 -1.8057 0.9699
6.8533 2.8826 -1.8057 0.9699
6.3642 3.8302 -1.8040 0.9699
6.2095 4.0476 -1.8002 0.9699
5.9709 4.2050 -1.7736 0.9704
5.5566 4.2195 -1.6945 0.9717
5.2669 4.3062 -1.6522 0.9724
5.1086 4.4922 -1.6521 0.9724
4.4119 5.1757 -1.6517 0.9724
4.2229 5.3303 -1.6516 0.9724
4.0286 5.4781 -1.6514 0.9724
3.6246 5.7521 -1.6512 0.9724
3.2021 5.9964 -1.6509 0.9724
2.9845 6.1070 -1.6508 0.9724
2.7632 6.2097 -1.6507 0.9724
2.3101 6.3909 -1.6504 0.9724
2.0791 6.4691 -1.6503 0.9724
0.8902 6.7336 -1.6496 0.9724
0.1062 4.4738 -1.0868 0.9817
-0.0827 6.7894 -1.6490 0.9724
-0.3263 6.7815 -1.6489 0.9724
-0.8119 6.7395 -1.6486 0.9724
-1.0532 6.7055 -1.6485 0.9724
-1.5314 6.6116 -1.6482 0.9725
-2.2327 6.4072 -1.6478 0.9725
-2.6863 6.2296 -1.6476 0.9725
-3.1259 6.0199 -1.6474 0.9725
-3.3397 5.9035 -1.6473 0.9725
-3.5493 5.7794 -1.6472 0.9725
-3.7542 5.6479 -1.6471 0.9725
-3.9543 5.5092 -1.6470 0.9725
-4.3388 5.2107 -1.6468 0.9725
-4.7010 4.8854 -1.6466 0.9725
-4.8731 4.7133 -1.6465 0.9725
-5.0389 4.5351 -1.6464 0.9725
-5.1982 4.3511 -1.6464 0.9725
-5.8405 4.2148 -1.7492 0.9708
-6.1366 4.1018 -1.7926 0.9701
-6.4347 3.6621 -1.7981 0.9700
-6.6805 3.1908 -1.7980 0.9700
-1.3767 0.5979 -0.3645 0.9938
-1.3554 0.3694 -0.3412 0.9942
-1.3424 0.2641 -0.3323 0.9944
-1.3570 0.1178 -0.3308 0.9944
-1.3583 0.0688 -0.3303 0.9944
-1.3579 -0.0287 -0.3299 0.9944
-1.3480 -0.2242 -0.3319 0.9944
-1.3475 -0.3249 -0.3366 0.9943
-1.3570 -0.3792 -0.3422 0.9942
-1.3769 -0.6085 -0.3656 0.9938
-6.5419 -3.4718 -1.7987 0.9700
-6.4134 -3.7046 -1.7988 0.9700
-6.1317 -4.1556 -1.7990 0.9700
-5.9790 -4.3733 -1.7991 0.9700
-5.8185 -4.5854 -1.7992 0.9700
-5.6505 -4.7916 -1.7993 0.9700
-5.1036 -5.3723 -1.7996 0.9700
-4.9079 -5.5525 -1.7998 0.9700
-4.7057 -5.7255 -1.7999 0.9700
-4.2834 -6.0492 -1.8002 0.9699
-4.0638 -6.1996 -1.8003 0.9699
-3.1357 -6.7195 -1.8009 0.9699
-2.8927 -6.8283 -1.8010 0.9699
-2.6459 -6.9283 -1.8012 0.9699
-2.3957 -7.0194 -1.8013 0.9699
-1.8863 -7.1744 -1.8016 0.9699
-1.3982 -6.2176 -1.5477 0.9741
-0.9197 -6.1104 -1.5007 0.9749
-0.6964 -6.1103 -1.4936 0.9750
-0.2899 -6.9517 -1.8025 0.9717
0.4592 -6.9442 -1.8029 0.9717
0.7083 -6.9238 -1.8030 0.9717
0.9564 -6.8944 -1.8032 0.9716
1.2034 -6.8562 -1.8033 0.9716
1.7666 -6.1099 -1.6477 0.9741
2.0069 -6.1099 -1.6660 0.9738
2.8720 -6.3446 -1.8042 0.9716
3.0981 -6.2379 -1.8043 0.9716
3.3203 -6.1230 -1.8044 0.9716
3.9600 -5.7316 -1.8048 0.9716
4.9211 -4.9337 -1.8052 0.9716
5.0952 -4.7541 -1.8053 0.9716
5.2628 -4.5684 -1.8054 0.9716
5.4236 -4.3767 -1.8055 0.9716
5.9950 -3.5559 -1.8057 0.9716
6.2351 -3.1168 -1.8058 0.9716
6.4429 -2.6615 -1.8059 0.9716
6.6174 -2.1925 -1.8060 0.9716
6.6919 -1.9535 -1.8060 0.9716
6.8150 -1.4684 -1.8060 0.9716
6.9028 -0.9757 -1.8060 0.9716
6.9334 -0.7272 -1.8060 0.9716
6.9549 -0.4779 -1.8060 0.9716
6.9712 0.0223 -1.8060 0.9716
6.9658 0.2725 -1.8059 0.9716
6.9280 0.7716 -1.8059 0.9716
6.8957 1.0198 -1.8058 0.9716
6.8044 1.5118 -1.8058 0.9716
6.7456 1.7550 -1.8057 0.9716
6.6780 1.9960 -1.8056 0.9716
6.5171 2.4698 -1.8055 0.9716
6.4240 2.7020 -1.8054 0.9716
6.3226 2.9307 -1.8054 0.9716
5.6829 4.0021 -1.8006 0.9717
5.1539 4.2138 -1.7246 0.9729
4.6342 4.3798 -1.6519 0.9740
4.3075 4.7004 -1.6517 0.9740
3.9586 4.9967 -1.6515 0.9740
3.7764 5.1352 -1.6513 0.9740
3.3978 5.3921 -1.6511 0.9740
3.2018 5.5103 -1.6510 0.9740
1.9490 6.0645 -1.6502 0.9740
1.2855 6.2375 -1.6498 0.9740
0.6073 6.3380 -1.6495 0.9740
-0.3059 6.3577 -1.6489 0.9740
-0.5339 6.3421 -1.6488 0.9740
