ply
format ascii 1.0
element vertex 1563
property float32 x
property float32 y
property float32 z
property float32 I
end_header
27.4126 16.4977 -0.7979 0.8798
22.3777 15.7594 -0.6826 0.8963
21.7488 16.5155 -0.6810 0.8965
27.2847 25.7870 -0.9362 0.8605
21.7344 27.4340 -0.8728 0.8693
19.9909 27.1838 -0.8415 0.8737
18.5316 27.1932 -0.8207 0.8766
7.3290 11.6308 -0.3428 0.9465
7.4046 13.8663 -0.3920 0.9390
5.2218 11.7350 -0.3203 0.9499
3.7751 11.7465 -0.3077 0.9518
3.3159 11.7501 -0.3045 0.9523
2.8657 11.7537 -0.3017 0.9527
1.5586 11.7900 -0.2966 0.9535
1.1301 11.7934 -0.2955 0.9537
-0.9943 11.8101 -0.2956 0.9537
-1.4232 11.8135 -0.2967 0.9535
-1.8561 11.8170 -0.2983 0.9533
-2.2880 11.7884 -0.2995 0.9531
-5.0929 11.8106 -0.3208 0.9498
-7.1317 13.7344 -0.3859 0.9400
-27.6116 48.8075 -1.3984 0.7990
-7.1936 11.7136 -0.3428 0.9465
-27.7259 41.7115 -1.2491 0.8184
-29.5186 38.1562 -1.2031 0.8245
-27.7143 33.2831 -1.0801 0.8409
-18.2367 20.3674 -0.6818 0.8964
-18.2064 18.9206 -0.6548 0.9003
-21.9872 18.4041 -0.7151 0.8916
-49.1584 35.4755 -1.5118 0.7846
-55.2988 34.1560 -1.6209 0.7710
-57.5472 30.0693 -1.6192 0.7712
-58.5609 27.9705 -1.6185 0.7713
-60.3629 23.6759 -1.6170 0.7715
-61.1484 21.4848 -1.6163 0.7716
-61.8567 19.2687 -1.6157 0.7716
-62.4863 17.0298 -1.6151 0.7717
-63.0364 14.7709 -1.6146 0.7718
-63.8970 10.2043 -1.6137 0.7719
-64.4346 5.5911 -1.6129 0.7720
-70.3006 -6.5544 -1.7608 0.7539
-62.8346 -15.1491 -1.6119 0.7721
-61.5970 -19.6218 -1.6122 0.7721
-37.2470 -23.3373 -1.0961 0.8387
-37.1259 -27.1558 -1.1471 0.8319
-28.6379 -28.0563 -0.9998 0.8518
-45.3780 -51.3383 -1.7087 0.7602
-19.2973 -23.4792 -0.7579 0.8855
-18.9346 -24.8020 -0.7782 0.8826
-18.9501 -26.7622 -0.8178 0.8770
-31.9057 -62.4205 -1.7482 0.7554
-10.9874 -23.5450 -0.6480 0.9013
-10.2746 -24.2534 -0.6569 0.9000
-15.6431 -69.5637 -1.7781 0.7518
-10.6497 -70.7582 -1.7845 0.7510
-2.2832 -20.0325 -0.5028 0.9225
-1.5713 -20.2135 -0.8149 0.9220
-0.8644 -20.7297 -0.8339 0.9203
-0.1196 -20.7332 -0.8333 0.9204
0.6123 -20.3145 -0.8168 0.9219
1.0400 -10.1669 -0.4108 0.9599
2.8415 -9.8274 -0.4112 0.9599
3.2309 -9.8363 -0.4161 0.9594
3.6274 -9.8374 -0.4214 0.9589
7.4214 -16.3946 -0.7233 0.9305
8.8843 -16.3838 -0.7491 0.9281
13.2632 -20.7521 -0.9899 0.9061
15.2571 -20.4706 -1.0261 0.9028
16.7139 -20.8213 -1.0731 0.8986
17.6302 -20.4160 -1.0842 0.8976
18.9630 -20.4285 -1.1203 0.8944
20.4089 -20.4614 -1.1615 0.8907
13.2108 -11.4675 -0.7031 0.9324
13.2164 -10.6651 -0.6826 0.9343
13.6598 -9.4895 -0.6685 0.9356
14.7832 -9.5018 -0.7063 0.9321
17.4462 -9.5185 -0.7988 0.9235
19.0588 -9.5270 -0.8564 0.9182
43.1184 -14.2857 -1.8256 0.8337
36.7746 -6.5519 -1.5013 0.8611
45.0219 -6.3635 -1.8275 0.8336
45.2279 -4.7439 -1.8278 0.8336
45.4600 1.7788 -1.8285 0.8335
41.3953 4.6103 -1.6740 0.8464
41.2040 6.0934 -1.6741 0.8464
37.6635 9.7991 -1.5642 0.8557
34.7537 10.3875 -1.4579 0.8648
33.3566 11.2892 -1.4154 0.8685
29.0153 12.2041 -1.2651 0.8816
27.2378 13.8343 -1.2279 0.8849
22.0668 14.3840 -1.0587 0.8999
21.6081 15.2175 -1.0622 0.8996
21.6246 16.4212 -1.0913 0.8970
21.6710 17.7181 -1.1251 0.8940
27.3531 24.0526 -1.4640 0.8643
21.7521 27.4564 -1.4079 0.8692
26.8430 36.5013 -1.8210 0.8341
7.4046 13.8663 -0.6318 0.9390
4.7263 11.7389 -0.5086 0.9506
3.7751 11.7465 -0.4959 0.9518
3.3159 11.7501 -0.4907 0.9523
2.8657 11.7536 -0.4862 0.9527
1.9910 11.7865 -0.4804 0.9533
0.7043 11.7967 -0.4750 0.9538
0.2800 11.8000 -0.4744 0.9538
-0.1438 11.8034 -0.4744 0.9538
-0.5682 11.8068 -0.4751 0.9538
-0.9943 11.8101 -0.4763 0.9537
-1.8561 11.8169 -0.4808 0.9532
-2.7386 11.8239 -0.4878 0.9526
-3.1908 11.8275 -0.4924 0.9521
-3.6522 11.8312 -0.4977 0.9516
-4.6084 11.8387 -0.5106 0.9504
-5.0929 11.8106 -0.5169 0.9498
-6.5721 13.8511 -0.6162 0.9405
-7.1318 13.7347 -0.6220 0.9399
-21.9667 38.8292 -1.7930 0.8364
-24.5990 37.0074 -1.7860 0.8370
-24.6291 34.3138 -1.6976 0.8444
-26.1917 31.4545 -1.6451 0.8489
-18.1492 20.2697 -1.0935 0.8968
-18.0803 18.7896 -1.0480 0.9009
-18.1022 17.5085 -1.0122 0.9041
-21.8712 18.3071 -1.1463 0.8921
-22.2796 17.3276 -1.1344 0.8932
-35.9875 25.9707 -1.7837 0.8372
-25.3771 14.4425 -1.1736 0.8897
-26.5984 13.8981 -1.2062 0.8868
-38.6526 18.4617 -1.7216 0.8424
-38.6790 15.1709 -1.6699 0.8468
-39.2123 10.6868 -1.6335 0.8498
-39.7891 9.3235 -1.6425 0.8491
-40.6099 7.9899 -1.6635 0.8473
-44.1499 2.2381 -1.7767 0.8378
-44.1975 0.6518 -1.7766 0.8378
-44.0029 -4.1026 -1.7762 0.8378
-43.5937 -7.2488 -1.7762 0.8379
-43.3059 -8.8091 -1.7762 0.8379
-42.9630 -10.3582 -1.7762 0.8378
-42.1138 -13.4154 -1.7764 0.8378
-37.0201 -16.3593 -1.6267 0.8504
-35.7614 -18.9787 -1.6272 0.8504
-35.0632 -20.2537 -1.6275 0.8504
-33.8995 -22.9758 -1.6460 0.8488
-29.6889 -23.3971 -1.5193 0.8596
-28.6082 -24.2597 -1.5076 0.8606
-28.6227 -26.0950 -1.5567 0.8564
-28.6383 -28.0566 -1.6113 0.8517
-27.3714 -30.9666 -1.6611 0.8475
-22.8454 -34.8517 -1.6749 0.8463
-10.9874 -23.5450 -1.0443 0.9012
-10.2963 -26.9604 -1.1599 0.8909
-7.8071 -41.6496 -1.7031 0.8440
-6.3132 -41.9457 -1.7049 0.8438
-1.5713 -20.2135 -1.1245 0.9220
-0.0389 -6.7442 -0.3741 0.9733
0.4599 -6.9538 -0.3865 0.9725
2.0750 -9.7518 -0.5530 0.9608
2.4429 -9.7478 -0.5574 0.9605
2.8174 -9.7441 -0.5626 0.9602
3.2008 -9.7448 -0.5689 0.9597
3.5945 -9.7483 -0.5763 0.9592
6.7117 -16.3666 -0.9811 0.9316
8.8843 -16.3838 -1.0337 0.9281
12.0246 -20.3921 -1.3130 0.9095
13.2116 -20.6713 -1.3607 0.9064
13.9579 -20.2025 -1.3619 0.9063
15.2533 -20.4655 -1.4157 0.9028
16.6670 -20.7628 -1.4767 0.8988
13.2103 -11.4671 -0.9702 0.9323
13.7294 -9.5378 -0.9272 0.9352
14.7789 -9.4991 -0.9744 0.9320
16.8139 -6.2490 -0.9949 0.9307
31.1334 -10.3149 -1.8191 0.8769
31.8037 -8.0573 -1.8197 0.8768
32.0772 -6.9115 -1.8200 0.8768
32.4987 -4.5934 -1.8204 0.8768
32.7511 -2.2504 -1.8208 0.8768
32.7439 2.4608 -1.8212 0.8767
32.2974 4.7763 -1.8108 0.8774
27.7010 11.6514 -1.6668 0.8866
27.2624 12.6370 -1.6666 0.8866
27.1923 13.8112 -1.6916 0.8850
27.1964 16.3676 -1.7605 0.8806
22.0416 14.3676 -1.4593 0.9000
21.5910 15.2054 -1.4647 0.8996
21.6486 16.4394 -1.5077 0.8968
21.6498 17.7008 -1.5510 0.8940
23.8218 22.5142 -1.8180 0.8769
22.9932 23.3496 -1.8176 0.8770
21.2486 24.9274 -1.8167 0.8770
12.7202 21.8914 -1.4043 0.9035
4.2447 11.7427 -0.6925 0.9512
3.7751 11.7464 -0.6843 0.9518
2.8657 11.7536 -0.6710 0.9527
2.4218 11.7512 -0.6655 0.9531
-0.1438 11.8034 -0.6547 0.9538
-0.5682 11.8067 -0.6556 0.9537
-0.9943 11.8101 -0.6574 0.9536
-1.4232 11.8135 -0.6600 0.9534
-3.1822 11.7955 -0.6776 0.9522
-3.6423 11.7991 -0.6849 0.9517
-5.0929 11.8106 -0.7134 0.9498
-7.1319 13.7349 -0.8584 0.9399
-15.9400 28.1763 -1.7955 0.8784
-7.1937 11.7137 -0.7624 0.9464
-18.8571 26.2721 -1.7936 0.8785
-18.3164 16.4851 -1.3668 0.9060
-22.2317 17.2904 -1.5621 0.8933
-24.7147 17.8356 -1.6904 0.8851
-26.2611 13.7218 -1.6434 0.8881
-26.7308 12.7675 -1.6430 0.8881
-27.1663 11.7973 -1.6427 0.8881
-27.5667 10.8124 -1.6424 0.8881
-30.7302 9.5726 -1.7852 0.8790
-31.0489 8.4620 -1.7849 0.8790
-31.5670 6.2107 -1.7844 0.8791
-31.7656 5.0730 -1.7842 0.8791
-31.9237 3.9290 -1.7840 0.8791
-32.0410 2.7802 -1.7838 0.8791
-32.1174 1.6282 -1.7836 0.8791
-32.1529 0.4742 -1.7835 0.8791
-32.1005 -1.8337 -1.7833 0.8791
-32.0129 -2.9847 -1.7833 0.8791
-31.8846 -4.1318 -1.7832 0.8791
-31.2564 -7.5358 -1.7833 0.8791
-30.6377 -9.7597 -1.7834 0.8791
-30.2694 -10.8538 -1.7835 0.8791
-29.8625 -11.9343 -1.7837 0.8791
-29.4175 -12.9997 -1.7838 0.8791
-28.9348 -14.0487 -1.7840 0.8791
-27.6602 -14.6794 -1.7368 0.8821
-25.5029 -14.7314 -1.6335 0.8887
-24.3874 -16.5280 -1.6340 0.8887
-22.4811 -19.0640 -1.6349 0.8886
-21.7866 -19.8626 -1.6352 0.8886
-20.4575 -21.5346 -1.6474 0.8878
-19.8704 -22.4804 -1.6641 0.8867
-18.2363 -23.8873 -1.6668 0.8866
-17.3786 -24.5427 -1.6679 0.8865
-15.5949 -25.7627 -1.6703 0.8863
-14.6710 -26.3255 -1.6715 0.8863
-10.2750 -24.2545 -1.4610 0.8999
-9.7729 -28.6341 -1.6781 0.8858
-5.5926 -29.8367 -1.6837 0.8855
-0.2698 -6.4714 -0.4583 0.9744
0.1951 -6.4734 -0.4583 0.9744
0.4287 -6.4826 -0.4597 0.9743
0.6754 -6.6025 -0.4696 0.9737
0.9594 -6.9162 -0.4941 0.9724
1.7022 -9.6979 -0.6967 0.9613
2.0657 -9.7081 -0.7023 0.9610
2.4312 -9.7010 -0.7077 0.9607
2.7971 -9.6742 -0.7126 0.9604
3.1761 -9.6695 -0.7202 0.9600
3.5656 -9.6698 -0.7293 0.9595
6.7117 -16.3666 -1.2517 0.9315
7.3024 -16.1316 -1.2530 0.9315
11.8770 -20.1419 -1.6546 0.9105
13.2988 -19.2484 -1.6555 0.9104
13.9849 -18.7636 -1.6560 0.9104
15.9333 -17.1647 -1.6573 0.9104
16.5433 -16.5858 -1.6577 0.9103
13.2154 -10.6643 -1.2017 0.9342
13.6125 -9.4566 -1.1729 0.9357
14.7762 -9.4973 -1.2429 0.9320
22.0434 -13.0746 -1.8136 0.9023
17.6958 -9.6546 -1.4264 0.9223
15.2530 -7.6246 -1.2067 0.9339
15.3418 -6.3375 -1.1746 0.9356
24.3530 -8.0684 -1.8154 0.9022
24.6302 -7.1900 -1.8156 0.9022
25.0886 -5.4057 -1.8161 0.9022
25.5316 -2.6780 -1.8166 0.9022
25.6132 -1.7599 -1.8167 0.9022
25.6062 1.9244 -1.8171 0.9022
25.5211 2.8424 -1.8171 0.9022
25.4029 3.7567 -1.8171 0.9022
25.2516 4.6661 -1.8171 0.9022
24.8510 6.4656 -1.8170 0.9022
24.6020 7.3533 -1.8170 0.9022
24.3212 8.2313 -1.8169 0.9022
24.0088 9.0985 -1.8168 0.9022
23.6651 9.9538 -1.8167 0.9022
22.8863 11.6242 -1.8164 0.9022
22.4522 12.4370 -1.8162 0.9022
21.9889 13.2336 -1.8160 0.9022
20.9777 14.7735 -1.8156 0.9022
19.8582 16.2359 -1.8151 0.9023
13.1796 12.4562 -1.2832 0.9299
12.2139 12.4033 -1.2318 0.9326
11.9471 13.0370 -1.2513 0.9315
15.9117 20.0843 -1.8132 0.9024
13.8938 18.8929 -1.6595 0.9102
7.3287 11.6305 -0.9728 0.9464
11.7745 20.2637 -1.6584 0.9103
7.3328 13.7318 -1.1016 0.9395
6.7132 13.7367 -1.0819 0.9405
5.2218 11.7350 -0.9089 0.9498
4.2447 11.7427 -0.8836 0.9512
3.3159 11.7500 -0.8639 0.9522
2.3940 11.6164 -0.8393 0.9536
1.5366 11.6232 -0.8296 0.9541
1.1141 11.6265 -0.8265 0.9542
0.6943 11.6298 -0.8244 0.9544
-0.1417 11.6364 -0.8235 0.9544
-1.4030 11.6464 -0.8301 0.9540
-2.6999 11.6567 -0.8467 0.9532
-3.1457 11.6602 -0.8546 0.9527
-4.0658 11.6674 -0.8743 0.9517
-4.5432 11.6712 -0.8862 0.9510
-5.0345 11.6751 -0.8997 0.9503
-6.5721 13.8510 -1.0848 0.9404
-11.4464 20.2331 -1.6450 0.9110
-7.1937 11.7137 -0.9727 0.9464
-14.2090 18.3667 -1.6432 0.9111
-18.2152 17.6178 -1.7932 0.9034
-19.4233 16.2580 -1.7924 0.9034
-19.9900 15.5469 -1.7920 0.9034
-20.5308 14.8162 -1.7916 0.9035
-21.0450 14.0668 -1.7912 0.9035
-21.5322 13.2996 -1.7909 0.9035
-21.9916 12.5158 -1.7905 0.9035
-22.4226 11.7161 -1.7902 0.9035
-22.8247 10.9018 -1.7899 0.9035
-23.8533 8.3810 -1.7891 0.9036
-24.1355 7.5183 -1.7888 0.9036
-24.3867 6.6463 -1.7886 0.9036
-24.6067 5.7659 -1.7884 0.9036
-24.7951 4.8784 -1.7882 0.9036
-24.9518 3.9848 -1.7880 0.9036
-25.2297 1.2790 -1.7876 0.9037
-25.2579 0.3725 -1.7875 0.9037
-25.2174 -1.4405 -1.7873 0.9037
-24.3267 -6.7977 -1.7874 0.9037
-23.1083 -10.2116 -1.7877 0.9037
-22.3198 -11.8452 -1.7880 0.9036
-20.9240 -14.1807 -1.7886 0.9036
-20.0754 -14.6842 -1.7600 0.9051
-18.6538 -14.7006 -1.6806 0.9092
-15.9513 -16.7911 -1.6388 0.9113
-12.0079 -19.8369 -1.6408 0.9112
-9.8328 -21.0705 -1.6453 0.9110
-9.1141 -21.5152 -1.6534 0.9106
-8.3741 -21.9282 -1.6610 0.9102
-7.6139 -22.3083 -1.6680 0.9098
-6.8346 -22.6539 -1.6744 0.9095
-6.0376 -22.9640 -1.6802 0.9092
-3.5472 -23.5680 -1.6865 0.9089
-0.4984 -6.4118 -0.5537 0.9745
-0.2669 -6.3999 -0.5515 0.9746
0.6586 -6.4379 -0.5572 0.9744
0.8986 -6.4779 -0.5630 0.9741
1.1801 -6.7238 -0.5877 0.9730
2.0599 -9.6811 -0.8521 0.9610
2.4225 -9.6663 -0.8579 0.9608
2.7844 -9.6301 -0.8630 0.9606
3.5563 -9.6445 -0.8850 0.9596
8.5406 -17.1957 -1.6530 0.9258
9.7568 -16.5463 -1.6537 0.9258
10.3468 -16.1891 -1.6541 0.9258
11.4867 -15.4118 -1.6548 0.9257
12.0351 -14.9928 -1.6552 0.9257
12.7278 -14.7389 -1.6766 0.9248
14.6826 -14.7203 -1.7900 0.9199
15.3593 -14.3310 -1.8085 0.9191
15.8761 -13.7811 -1.8099 0.9191
14.1071 -11.3839 -1.5606 0.9298
16.8301 -12.6111 -1.8106 0.9190
13.6237 -9.4645 -1.4282 0.9356
17.6976 -11.3750 -1.8112 0.9190
18.0974 -10.7341 -1.8115 0.9190
18.4739 -10.0791 -1.8118 0.9190
15.1371 -6.8990 -1.4322 0.9354
15.3045 -6.3221 -1.4256 0.9357
16.7036 -6.2080 -1.5342 0.9310
19.9900 -6.6229 -1.8130 0.9189
20.5925 -4.4369 -1.8136 0.9189
20.7402 -3.6952 -1.8137 0.9189
20.8611 -2.9485 -1.8138 0.9189
20.9550 -2.1979 -1.8140 0.9189
21.0216 -1.4444 -1.8141 0.9189
21.0610 -0.6889 -1.8142 0.9189
21.0578 0.8240 -1.8143 0.9189
20.9453 2.3328 -1.8144 0.9189
20.7242 3.8295 -1.8144 0.9189
20.5731 4.5709 -1.8144 0.9189
20.3954 5.3064 -1.8144 0.9189
20.1913 6.0349 -1.8143 0.9189
19.9609 6.7556 -1.8142 0.9189
19.7046 7.4674 -1.8142 0.9189
19.4229 8.1695 -1.8141 0.9189
19.1159 8.8609 -1.8140 0.9189
18.7842 9.5407 -1.8138 0.9189
18.4282 10.2081 -1.8137 0.9189
18.0483 10.8620 -1.8135 0.9189
17.6451 11.5018 -1.8134 0.9189
17.2191 12.1265 -1.8132 0.9189
13.3760 10.1574 -1.4460 0.9348
16.3009 13.3276 -1.8128 0.9189
11.9591 15.0952 -1.6580 0.9256
10.8415 15.9088 -1.6574 0.9256
9.6686 16.6396 -1.6568 0.9256
4.2447 11.7427 -1.0750 0.9511
3.7751 11.7464 -1.0622 0.9517
1.9628 11.6198 -1.0146 0.9538
1.5366 11.6231 -1.0094 0.9540
0.6943 11.6298 -1.0030 0.9543
0.2760 11.6331 -1.0018 0.9544
-0.1417 11.6364 -1.0019 0.9544
-0.5601 11.6397 -1.0033 0.9543
-3.1457 11.6602 -1.0397 0.9527
-3.6005 11.6638 -1.0509 0.9522
-4.5432 11.6712 -1.0783 0.9510
-5.0345 11.6751 -1.0946 0.9502
-6.5721 13.8510 -1.3199 0.9403
-7.1322 13.7354 -1.3324 0.9398
-9.4128 16.6385 -1.6458 0.9261
-7.1937 11.7138 -1.1835 0.9463
-10.5775 15.9131 -1.6451 0.9262
-12.2190 14.6742 -1.6440 0.9262
-12.7353 14.2232 -1.6436 0.9262
-13.2349 13.7541 -1.6433 0.9262
-13.7174 13.2675 -1.6430 0.9262
-15.9798 13.3757 -1.7941 0.9197
-16.4466 12.7911 -1.7938 0.9198
-17.3160 11.5742 -1.7931 0.9198
-18.0960 10.2987 -1.7926 0.9198
-18.7828 8.9713 -1.7921 0.9198
-19.3729 7.5986 -1.7916 0.9198
-19.6308 6.8974 -1.7914 0.9199
-19.8636 6.1876 -1.7912 0.9199
-20.0708 5.4700 -1.7910 0.9199
-20.5370 3.2798 -1.7905 0.9199
-20.6400 2.5403 -1.7904 0.9199
-20.7165 1.7976 -1.7903 0.9199
-20.7666 1.0528 -1.7902 0.9199
-20.7900 0.3066 -1.7901 0.9199
-20.7570 -1.1857 -1.7899 0.9199
-20.7006 -1.9300 -1.7899 0.9199
-20.5085 -3.4102 -1.7899 0.9199
-20.2114 -4.8729 -1.7899 0.9199
-20.0239 -5.5954 -1.7900 0.9199
-19.8107 -6.3107 -1.7900 0.9199
-19.3086 -7.7165 -1.7902 0.9199
-18.7075 -9.0830 -1.7904 0.9199
-18.3707 -9.7494 -1.7905 0.9199
-18.0104 -10.4034 -1.7907 0.9199
-17.2208 -11.6710 -1.7910 0.9199
-16.3427 -12.8792 -1.7914 0.9199
-15.3803 -14.0221 -1.7918 0.9198
-14.8284 -14.5273 -1.7872 0.9200
-13.9593 -14.6943 -1.7449 0.9219
-12.9984 -14.7057 -1.6897 0.9242
-11.5700 -15.1554 -1.6415 0.9263
-11.0204 -15.5635 -1.6418 0.9263
-9.8790 -16.3200 -1.6424 0.9263
-9.2885 -16.6672 -1.6427 0.9263
-8.6859 -16.9932 -1.6430 0.9262
-7.4473 -17.5796 -1.6437 0.9262
-6.8129 -17.8393 -1.6440 0.9262
-5.5178 -18.2900 -1.6447 0.9262
-4.8588 -18.4804 -1.6451 0.9262
-2.8459 -18.9085 -1.6462 0.9261
-0.7468 -6.5524 -0.5678 0.9739
-0.2639 -6.3298 -0.6428 0.9749
-0.0365 -6.3255 -0.6418 0.9749
0.1910 -6.3352 -0.6431 0.9748
0.6503 -6.3567 -0.6483 0.9746
6.7149 -14.8339 -1.6521 0.9366
7.3178 -14.7338 -1.6692 0.9360
10.0884 -14.6018 -1.8008 0.9311
11.1496 -13.8897 -1.8072 0.9309
11.6431 -13.4829 -1.8075 0.9309
13.4620 -11.6856 -1.8087 0.9308
13.8750 -11.1966 -1.8090 0.9308
14.2702 -10.6929 -1.8093 0.9308
13.8512 -9.6225 -1.7113 0.9344
15.6416 -7.8188 -1.7743 0.9321
16.2391 -7.4013 -1.8108 0.9308
15.5127 -6.4081 -1.7030 0.9347
16.9460 -5.6144 -1.8113 0.9307
17.1383 -5.0030 -1.8115 0.9307
17.3083 -4.3849 -1.8117 0.9307
17.4559 -3.7611 -1.8118 0.9307
17.7626 -1.8631 -1.8122 0.9307
17.8522 -0.5840 -1.8123 0.9307
17.8623 0.0572 -1.8124 0.9307
17.8493 0.6984 -1.8125 0.9307
17.7538 1.9773 -1.8125 0.9307
17.4383 3.8745 -1.8125 0.9307
17.2878 4.4978 -1.8125 0.9307
16.9196 5.7263 -1.8124 0.9307
16.7025 6.3297 -1.8123 0.9307
16.2038 7.5110 -1.8121 0.9307
15.6212 8.6531 -1.8119 0.9307
15.2994 9.2076 -1.8118 0.9307
14.9577 9.7500 -1.8116 0.9307
13.3624 9.4104 -1.6583 0.9364
12.2696 10.7891 -1.6578 0.9364
10.5939 12.4280 -1.6570 0.9365
9.6722 13.1524 -1.6565 0.9365
9.1925 13.4891 -1.6563 0.9365
8.1985 14.1095 -1.6557 0.9365
6.7132 13.7367 -1.5513 0.9404
5.2217 11.7349 -1.3032 0.9497
3.3159 11.7500 -1.2388 0.9521
1.5366 11.6231 -1.1896 0.9540
1.1141 11.6264 -1.1851 0.9541
0.2760 11.6331 -1.1807 0.9543
-0.5601 11.6397 -1.1824 0.9542
-2.2617 11.6531 -1.2044 0.9534
-3.1457 11.6601 -1.2254 0.9526
-3.6005 11.6637 -1.2386 0.9521
-4.5432 11.6712 -1.2708 0.9509
-5.0345 11.6751 -1.2900 0.9502
-7.9897 14.1229 -1.6464 0.9368
-8.9789 13.5080 -1.6458 0.9369
-9.4562 13.1746 -1.6454 0.9369
-9.9212 12.8243 -1.6451 0.9369
-10.3733 12.4577 -1.6448 0.9369
-10.8119 12.0751 -1.6446 0.9369
-11.6464 11.2645 -1.6440 0.9369
-12.7838 9.9424 -1.6432 0.9370
-13.1305 9.4757 -1.6430 0.9370
-15.3668 8.7455 -1.7940 0.9314
-16.2121 7.0403 -1.7934 0.9314
-16.4525 6.4531 -1.7932 0.9314
-16.6719 5.8578 -1.7930 0.9314
-16.8698 5.2550 -1.7928 0.9314
-17.0460 4.6457 -1.7926 0.9314
-17.2004 4.0304 -1.7925 0.9314
-17.5956 1.5268 -1.7920 0.9315
-17.6382 0.8942 -1.7919 0.9315
-17.6583 0.2604 -1.7919 0.9315
-17.6304 -1.0071 -1.7918 0.9315
-17.5826 -1.6393 -1.7917 0.9315
-17.5122 -2.2694 -1.7917 0.9315
-17.4194 -2.8965 -1.7917 0.9315
-15.2966 -8.8358 -1.7924 0.9314
-14.9707 -9.3799 -1.7925 0.9314
-14.6255 -9.9121 -1.7927 0.9314
-12.1764 -12.8175 -1.7938 0.9314
-11.2283 -13.6617 -1.7943 0.9314
-9.6310 -14.6925 -1.7825 0.9318
-8.8987 -14.7006 -1.7436 0.9332
-8.1967 -14.7080 -1.7084 0.9345
-7.5213 -14.7147 -1.6767 0.9357
-6.3226 -14.9246 -1.6446 0.9369
-4.1245 -15.6873 -1.6458 0.9369
-3.5594 -15.8282 -1.6461 0.9369
-1.0123 -6.7260 -0.6901 0.9730
-0.7229 -6.3431 -0.6478 0.9747
-0.2609 -6.2572 -0.7320 0.9751
0.1890 -6.2693 -0.7331 0.9751
0.4153 -6.2799 -0.7356 0.9750
0.6434 -6.2900 -0.7390 0.9749
1.6124 -6.4338 -0.7753 0.9736
6.3664 -14.0639 -1.8044 0.9397
6.8683 -13.8287 -1.8047 0.9397
7.3615 -13.5756 -1.8050 0.9397
9.6752 -12.0528 -1.8065 0.9397
10.5182 -11.3311 -1.8071 0.9396
10.9198 -10.9478 -1.8073 0.9396
11.3074 -10.5504 -1.8076 0.9396
12.3811 -9.2774 -1.8083 0.9396
13.0181 -8.3673 -1.8088 0.9396
13.8469 -6.9217 -1.8094 0.9396
14.3107 -5.9116 -1.8098 0.9395
14.5150 -5.3946 -1.8099 0.9395
14.7006 -4.8705 -1.8101 0.9395
14.8672 -4.3400 -1.8102 0.9395
15.3393 -2.1681 -1.8107 0.9395
15.4943 0.0496 -1.8110 0.9395
15.4829 0.6058 -1.8111 0.9395
15.4515 1.1612 -1.8111 0.9395
15.3286 2.2669 -1.8111 0.9395
15.2374 2.8156 -1.8111 0.9395
14.9958 3.9015 -1.8111 0.9395
14.6765 4.9671 -1.8110 0.9395
14.2813 6.0069 -1.8109 0.9395
13.8122 7.0153 -1.8107 0.9395
11.5917 8.1634 -1.6571 0.9445
10.9742 8.9725 -1.6569 0.9445
7.9757 11.7035 -1.6554 0.9446
7.2954 11.5775 -1.5995 0.9464
6.7407 11.6006 -1.5682 0.9474
5.8893 12.0509 -1.5678 0.9474
4.2446 11.7426 -1.4594 0.9510
3.7750 11.7464 -1.4421 0.9515
3.3159 11.7500 -1.4270 0.9520
2.8657 11.7536 -1.4140 0.9524
2.3940 11.6163 -1.3863 0.9534
1.9628 11.6197 -1.3774 0.9537
1.5365 11.6231 -1.3704 0.9539
0.6943 11.6298 -1.3617 0.9542
-0.1417 11.6364 -1.3602 0.9542
-1.4030 11.6463 -1.3711 0.9539
-1.8298 11.6497 -1.3784 0.9536
-3.1457 11.6601 -1.4116 0.9525
-5.0345 11.6750 -1.4861 0.9501
-5.7252 12.0662 -1.5610 0.9476
-6.1536 11.8508 -1.5608 0.9476
-6.6119 11.6875 -1.5695 0.9474
-7.7969 11.7298 -1.6463 0.9449
-8.6156 11.1366 -1.6457 0.9449
-9.0083 10.8184 -1.6455 0.9449
-9.3895 10.4865 -1.6452 0.9449
-10.4578 9.4122 -1.6445 0.9449
-10.7875 9.0295 -1.6443 0.9449
-11.1031 8.6353 -1.6441 0.9449
-11.6911 7.8144 -1.6436 0.9449
-13.3475 7.5963 -1.7951 0.9400
-13.8552 6.6177 -1.7947 0.9400
-14.0824 6.1155 -1.7945 0.9400
-14.2915 5.6055 -1.7943 0.9400
-14.4822 5.0884 -1.7942 0.9401
-14.6543 4.5649 -1.7940 0.9401
-15.0569 2.9624 -1.7936 0.9401
-15.1526 2.4199 -1.7935 0.9401
-15.3228 0.7768 -1.7933 0.9401
-15.3403 0.2262 -1.7932 0.9401
-15.3381 -0.3246 -1.7932 0.9401
-15.3162 -0.8749 -1.7931 0.9401
-15.2136 -1.9715 -1.7931 0.9401
-15.0329 -3.0579 -1.7931 0.9401
-14.9136 -3.5956 -1.7931 0.9401
-14.2470 -5.6937 -1.7933 0.9401
-13.2881 -7.6757 -1.7937 0.9401
-13.0049 -8.1483 -1.7938 0.9401
-12.0564 -9.5013 -1.7942 0.9401
-11.7086 -9.9289 -1.7944 0.9400
-10.9682 -10.7454 -1.7947 0.9400
-10.5765 -11.1334 -1.7949 0.9400
-9.7527 -11.8662 -1.7953 0.9400
-9.3216 -12.2101 -1.7955 0.9400
-8.4237 -12.8508 -1.7960 0.9400
-7.9580 -13.1466 -1.7962 0.9400
-7.4820 -13.4256 -1.7965 0.9400
-6.5014 -13.9319 -1.7970 0.9400
-5.4813 -14.3525 -1.7957 0.9400
-4.4256 -14.6696 -1.7910 0.9402
-1.5194 -6.7565 -0.8094 0.9725
-0.7135 -6.2603 -0.7365 0.9749
-0.2583 -6.1941 -0.8205 0.9753
0.6369 -6.2257 -0.8283 0.9751
0.8640 -6.2281 -0.8322 0.9749
1.3358 -6.2779 -0.8495 0.9744
1.8952 -6.5547 -0.9031 0.9728
3.1438 -9.5712 -1.3334 0.9602
3.5319 -9.5784 -1.3512 0.9596
5.1710 -12.6096 -1.8039 0.9465
5.6212 -12.4178 -1.8041 0.9465
6.4996 -11.9861 -1.8047 0.9465
6.9267 -11.7469 -1.8050 0.9465
7.3450 -11.4923 -1.8052 0.9465
7.7540 -11.2229 -1.8055 0.9464
8.5416 -10.6407 -1.8060 0.9464
10.3110 -8.9504 -1.8072 0.9464
11.2174 -7.7928 -1.8078 0.9464
12.2222 -6.1096 -1.8086 0.9464
12.8115 -4.7615 -1.8090 0.9463
13.3648 -2.8796 -1.8095 0.9463
13.4603 -2.3982 -1.8096 0.9463
13.5384 -1.9135 -1.8097 0.9463
13.6419 -0.9374 -1.8099 0.9463
13.6672 -0.4471 -1.8099 0.9463
13.6749 0.0438 -1.8100 0.9463
13.6648 0.5347 -1.8100 0.9463
13.5286 2.0007 -1.8101 0.9463
13.4480 2.4850 -1.8101 0.9463
13.1025 3.9162 -1.8100 0.9463
12.9531 4.3838 -1.8100 0.9463
12.6045 5.3016 -1.8099 0.9463
12.1906 6.1917 -1.8097 0.9463
10.9484 6.0647 -1.6566 0.9508
10.7230 6.4534 -1.6565 0.9508
10.2311 7.2052 -1.6563 0.9508
9.9651 7.5673 -1.6561 0.9508
9.6863 7.9195 -1.6560 0.9508
8.7765 8.9126 -1.6556 0.9508
8.4501 9.2210 -1.6554 0.9508
8.1128 9.5174 -1.6553 0.9508
7.7652 9.8015 -1.6551 0.9508
6.6642 10.5758 -1.6545 0.9508
6.2795 10.8069 -1.6543 0.9508
5.8868 11.0240 -1.6541 0.9508
5.4866 11.2268 -1.6539 0.9508
5.0794 11.4150 -1.6537 0.9508
4.6657 11.5884 -1.6535 0.9508
3.7299 11.6057 -1.6135 0.9520
3.2762 11.6093 -1.5966 0.9525
2.8314 11.6128 -1.5821 0.9529
1.5365 11.6231 -1.5518 0.9538
0.6943 11.6297 -1.5420 0.9541
0.2760 11.6330 -1.5402 0.9541
-0.1417 11.6363 -1.5403 0.9541
-0.9802 11.6430 -1.5465 0.9539
-4.5171 11.6041 -1.6482 0.9510
-4.9299 11.4327 -1.6479 0.9510
-5.7358 11.0462 -1.6474 0.9510
-6.1277 10.8316 -1.6471 0.9510
-6.5116 10.6030 -1.6469 0.9510
-6.8870 10.3609 -1.6467 0.9510
-7.2534 10.1056 -1.6464 0.9510
-7.9576 9.5565 -1.6460 0.9511
-8.2943 9.2634 -1.6457 0.9511
-8.6204 8.9585 -1.6455 0.9511
-9.2385 8.3149 -1.6451 0.9511
-9.5299 7.9769 -1.6449 0.9511
-9.8090 7.6288 -1.6447 0.9511
-10.0753 7.2709 -1.6445 0.9511
-10.7952 6.1437 -1.6440 0.9511
-12.2412 5.8468 -1.7955 0.9467
-12.7956 4.4958 -1.7951 0.9467
-12.9478 4.0333 -1.7950 0.9468
-13.3038 2.6175 -1.7946 0.9468
-13.3885 2.1382 -1.7945 0.9468
-13.4560 1.6561 -1.7944 0.9468
-13.5391 0.6864 -1.7943 0.9468
-13.5546 0.1999 -1.7942 0.9468
-13.3715 -2.2234 -1.7941 0.9468
-13.1777 -3.1771 -1.7941 0.9468
-13.0554 -3.6481 -1.7942 0.9468
-12.9163 -4.1145 -1.7942 0.9468
-12.5885 -5.0309 -1.7943 0.9468
-12.1961 -5.9215 -1.7944 0.9468
-11.9762 -6.3558 -1.7945 0.9468
-11.4907 -7.1995 -1.7947 0.9468
-10.6523 -8.3948 -1.7951 0.9467
-10.3449 -8.7725 -1.7952 0.9467
-9.6905 -9.4937 -1.7956 0.9467
-8.9861 -10.1664 -1.7959 0.9467
-8.6163 -10.4835 -1.7961 0.9467
-8.2353 -10.7872 -1.7963 0.9467
-7.8436 -11.0771 -1.7965 0.9467
-7.4418 -11.3528 -1.7967 0.9467
-6.6097 -11.8604 -1.7971 0.9467
-5.7432 -12.3071 -1.7976 0.9467
-5.2984 -12.5070 -1.7978 0.9467
-1.9418 -6.4366 -0.8899 0.9732
-1.6635 -6.3271 -0.8659 0.9739
-1.1683 -6.2328 -0.8393 0.9747
-0.9362 -6.2205 -0.8326 0.9749
-0.7064 -6.1984 -0.8257 0.9751
-0.4773 -6.1397 -0.9108 0.9754
-0.2559 -6.1377 -0.9085 0.9755
-0.0354 -6.1409 -0.9082 0.9755
0.4071 -6.1551 -0.9123 0.9754
0.8552 -6.1650 -0.9205 0.9751
1.0812 -6.1602 -0.9250 0.9750
1.5699 -6.2642 -0.9551 0.9742
3.1438 -9.5713 -1.4899 0.9601
5.4265 -10.9257 -1.8042 0.9519
5.8159 -10.7253 -1.8044 0.9519
6.1980 -10.5110 -1.8047 0.9519
6.5722 -10.2831 -1.8049 0.9519
6.9380 -10.0419 -1.8051 0.9518
9.2251 -8.0077 -1.8066 0.9518
9.5076 -7.6722 -1.8068 0.9518
10.9341 -5.4657 -1.8079 0.9518
11.1242 -5.0701 -1.8080 0.9518
11.4610 -4.2596 -1.8083 0.9518
11.7386 -3.4267 -1.8085 0.9518
11.8548 -3.0033 -1.8086 0.9518
11.9556 -2.5760 -1.8087 0.9518
12.0410 -2.1453 -1.8088 0.9517
12.1108 -1.7117 -1.8089 0.9517
12.1649 -1.2760 -1.8090 0.9517
12.2259 -0.3999 -1.8091 0.9517
12.2236 0.4783 -1.8092 0.9517
12.1988 0.9168 -1.8092 0.9517
12.1581 1.3541 -1.8092 0.9517
12.1017 1.7896 -1.8092 0.9517
11.9421 2.6533 -1.8092 0.9517
11.8390 3.0802 -1.8092 0.9517
11.7206 3.5031 -1.8092 0.9517
11.5871 3.9215 -1.8091 0.9517
11.4386 4.3348 -1.8091 0.9517
10.8812 5.5267 -1.8049 0.9518
9.5924 5.7730 -1.6558 0.9557
9.3785 6.1133 -1.6557 0.9557
9.1525 6.4456 -1.6556 0.9557
8.9146 6.7695 -1.6555 0.9557
8.6652 7.0847 -1.6553 0.9558
8.4047 7.3906 -1.6552 0.9558
7.8516 7.9733 -1.6550 0.9558
7.2580 8.5146 -1.6547 0.9558
6.6271 9.0116 -1.6544 0.9558
5.9623 9.4619 -1.6540 0.9558
5.6182 9.6688 -1.6538 0.9558
4.5446 10.2132 -1.6533 0.9558
4.1746 10.3685 -1.6531 0.9558
3.7992 10.5104 -1.6529 0.9558
2.6463 10.8537 -1.6522 0.9558
1.4635 11.0709 -1.6516 0.9558
0.2648 11.1594 -1.6509 0.9559
-0.5364 11.1465 -1.6504 0.9559
-0.9360 11.1185 -1.6502 0.9559
-1.3344 11.0762 -1.6499 0.9559
-2.9042 10.7651 -1.6490 0.9559
-3.2883 10.6524 -1.6488 0.9559
-3.6680 10.5260 -1.6485 0.9559
-4.0430 10.3861 -1.6483 0.9559
-5.1340 9.8872 -1.6476 0.9560
-5.4848 9.6952 -1.6474 0.9560
-5.8286 9.4908 -1.6472 0.9560
-6.1647 9.2743 -1.6470 0.9560
-6.8125 8.8058 -1.6466 0.9560
-7.1233 8.5546 -1.6464 0.9560
-7.4249 8.2924 -1.6462 0.9560
-7.9988 7.7365 -1.6458 0.9560
-8.7813 6.8295 -1.6452 0.9560
-9.6646 5.5003 -1.6446 0.9560
-11.1394 4.8374 -1.7961 0.9521
-11.4561 4.0252 -1.7958 0.9521
-11.5924 3.6111 -1.7957 0.9521
-11.8202 2.7697 -1.7955 0.9521
-11.9114 2.3436 -1.7954 0.9521
-11.9873 1.9144 -1.7953 0.9521
-12.0478 1.4828 -1.7952 0.9521
-12.1223 0.6145 -1.7951 0.9521
-11.7988 -2.8447 -1.7950 0.9521
-11.5647 -3.6840 -1.7950 0.9521
-11.4253 -4.0968 -1.7951 0.9521
-11.1026 -4.9063 -1.7952 0.9521
-10.9197 -5.3018 -1.7952 0.9521
-10.7228 -5.6906 -1.7953 0.9521
-10.5121 -6.0722 -1.7954 0.9521
-10.2879 -6.4460 -1.7955 0.9521
-9.8001 -7.1683 -1.7957 0.9521
-9.5371 -7.5160 -1.7958 0.9521
-9.2618 -7.8540 -1.7960 0.9521
-8.9746 -8.1821 -1.7961 0.9521
-8.6758 -8.4996 -1.7962 0.9521
-8.3658 -8.8063 -1.7964 0.9521
-8.0450 -9.1017 -1.7965 0.9521
-7.7138 -9.3855 -1.7967 0.9521
-7.0219 -9.9168 -1.7971 0.9521
-6.2937 -10.3971 -1.7974 0.9520
-5.9170 -10.6175 -1.7976 0.9520
-5.5327 -10.8243 -1.7978 0.9520
-5.1412 -11.0172 -1.7980 0.9520
-4.7430 -11.1959 -1.7983 0.9520
-4.3386 -11.3604 -1.7985 0.9520
-2.1498 -6.2989 -0.9843 0.9734
-1.6274 -6.1898 -0.9465 0.9745
-1.3904 -6.1830 -0.9373 0.9747
-1.1547 -6.1607 -0.9270 0.9750
-0.4757 -6.1190 -1.0035 0.9754
0.4051 -6.1256 -1.0037 0.9754
0.6268 -6.1271 -1.0070 0.9753
1.3097 -6.1552 -1.0289 0.9748
1.5587 -6.2196 -1.0483 0.9743
3.1438 -9.5713 -1.6472 0.9600
4.5495 -10.0503 -1.8037 0.9563
5.2601 -9.7004 -1.8042 0.9563
5.6056 -9.5064 -1.8044 0.9563
5.9440 -9.3002 -1.8046 0.9562
6.9117 -8.6103 -1.8052 0.9562
7.2172 -8.3576 -1.8054 0.9562
8.0764 -7.5357 -1.8060 0.9562
8.3425 -7.2416 -1.8062 0.9562
9.0752 -6.3046 -1.8067 0.9562
9.5058 -5.6382 -1.8070 0.9562
9.7029 -5.2938 -1.8072 0.9562
10.2180 -4.2209 -1.8076 0.9562
10.4958 -3.4774 -1.8078 0.9562
10.7195 -2.7157 -1.8080 0.9562
10.9508 -1.5478 -1.8082 0.9562
11.0548 -0.3616 -1.8084 0.9562
11.0302 0.8290 -1.8085 0.9562
10.9934 1.2244 -1.8085 0.9562
10.8773 2.0100 -1.8085 0.9562
10.7981 2.3991 -1.8085 0.9562
10.4771 3.5459 -1.8085 0.9562
10.1952 4.2882 -1.8084 0.9562
9.8297 4.9926 -1.8026 0.9563
8.4803 5.5278 -1.6551 0.9598
8.2760 5.8283 -1.6550 0.9598
8.0610 6.1213 -1.6549 0.9598
7.8356 6.4063 -1.6548 0.9598
6.5633 7.6996 -1.6542 0.9598
6.2821 7.9295 -1.6540 0.9598
5.6960 8.3583 -1.6537 0.9598
5.0807 8.7438 -1.6534 0.9598
4.1100 9.2364 -1.6529 0.9599
2.3933 9.8163 -1.6520 0.9599
0.2395 10.0935 -1.6508 0.9599
-0.1230 10.0943 -1.6505 0.9599
-1.5656 9.9677 -1.6497 0.9599
-2.2762 9.8272 -1.6493 0.9599
-2.9746 9.6361 -1.6489 0.9599
-4.3209 9.1065 -1.6480 0.9600
-4.6445 8.9445 -1.6478 0.9600
-4.9620 8.7709 -1.6476 0.9600
-5.8740 8.1837 -1.6470 0.9600
-6.1633 7.9667 -1.6469 0.9600
-6.4446 7.7395 -1.6467 0.9600
-6.7175 7.5024 -1.6465 0.9600
-7.2369 6.9996 -1.6461 0.9600
-7.4827 6.7346 -1.6460 0.9600
-8.1610 5.8895 -1.6455 0.9600
-8.5611 5.2878 -1.6452 0.9600
-9.7001 5.0685 -1.7894 0.9566
-9.9118 4.7342 -1.7959 0.9565
-10.2292 4.0122 -1.7965 0.9564
-10.3660 3.6422 -1.7964 0.9564
-10.5994 2.8887 -1.7962 0.9564
-10.6957 2.5062 -1.7961 0.9565
-10.7783 2.1206 -1.7960 0.9565
-10.8470 1.7323 -1.7960 0.9565
-10.9425 0.9495 -1.7958 0.9565
-10.9692 0.5561 -1.7958 0.9565
-10.9818 0.1620 -1.7957 0.9565
-10.8337 -1.8014 -1.7956 0.9565
-10.6766 -2.5741 -1.7956 0.9565
-10.5775 -2.9557 -1.7957 0.9565
-10.4647 -3.3335 -1.7957 0.9565
-10.0465 -4.4396 -1.7958 0.9565
-9.8810 -4.7975 -1.7959 0.9565
-9.7028 -5.1493 -1.7960 0.9565
-9.3091 -5.8327 -1.7961 0.9565
-9.0942 -6.1634 -1.7962 0.9564
-8.8676 -6.4862 -1.7963 0.9564
-8.6296 -6.8008 -1.7964 0.9564
-7.5696 -7.9681 -1.7969 0.9564
-7.2792 -8.2353 -1.7971 0.9564
-6.9795 -8.4920 -1.7972 0.9564
-6.6707 -8.7379 -1.7974 0.9564
-6.3533 -8.9725 -1.7975 0.9564
-6.0277 -9.1956 -1.7977 0.9564
-5.3535 -9.6062 -1.7981 0.9564
-5.0057 -9.7932 -1.7982 0.9564
-4.6515 -9.9676 -1.7984 0.9564
-4.2911 -10.1293 -1.7986 0.9564
-2.4562 -6.4316 -1.1256 0.9725
-2.1053 -6.1683 -1.0656 0.9739
-1.3855 -6.1615 -1.0326 0.9747
-0.9231 -6.1333 -1.0141 0.9752
-0.2544 -6.1010 -1.0942 0.9755
0.1842 -6.1096 -1.0953 0.9755
0.6258 -6.1180 -1.1020 0.9753
1.5531 -6.1970 -1.1447 0.9744
4.1509 -9.1698 -1.8036 0.9599
4.7992 -8.8503 -1.8040 0.9599
5.1144 -8.6733 -1.8042 0.9599
5.4230 -8.4851 -1.8044 0.9599
5.7247 -8.2858 -1.8046 0.9599
6.3057 -7.8554 -1.8050 0.9599
6.5843 -7.6247 -1.8051 0.9599
7.3680 -6.8747 -1.8057 0.9599
7.6107 -6.6064 -1.8058 0.9599
8.0665 -6.0444 -1.8062 0.9599
8.2790 -5.7514 -1.8063 0.9599
8.6716 -5.1434 -1.8066 0.9599
8.8513 -4.8292 -1.8067 0.9599
9.0196 -4.5087 -1.8069 0.9599
9.3211 -3.8504 -1.8071 0.9598
9.4539 -3.5136 -1.8072 0.9598
9.5744 -3.1721 -1.8073 0.9598
9.7783 -2.4773 -1.8075 0.9598
10.0840 -0.3299 -1.8079 0.9598
10.0895 0.0323 -1.8079 0.9598
10.0820 0.3945 -1.8079 0.9598
10.0615 0.7562 -1.8080 0.9598
10.0280 1.1168 -1.8080 0.9598
9.9814 1.4761 -1.8080 0.9598
9.7648 2.5405 -1.8080 0.9598
9.6672 2.8894 -1.8079 0.9598
9.3000 3.9117 -1.8078 0.9598
7.7358 5.0425 -1.6546 0.9632
7.1477 5.8439 -1.6544 0.9632
6.9329 6.0964 -1.6543 0.9632
6.2361 6.8050 -1.6539 0.9632
5.9873 7.0239 -1.6538 0.9632
4.6350 7.9768 -1.6531 0.9632
4.3453 8.1373 -1.6529 0.9632
3.7496 8.4265 -1.6526 0.9632
3.4443 8.5548 -1.6525 0.9632
3.1347 8.6720 -1.6523 0.9632
1.8605 9.0275 -1.6516 0.9632
1.5351 9.0875 -1.6514 0.9632
1.2077 9.1357 -1.6512 0.9632
0.8789 9.1722 -1.6510 0.9632
0.5490 9.1967 -1.6509 0.9633
0.2185 9.2095 -1.6507 0.9633
-0.4427 9.1993 -1.6503 0.9633
-0.7725 9.1764 -1.6501 0.9633
-2.0770 8.9671 -1.6493 0.9633
-2.3972 8.8858 -1.6491 0.9633
-2.7143 8.7930 -1.6489 0.9633
-3.0279 8.6889 -1.6487 0.9633
-4.2383 8.1623 -1.6480 0.9633
-4.5281 8.0040 -1.6478 0.9633
-5.3606 7.4685 -1.6473 0.9633
-5.8814 7.0631 -1.6469 0.9633
-6.3717 6.6217 -1.6466 0.9633
-6.6047 6.3881 -1.6464 0.9633
-6.8291 6.1463 -1.6463 0.9634
-7.0447 5.8967 -1.6461 0.9634
-7.2512 5.6395 -1.6460 0.9634
-8.8591 4.6290 -1.7911 0.9602
-9.8377 1.9355 -1.7966 0.9601
-9.9004 1.5811 -1.7965 0.9601
-2.0521 0.1781 -0.3691 0.9917
-2.0422 0.1035 -0.3664 0.9917
-2.0396 -0.2643 -0.3685 0.9917
-9.8231 -1.9982 -1.7962 0.9601
-9.6546 -2.6978 -1.7962 0.9601
-9.4364 -3.3837 -1.7963 0.9601
-9.0188 -4.3789 -1.7964 0.9601
-8.0937 -5.9201 -1.7968 0.9601
-7.1648 -7.0193 -1.7973 0.9601
-6.6437 -7.5163 -1.7975 0.9601
-5.7985 -8.1889 -1.7979 0.9600
-5.5013 -8.3925 -1.7981 0.9600
-4.8858 -8.7671 -1.7984 0.9600
-4.5684 -8.9377 -1.7986 0.9600
-4.2450 -9.0967 -1.7987 0.9600
-3.9162 -9.2442 -1.7989 0.9600
-2.4135 -6.3198 -1.2122 0.9729
-1.8435 -6.1108 -1.1437 0.9744
-1.3807 -6.1400 -1.1277 0.9748
-0.6967 -6.1129 -1.1024 0.9753
-0.4745 -6.1041 -1.1936 0.9754
-0.2544 -6.1003 -1.1903 0.9754
-0.0352 -6.0990 -1.1891 0.9755
0.4040 -6.1091 -1.1936 0.9754
1.0731 -6.1139 -1.2102 0.9750
1.3153 -6.1814 -1.2321 0.9746
1.5492 -6.1815 -1.2424 0.9744
3.1997 -8.6776 -1.8031 0.9630
3.5095 -8.5581 -1.8033 0.9630
3.8149 -8.4275 -1.8035 0.9630
4.1154 -8.2859 -1.8037 0.9630
4.7002 -7.9709 -1.8040 0.9630
5.2610 -7.6147 -1.8044 0.9630
6.0508 -7.0070 -1.8049 0.9630
6.5392 -6.5560 -1.8052 0.9630
6.7709 -6.3176 -1.8054 0.9630
6.9939 -6.0710 -1.8055 0.9630
7.2079 -5.8165 -1.8057 0.9630
7.7932 -5.0090 -1.8061 0.9629
8.4321 -3.8431 -1.8066 0.9629
8.5651 -3.5382 -1.8067 0.9629
8.6871 -3.2286 -1.8068 0.9629
8.8973 -2.5973 -1.8070 0.9629
8.9852 -2.2763 -1.8070 0.9629
9.1260 -1.6259 -1.8072 0.9629
9.1788 -1.2974 -1.8072 0.9629
9.2198 -0.9671 -1.8073 0.9629
9.2658 -0.3031 -1.8074 0.9629
9.2452 0.6948 -1.8075 0.9629
9.2143 1.0262 -1.8075 0.9629
9.0506 2.0108 -1.8075 0.9629
8.7817 2.9721 -1.8074 0.9629
8.6692 3.2853 -1.8074 0.9629
8.5454 3.5943 -1.8073 0.9629
8.4107 3.8986 -1.8073 0.9629
7.9903 4.4261 -1.7808 0.9635
7.1083 4.6334 -1.6542 0.9660
6.9371 4.8854 -1.6541 0.9660
6.7569 5.1310 -1.6541 0.9660
6.5680 5.3700 -1.6540 0.9660
6.1651 5.8267 -1.6538 0.9660
5.9516 6.0439 -1.6537 0.9660
5.5019 6.4544 -1.6535 0.9660
5.0239 6.8316 -1.6532 0.9660
4.5201 7.1733 -1.6530 0.9660
4.2594 7.3303 -1.6528 0.9660
3.4457 7.7437 -1.6524 0.9660
2.8807 7.9695 -1.6521 0.9661
2.3011 8.1541 -1.6518 0.9661
1.7098 8.2965 -1.6514 0.9661
1.1099 8.3961 -1.6511 0.9661
0.2008 8.4641 -1.6506 0.9661
-0.1031 8.4649 -1.6504 0.9661
-0.7100 8.4339 -1.6501 0.9661
-1.6121 8.3060 -1.6495 0.9661
-1.9090 8.2419 -1.6493 0.9661
-2.2034 8.1672 -1.6492 0.9661
-2.7831 7.9863 -1.6488 0.9661
-3.0676 7.8805 -1.6486 0.9661
-3.3482 7.7645 -1.6485 0.9661
-3.8958 7.5027 -1.6481 0.9661
-4.4232 7.2024 -1.6478 0.9661
-4.6784 7.0382 -1.6476 0.9661
-4.9275 6.8651 -1.6475 0.9661
-6.0714 5.8723 -1.6467 0.9662
-6.8471 4.9412 -1.6462 0.9662
-7.1829 4.4366 -1.6459 0.9662
-7.7220 4.3947 -1.7322 0.9644
-8.1550 4.2611 -1.7938 0.9632
-8.3204 3.9741 -1.7976 0.9631
-8.4572 3.6726 -1.7975 0.9631
-8.5830 3.3665 -1.7974 0.9631
-1.7561 0.4786 -0.3548 0.9926
-1.7358 0.4067 -0.3476 0.9928
-1.7073 0.1481 -0.3341 0.9930
-1.7072 0.0252 -0.3329 0.9931
-1.7084 -0.0976 -0.3336 0.9931
-1.7031 -0.2207 -0.3348 0.9930
-1.6971 -0.2822 -0.3354 0.9930
-1.7395 -0.4194 -0.3488 0.9927
-8.6754 -3.1108 -1.7968 0.9631
-8.4302 -3.7253 -1.7968 0.9631
-8.2913 -4.0257 -1.7969 0.9631
-7.8113 -4.8942 -1.7971 0.9631
-7.6309 -5.1717 -1.7972 0.9631
-7.2409 -5.7064 -1.7973 0.9631
-6.1075 -6.9097 -1.7979 0.9631
-5.5968 -7.3311 -1.7981 0.9631
-5.3304 -7.5279 -1.7983 0.9631
-5.0572 -7.7150 -1.7984 0.9631
-4.7774 -7.8922 -1.7986 0.9631
-4.4913 -8.0592 -1.7987 0.9631
-4.1995 -8.2159 -1.7989 0.9631
-3.5999 -8.4976 -1.7992 0.9631
-2.3963 -6.2745 -1.3094 0.9730
-1.8436 -6.1109 -1.2444 0.9743
-1.6067 -6.1111 -1.2319 0.9746
-1.1466 -6.1170 -1.2133 0.9750
-0.9196 -6.1101 -1.2046 0.9751
-0.6961 -6.1079 -1.1985 0.9753
-0.2546 -6.1060 -1.2884 0.9753
0.1840 -6.1049 -1.2876 0.9753
1.5484 -6.1785 -1.3428 0.9743
2.6686 -8.1245 -1.8028 0.9656
2.9588 -8.0243 -1.8030 0.9656
3.2453 -7.9137 -1.8032 0.9656
4.0784 -7.5211 -1.8037 0.9656
4.6084 -7.2104 -1.8040 0.9656
4.8646 -7.0410 -1.8042 0.9656
5.1147 -6.8625 -1.8044 0.9656
5.3582 -6.6750 -1.8045 0.9656
5.8243 -6.2744 -1.8048 0.9656
6.0463 -6.0618 -1.8050 0.9656
6.4667 -5.6133 -1.8053 0.9656
6.6645 -5.3780 -1.8054 0.9656
7.5202 -4.1029 -1.8060 0.9656
7.6631 -3.8306 -1.8061 0.9656
8.1342 -2.6950 -1.8065 0.9656
8.2260 -2.4013 -1.8066 0.9656
8.5509 -0.5875 -1.8070 0.9656
8.5714 0.0275 -1.8070 0.9656
8.5475 0.6424 -1.8071 0.9656
8.5190 0.9488 -1.8071 0.9656
8.4795 1.2540 -1.8071 0.9656
8.4290 1.5575 -1.8071 0.9656
8.3676 1.8591 -1.8071 0.9656
8.2954 2.1583 -1.8071 0.9656
7.9006 3.3231 -1.8069 0.9656
7.7761 3.6045 -1.8069 0.9656
7.6414 3.8811 -1.8068 0.9656
7.0907 4.2674 -1.7447 0.9667
6.4137 4.5168 -1.6538 0.9684
5.8901 5.1794 -1.6536 0.9684
5.7001 5.3872 -1.6535 0.9684
5.2983 5.7816 -1.6533 0.9685
5.0870 5.9677 -1.6532 0.9685
4.6451 6.3165 -1.6529 0.9685
3.6921 6.9142 -1.6525 0.9685
3.4413 7.0417 -1.6523 0.9685
3.1860 7.1601 -1.6522 0.9685
2.9267 7.2692 -1.6520 0.9685
2.6637 7.3690 -1.6519 0.9685
1.3045 7.7226 -1.6511 0.9685
1.0263 7.7637 -1.6510 0.9685
0.7469 7.7949 -1.6508 0.9685
0.4666 7.8159 -1.6507 0.9685
0.1857 7.8268 -1.6505 0.9685
-0.0954 7.8277 -1.6504 0.9685
-0.2209 4.5910 -0.9690 0.9814
-0.3855 4.5796 -0.9689 0.9814
-0.9360 7.7697 -1.6499 0.9685
-1.2142 7.7304 -1.6497 0.9685
-1.4908 7.6810 -1.6495 0.9685
-1.7654 7.6218 -1.6494 0.9685
-2.0376 7.5528 -1.6492 0.9685
-2.3072 7.4740 -1.6490 0.9685
-2.5737 7.3856 -1.6489 0.9685
-2.8369 7.2878 -1.6487 0.9685
-3.0964 7.1806 -1.6486 0.9685
-3.3518 7.0641 -1.6484 0.9685
-3.6029 6.9386 -1.6482 0.9685
-3.8493 6.8041 -1.6481 0.9685
-4.0906 6.6609 -1.6479 0.9686
-4.5572 6.3492 -1.6476 0.9686
-5.4171 5.6296 -1.6471 0.9686
-6.1651 4.7949 -1.6466 0.9686
-6.9108 4.2685 -1.7124 0.9673
-7.9387 3.1138 -1.7978 0.9657
-1.6130 0.5025 -0.3562 0.9931
-1.5992 0.4358 -0.3494 0.9932
-1.5663 0.3082 -0.3365 0.9935
-1.5642 0.2498 -0.3340 0.9935
-1.5696 0.1932 -0.3334 0.9936
-1.5727 0.1365 -0.3328 0.9936
-1.5740 0.0798 -0.3323 0.9936
-1.5723 -0.1466 -0.3329 0.9936
-1.5631 -0.2599 -0.3341 0.9935
-1.6017 -0.4476 -0.3506 0.9932
-1.6275 -0.5836 -0.3645 0.9930
-7.6690 -3.7235 -1.7973 0.9658
-7.2250 -4.5269 -1.7975 0.9657
-6.8822 -5.0340 -1.7976 0.9657
-6.6974 -5.2780 -1.7977 0.9657
-6.3021 -5.7455 -1.7979 0.9657
-6.0921 -5.9684 -1.7980 0.9657
-5.6489 -6.3908 -1.7982 0.9657
-5.4162 -6.5899 -1.7983 0.9657
-5.1765 -6.7806 -1.7984 0.9657
-4.9301 -6.9625 -1.7986 0.9657
-4.6773 -7.1355 -1.7987 0.9657
-4.4185 -7.2993 -1.7988 0.9657
-4.1540 -7.4538 -1.7990 0.9657
-3.8840 -7.5987 -1.7991 0.9657
-3.6090 -7.7339 -1.7992 0.9657
-3.3294 -7.8591 -1.7994 0.9657
-2.3984 -6.2802 -1.4172 0.9729
-2.0856 -6.1106 -1.3612 0.9740
-1.8436 -6.1109 -1.3456 0.9742
-1.3755 -6.1169 -1.3218 0.9747
-1.1457 -6.1121 -1.3110 0.9749
-0.9204 -6.1154 -1.3038 0.9750
-0.6967 -6.1131 -1.2971 0.9752
-0.4754 -6.1161 -1.3912 0.9752
-0.2549 -6.1127 -1.3875 0.9752
0.1841 -6.1089 -1.3860 0.9752
0.8481 -6.1137 -1.3998 0.9750
1.3010 -6.1142 -1.4177 0.9747
1.5550 -6.2048 -1.4507 0.9741
3.2791 -7.2438 -1.8033 0.9679
3.5373 -7.1221 -1.8034 0.9679
3.7910 -6.9911 -1.8036 0.9679
4.2836 -6.7023 -1.8039 0.9679
4.7542 -6.3787 -1.8042 0.9679
4.9805 -6.2045 -1.8044 0.9679
5.4137 -5.8321 -1.8046 0.9679
6.0106 -5.2175 -1.8050 0.9679
6.1945 -4.9987 -1.8052 0.9679
6.3703 -4.7734 -1.8053 0.9679
6.9897 -3.8135 -1.8057 0.9679
7.2461 -3.3025 -1.8059 0.9679
7.4651 -2.7744 -1.8061 0.9679
7.5602 -2.5048 -1.8062 0.9679
7.6455 -2.2319 -1.8063 0.9679
7.7210 -1.9561 -1.8063 0.9679
7.8420 -1.3972 -1.8065 0.9679
7.8873 -1.1148 -1.8065 0.9679
7.9225 -0.8310 -1.8066 0.9679
7.9474 -0.5461 -1.8066 0.9679
7.9620 -0.2605 -1.8066 0.9679
7.9664 0.0255 -1.8067 0.9679
7.9604 0.3115 -1.8067 0.9679
7.9442 0.5970 -1.8067 0.9679
7.9177 0.8818 -1.8067 0.9679
7.8341 1.4476 -1.8067 0.9679
7.6329 2.2814 -1.8067 0.9679
7.4493 2.8230 -1.8066 0.9679
7.3430 3.0885 -1.8066 0.9679
7.2272 3.3500 -1.8066 0.9679
7.1021 3.6072 -1.8065 0.9679
6.8038 4.0948 -1.8009 0.9680
6.4661 4.2149 -1.7505 0.9688
5.9870 4.2164 -1.6607 0.9704
5.8063 4.4092 -1.6534 0.9705
5.6441 4.6146 -1.6534 0.9705
5.4745 4.8140 -1.6533 0.9705
4.9245 5.3737 -1.6530 0.9705
4.5257 5.7125 -1.6528 0.9706
4.1037 6.0217 -1.6526 0.9706
3.6605 6.2997 -1.6524 0.9706
3.1987 6.5452 -1.6521 0.9706
2.9614 6.6553 -1.6520 0.9706
1.9778 7.0083 -1.6515 0.9706
1.7248 7.0742 -1.6513 0.9706
1.4696 7.1309 -1.6512 0.9706
1.2126 7.1785 -1.6510 0.9706
0.9540 7.2167 -1.6509 0.9706
0.1726 7.2755 -1.6505 0.9706
-0.2153 4.4735 -1.0157 0.9818
-1.1287 7.1861 -1.6497 0.9706
-1.3858 7.1403 -1.6495 0.9706
-2.1448 6.9480 -1.6491 0.9706
-3.1160 6.5671 -1.6485 0.9706
-3.5785 6.3255 -1.6482 0.9706
-4.0224 6.0514 -1.6479 0.9706
-4.2367 5.9026 -1.6478 0.9706
-4.4455 5.7463 -1.6476 0.9706
-4.8455 5.4117 -1.6474 0.9706
-5.0363 5.2338 -1.6472 0.9706
-5.3980 4.8583 -1.6470 0.9707
-5.5685 4.6611 -1.6469 0.9707
-5.7319 4.4579 -1.6468 0.9707
-6.3208 4.2249 -1.7242 0.9693
-7.2727 3.1583 -1.7982 0.9680
-1.4942 0.5860 -0.3640 0.9934
-1.4872 0.5226 -0.3575 0.9936
-1.4675 0.3999 -0.3449 0.9938
-1.4552 0.3410 -0.3390 0.9939
-1.4420 0.2837 -0.3333 0.9940
-1.4491 0.2314 -0.3328 0.9940
-1.4542 0.1790 -0.3323 0.9940
-1.4581 -0.0308 -0.3308 0.9940
-1.4584 -0.0833 -0.3313 0.9940
-1.4569 -0.1358 -0.3318 0.9940
-1.4534 -0.1883 -0.3324 0.9940
-1.4480 -0.2408 -0.3329 0.9940
-1.4440 -0.2937 -0.3342 0.9940
-1.4575 -0.3514 -0.3400 0.9939
-1.4695 -0.4106 -0.3460 0.9938
-7.1304 -3.4620 -1.7976 0.9680
-7.0017 -3.7159 -1.7977 0.9680
-6.5624 -4.4475 -1.7978 0.9680
-6.3987 -4.6804 -1.7979 0.9680
-6.2269 -4.9073 -1.7980 0.9680
-6.0470 -5.1279 -1.7981 0.9680
-5.8593 -5.3419 -1.7982 0.9680
-5.6641 -5.5491 -1.7983 0.9680
-5.0356 -6.1269 -1.7986 0.9680
-4.8127 -6.3041 -1.7987 0.9680
-3.3553 -7.1902 -1.7994 0.9680
-1.8436 -6.1109 -1.4476 0.9742
-1.3750 -6.1146 -1.4213 0.9746
-1.1467 -6.1175 -1.4115 0.9748
-0.9212 -6.1208 -1.4037 0.9749
-0.6975 -6.1198 -1.3969 0.9751
-0.2552 -6.1208 -1.4878 0.9751
1.3010 -6.1142 -1.5182 0.9746
1.8042 -7.1989 -1.8024 0.9699
2.0616 -7.1301 -1.8026 0.9699
2.5683 -6.9650 -1.8029 0.9699
3.0619 -6.7640 -1.8032 0.9699
3.7722 -6.3972 -1.8036 0.9699
4.2221 -6.1110 -1.8039 0.9699
4.8557 -5.6230 -1.8043 0.9699
5.0548 -5.4455 -1.8045 0.9699
5.4332 -5.0695 -1.8047 0.9699
5.6121 -4.8715 -1.8048 0.9699
5.9479 -4.4569 -1.8051 0.9699
6.3937 -3.7923 -1.8054 0.9699
6.5261 -3.5606 -1.8055 0.9699
6.8721 -2.8388 -1.8058 0.9699
6.9698 -2.5904 -1.8058 0.9699
7.1383 -2.0838 -1.8060 0.9699
7.2088 -1.8263 -1.8061 0.9699
7.3217 -1.3045 -1.8062 0.9699
7.3640 -1.0408 -1.8062 0.9699
7.4337 -0.2432 -1.8063 0.9698
7.4377 0.0238 -1.8064 0.9698
7.3580 1.0881 -1.8064 0.9698
7.3142 1.3516 -1.8064 0.9698
7.2609 1.6132 -1.8064 0.9698
7.1983 1.8728 -1.8064 0.9698
7.1263 2.1300 -1.8064 0.9698
7.0452 2.3844 -1.8064 0.9698
6.7477 3.1278 -1.8063 0.9698
6.6309 3.3679 -1.8062 0.9699
6.2120 4.0492 -1.8009 0.9699
5.5451 4.2108 -1.6910 0.9717
5.1114 4.4946 -1.6530 0.9724
4.7753 4.8493 -1.6529 0.9724
4.5979 5.0173 -1.6528 0.9724
4.0312 5.4816 -1.6525 0.9724
3.8316 5.6224 -1.6524 0.9724
3.6270 5.7560 -1.6523 0.9724
3.4179 5.8821 -1.6522 0.9724
3.2043 6.0006 -1.6521 0.9724
2.9866 6.1113 -1.6520 0.9724
2.3118 6.3955 -1.6516 0.9724
2.0806 6.4739 -1.6515 0.9724
1.8467 6.5439 -1.6514 0.9724
1.6105 6.6054 -1.6512 0.9724
0.1612 6.7937 -1.6504 0.9724
-0.0828 6.7945 -1.6503 0.9724
-0.8125 6.7445 -1.6498 0.9724
-1.2941 6.6676 -1.6495 0.9724
-2.9099 6.1327 -1.6486 0.9724
-3.3418 5.9071 -1.6483 0.9724
-4.1515 5.3663 -1.6478 0.9725
-4.3412 5.2134 -1.6476 0.9725
-4.7033 4.8878 -1.6474 0.9725
-4.8754 4.7155 -1.6473 0.9725
-5.0412 4.5372 -1.6472 0.9725
-5.2005 4.3530 -1.6471 0.9725
-5.4327 4.2252 -1.6715 0.9721
-5.8358 4.2115 -1.7478 0.9708
-6.1380 4.1027 -1.7930 0.9701
-6.5637 3.4297 -1.7986 0.9700
-6.6823 3.1917 -1.7985 0.9700
-1.3743 0.5391 -0.3585 0.9939
-1.3699 0.4813 -0.3526 0.9940
-1.3491 0.2154 -0.3318 0.9944
-1.3540 0.1666 -0.3313 0.9944
-1.3570 0.1177 -0.3308 0.9944
-1.3583 0.0689 -0.3303 0.9944
-1.3582 -0.0776 -0.3304 0.9944
-1.3566 -0.1265 -0.3309 0.9944
-1.3410 -0.2728 -0.3323 0.9944
-1.3570 -0.3792 -0.3422 0.9942
-1.3649 -0.4348 -0.3479 0.9941
-6.6595 -3.2334 -1.7979 0.9700
-6.5393 -3.4704 -1.7980 0.9700
-6.2738 -3.9309 -1.7981 0.9700
-6.1289 -4.1537 -1.7981 0.9700
-5.9761 -4.3712 -1.7982 0.9700
-5.6475 -4.7891 -1.7983 0.9700
-5.1007 -5.3693 -1.7986 0.9700
-4.9049 -5.5492 -1.7987 0.9700
-4.7029 -5.7220 -1.7988 0.9700
-4.4947 -5.8875 -1.7989 0.9700
-4.0612 -6.1955 -1.7991 0.9700
-3.6067 -6.4718 -1.7994 0.9700
-3.3723 -6.5975 -1.7995 0.9700
-3.1335 -6.7148 -1.7996 0.9700
-1.8436 -6.1109 -1.5502 0.9741
-1.6067 -6.1112 -1.5346 0.9743
-1.1468 -6.1180 -1.5117 0.9747
-0.2897 -6.9469 -1.8012 0.9717
0.2095 -6.9509 -1.8015 0.9717
0.4589 -6.9395 -1.8017 0.9717
0.7078 -6.9191 -1.8018 0.9717
1.0731 -6.1140 -1.6081 0.9747
2.4076 -6.5294 -1.8028 0.9717
2.6407 -6.4392 -1.8030 0.9717
3.0963 -6.2342 -1.8033 0.9716
3.3184 -6.1195 -1.8034 0.9716
3.5362 -5.9969 -1.8035 0.9716
3.7494 -5.8665 -1.8037 0.9716
3.9579 -5.7286 -1.8038 0.9716
4.1613 -5.5832 -1.8039 0.9716
4.3593 -5.4307 -1.8041 0.9716
4.5518 -5.2710 -1.8042 0.9716
4.9189 -4.9315 -1.8044 0.9716
5.0931 -4.7521 -1.8046 0.9716
5.2607 -4.5665 -1.8047 0.9716
5.5755 -4.1778 -1.8049 0.9716
5.9933 -3.5548 -1.8052 0.9716
6.5332 -2.4281 -1.8056 0.9716
6.6164 -2.1921 -1.8057 0.9716
6.6911 -1.9533 -1.8057 0.9716
6.8629 -1.2227 -1.8059 0.9716
6.9333 -0.7272 -1.8060 0.9716
6.9551 -0.4779 -1.8060 0.9716
6.9679 -0.2279 -1.8061 0.9716
6.9717 0.0223 -1.8061 0.9716
6.9665 0.2726 -1.8061 0.9716
6.9522 0.5225 -1.8061 0.9716
6.9290 0.7717 -1.8061 0.9716
6.8969 1.0199 -1.8061 0.9716
6.8558 1.2668 -1.8061 0.9716
6.8059 1.5121 -1.8061 0.9716
6.7472 1.7554 -1.8061 0.9716
6.6037 2.2350 -1.8061 0.9716
6.5192 2.4705 -1.8061 0.9716
6.4262 2.7029 -1.8060 0.9716
6.3249 2.9318 -1.8060 0.9716
5.6849 4.0035 -1.8013 0.9717
5.5196 4.1915 -1.7955 0.9718
5.1439 4.2056 -1.7213 0.9729
4.8008 4.2215 -1.6561 0.9739
4.6367 4.3822 -1.6528 0.9740
4.4762 4.5456 -1.6527 0.9740
3.9609 4.9996 -1.6524 0.9740
3.7787 5.1383 -1.6523 0.9740
3.5916 5.2703 -1.6522 0.9740
2.7996 5.7287 -1.6518 0.9740
2.3811 5.9140 -1.6516 0.9740
2.1671 5.9952 -1.6515 0.9740
1.2864 6.2418 -1.6510 0.9740
1.0614 6.2835 -1.6509 0.9740
0.8351 6.3171 -1.6507 0.9740
0.3797 6.3597 -1.6505 0.9740
-0.0776 6.3695 -1.6502 0.9740
-0.2150 4.4674 -1.1587 0.9817
-0.3762 4.4686 -1.1617 0.9816
-0.7617 6.3227 -1.6498 0.9740
-1.2132 6.2508 -1.6496 0.9740
-1.4367 6.2027 -1.6494 0.9740
-1.6583 6.1467 -1.6493 0.9740
-1.8777 6.0827 -1.6492 0.9740
-2.3089 5.9313 -1.6489 0.9740
-2.7280 5.7495 -1.6486 0.9740
-2.9324 5.6474 -1.6485 0.9740
-3.1330 5.5381 -1.6484 0.9741
-3.5218 5.2982 -1.6481 0.9741
-3.7094 5.1680 -1.6480 0.9741
-4.0701 4.8879 -1.6478 0.9741
-4.2426 4.7383 -1.6477 0.9741
-4.4096 4.5826 -1.6475 0.9741
-4.5710 4.4211 -1.6474 0.9741
-5.0404 4.2190 -1.7028 0.9732
-5.9081 3.6492 -1.7990 0.9717
-1.2893 0.5599 -0.3641 0.9942
-1.2890 0.5056 -0.3587 0.9943
-1.2874 0.4523 -0.3535 0.9944
-1.2846 0.4001 -0.3485 0.9945
-1.2899 0.1119 -0.3354 0.9947
-1.2910 0.0654 -0.3349 0.9947
-1.2909 0.0190 -0.3344 0.9947
-1.2910 -0.0273 -0.3345 0.9947
-1.2909 -0.0737 -0.3350 0.9947
-1.2790 -0.2602 -0.3381 0.9946
-1.2771 -0.3079 -0.3403 0.9946
-1.2813 -0.3580 -0.3446 0.9945
-1.2852 -0.4094 -0.3494 0.9944
-1.2892 -0.5697 -0.3651 0.9942
-6.0107 -3.4720 -1.7983 0.9717
-5.8824 -3.6857 -1.7983 0.9717
-5.7465 -3.8946 -1.7984 0.9717
-5.4527 -4.2971 -1.7985 0.9717
-5.1307 -4.6776 -1.7987 0.9717
-4.9597 -4.8590 -1.7987 0.9717
-4.7824 -5.0342 -1.7988 0.9717
-4.4093 -5.3649 -1.7990 0.9717
-4.0135 -5.6680 -1.7992 0.9717
-3.5969 -5.9421 -1.7994 0.9717
-3.3815 -6.0677 -1.7995 0.9717
-3.1617 -6.1856 -1.7996 0.9717
-1.8436 -6.1109 -1.6536 0.9740
-1.6067 -6.1112 -1.6370 0.9742
-1.5248 -6.7809 -1.8005 0.9717
-1.2806 -6.8318 -1.8007 0.9717
-0.7872 -6.9071 -1.8010 0.9717
-0.5069 -6.5208 -1.8012 0.9732
-0.2725 -6.5353 -1.8013 0.9732
0.6658 -6.5090 -1.8018 0.9732
0.8481 -6.1138 -1.6998 0.9747
1.0731 -6.1140 -1.7094 0.9746
1.5911 -6.3486 -1.8024 0.9732
2.2648 -6.1422 -1.8028 0.9732
2.9127 -5.8644 -1.8032 0.9732
3.3264 -5.6411 -1.8035 0.9732
3.5270 -5.5185 -1.8036 0.9732
3.7231 -5.3887 -1.8037 0.9732
3.9144 -5.2519 -1.8038 0.9732
4.6269 -4.6388 -1.8043 0.9732
4.7908 -4.4700 -1.8044 0.9732
5.3824 -3.7392 -1.8048 0.9732
5.5815 -3.3106 -1.7871 0.9734
5.9650 -2.7187 -1.8053 0.9732
6.1452 -2.2839 -1.8054 0.9732
6.2937 -1.8372 -1.8055 0.9732
6.4096 -1.3811 -1.8056 0.9732
6.4553 -1.1501 -1.8057 0.9732
6.5419 -0.4495 -1.8058 0.9732
6.5540 -0.2144 -1.8058 0.9732
6.5575 0.0210 -1.8059 0.9732
6.5392 0.4914 -1.8059 0.9732
6.4872 0.9594 -1.8059 0.9732
6.4016 1.4223 -1.8059 0.9732
6.3464 1.6512 -1.8059 0.9732
6.2830 1.8779 -1.8059 0.9732
6.2114 2.1022 -1.8059 0.9732
6.0444 2.5423 -1.8058 0.9732
5.9492 2.7576 -1.8058 0.9732
5.8462 2.9693 -1.8057 0.9732
5.7357 3.1772 -1.8057 0.9732
5.6178 3.3810 -1.8056 0.9732
5.3588 3.7739 -1.8050 0.9732
4.7767 4.2003 -1.7517 0.9740
