ply
format ascii 1.0
element vertex 1546
property float32 x
property float32 y
property float32 z
property float32 I
end_header
-4.1438 11.8912 5.5773 0.9464
-5.5635 11.7253 5.7482 0.9448
-7.1772 11.6869 6.0744 0.9418
-7.7711 11.6910 6.2176 0.9404
-54.6126 60.9934 36.2609 0.6990
-36.5849 -31.0241 21.2455 0.8107
-31.7227 -31.0784 19.6692 0.8234
-27.3496 -30.9419 18.2905 0.8347
-23.0269 -30.1625 16.8072 0.8470
-14.6080 -31.3038 15.3000 0.8597
-13.1391 -31.0151 14.9186 0.8630
-11.8646 -31.0668 14.7290 0.8646
-10.6421 -31.1809 14.5925 0.8658
-10.2759 -34.0617 15.7578 0.8559
-10.5319 -56.1880 25.3195 0.7787
-8.4379 -56.0630 25.1104 0.7803
-3.3269 -42.7979 18.2354 0.8298
-1.7851 -42.8085 18.2009 0.8301
-0.2471 -42.8192 18.1900 0.8302
4.3835 -42.8512 18.2983 0.8293
14.1472 -56.4502 24.7217 0.7765
16.3595 -56.5806 25.0200 0.7742
5.2623 11.8261 5.4986 0.9453
3.7926 11.8011 5.2656 0.9476
3.3411 11.8394 5.2258 0.9479
2.3949 11.6207 5.0402 0.9497
1.1323 11.8161 5.0425 0.9497
0.7079 11.8577 5.0461 0.9497
0.2805 11.8220 5.0234 0.9499
-0.5710 11.8665 5.0467 0.9497
-0.9993 11.8695 5.0600 0.9496
-1.4303 11.8725 5.0799 0.9494
-2.2617 11.6530 5.0426 0.9497
-3.1454 11.6591 5.1299 0.9489
-4.1438 11.8912 5.3493 0.9467
-6.1617 11.8665 5.6800 0.9435
-7.1772 11.6870 5.8261 0.9421
-55.2562 61.7122 35.1885 0.6977
-33.6640 -30.6911 19.3516 0.8204
-7.1274 -11.7744 5.8468 0.9419
-17.4345 -31.2842 15.2140 0.8559
-15.8473 -31.0037 14.7912 0.8596
-14.5356 -31.1485 14.6018 0.8612
-13.2543 -31.2871 14.4342 0.8627
-12.0623 -31.5845 14.3623 0.8634
-10.7829 -31.5933 14.1811 0.8650
-9.8096 -37.3108 16.3883 0.8456
-9.0668 -48.3716 20.9062 0.8074
-6.4382 -42.7762 18.3761 0.8286
-4.8765 -42.7871 18.2937 0.8293
-1.7924 -42.9854 17.5072 0.8304
1.2963 -43.0055 17.5082 0.8304
4.3977 -42.9904 17.5854 0.8298
5.9609 -42.9695 17.6530 0.8292
6.7349 11.5906 5.4550 0.9438
6.2239 11.6553 5.3767 0.9445
5.7777 11.8225 5.3547 0.9448
4.7628 11.8296 5.1893 0.9464
3.3303 11.8009 4.9897 0.9484
1.1360 11.8551 4.8463 0.9499
0.7079 11.8580 4.8340 0.9500
0.2805 11.8220 4.8121 0.9502
-0.1440 11.8249 4.8123 0.9502
-0.9960 11.8308 4.8313 0.9500
-1.8653 11.8759 4.8919 0.9494
-3.1454 11.6591 4.9141 0.9492
-3.6000 11.6622 4.9667 0.9487
-4.1438 11.8913 5.1243 0.9471
-5.1306 11.8981 5.2726 0.9456
-6.1688 11.8802 5.4473 0.9438
-6.7373 11.9092 5.5679 0.9426
-7.1772 11.6870 5.5810 0.9425
-7.7711 11.6911 5.7126 0.9412
-54.1920 70.0493 36.0395 0.6822
-59.4104 61.7411 34.8669 0.6907
-39.4699 -31.1053 20.4496 0.8049
-36.5186 -30.9678 19.4843 0.8132
-33.6640 -30.6911 18.5373 0.8214
-31.7225 -31.0782 18.0714 0.8255
-28.5035 -30.0042 16.8407 0.8363
-26.9298 -30.4670 16.5468 0.8390
-22.1291 -31.2517 15.5826 0.8476
-20.4929 -31.2630 15.2114 0.8509
-17.3803 -31.1870 14.5286 0.8571
-14.9661 -32.0711 14.4018 0.8583
-13.6865 -32.3074 14.2779 0.8594
-10.7829 -31.5933 13.5844 0.8657
-10.2472 -33.9666 14.4373 0.8579
-8.0296 -42.8380 17.7356 0.8284
-4.8928 -42.9298 17.5825 0.8298
-3.3266 -42.7937 16.7089 0.8317
-1.7850 -42.8044 16.6772 0.8320
1.2909 -42.8257 16.6786 0.8320
2.8329 -42.8363 16.7116 0.8317
5.9854 -43.1456 16.9564 0.8295
9.1852 -43.1678 17.1804 0.8274
12.4617 -43.0998 17.4650 0.8248
14.1351 -43.0334 17.6325 0.8233
15.8397 -42.9567 17.8227 0.8216
17.6126 -42.9485 18.0701 0.8193
6.7349 11.5906 5.2184 0.9441
6.2238 11.6551 5.1434 0.9449
5.7777 11.8225 5.1224 0.9451
4.2774 11.8333 4.8981 0.9474
3.3412 11.8398 4.7890 0.9486
2.8326 11.6177 4.6550 0.9500
2.3949 11.6207 4.6188 0.9503
1.9635 11.6237 4.5890 0.9507
0.7124 11.9324 4.6533 0.9500
0.2805 11.8220 4.6033 0.9505
-0.1454 11.9384 4.6477 0.9500
-0.5746 11.9413 4.6539 0.9500
-1.0056 11.9443 4.6661 0.9499
-1.4393 11.9473 4.6844 0.9497
-1.8770 11.9503 4.7090 0.9494
-3.6001 11.6623 4.7512 0.9490
-4.6151 11.8559 4.9526 0.9469
-5.1139 11.8593 5.0275 0.9461
-6.1690 11.8805 5.2111 0.9442
-6.7373 11.9092 5.3264 0.9430
-54.1495 75.4416 36.1497 0.6713
-55.0483 61.4800 32.1245 0.7017
-49.5969 35.7920 23.8094 0.7691
-30.8139 -30.1880 16.7923 0.8310
-29.1824 -30.7190 16.4939 0.8337
-27.5900 -31.2139 16.2171 0.8363
-25.6652 -31.2272 15.7349 0.8407
-23.8493 -31.2397 15.2997 0.8448
-21.9294 -30.9695 14.7721 0.8497
-20.4383 -31.1795 14.5127 0.8521
-19.1248 -31.5940 14.3766 0.8534
-15.5594 -33.3426 14.3232 0.8539
-11.2257 -29.3940 12.2485 0.8737
-10.4436 -34.6175 14.0757 0.8562
-10.3116 -39.2202 15.7864 0.8402
-8.0690 -43.0482 17.0495 0.8286
-6.4807 -43.0592 16.9508 0.8295
-3.2999 -42.4510 15.8323 0.8338
-1.7969 -43.0916 16.0368 0.8319
-0.2451 -42.4722 15.7928 0.8342
1.2995 -43.1130 16.0382 0.8319
4.3480 -42.5040 15.8869 0.8333
5.9853 -43.1455 16.1966 0.8304
7.4467 -42.4271 16.0170 0.8321
10.7583 -42.9278 16.4556 0.8279
14.1906 -43.2025 16.9085 0.8236
19.5079 -43.0947 17.5894 0.8172
6.7349 11.5907 4.9845 0.9444
6.2236 11.6548 4.9128 0.9452
5.7779 11.8229 4.8930 0.9454
5.2625 11.8265 4.8132 0.9463
4.7473 11.7911 4.7263 0.9472
4.3042 11.9075 4.7080 0.9474
3.3622 11.9141 4.6031 0.9485
2.8326 11.6177 4.4464 0.9502
1.5370 11.6267 4.3608 0.9512
0.7124 11.9324 4.4448 0.9503
-2.2617 11.6530 4.4138 0.9506
-3.1454 11.6592 4.4903 0.9498
-3.6001 11.6623 4.5383 0.9492
-5.1308 11.8985 4.8181 0.9462
-7.1773 11.6870 5.0997 0.9432
-54.2421 75.5711 34.5889 0.6723
-54.0867 64.9546 31.4292 0.6972
-63.8666 61.7721 33.0382 0.6844
-49.5975 35.7924 22.7428 0.7703
-53.0252 35.4426 23.7154 0.7617
-39.8343 -31.3925 18.8584 0.8054
-33.2894 -30.3496 16.7502 0.8251
-23.7594 -31.1220 14.5590 0.8461
-20.9152 -31.9072 14.1859 0.8498
-19.2890 -31.8652 13.8503 0.8530
-17.0375 -33.3323 13.9193 0.8524
-14.1292 -33.3524 13.4685 0.8568
-11.2465 -29.4484 11.7213 0.8741
-10.4860 -34.7580 13.4995 0.8565
-8.0601 -43.0007 16.2675 0.8297
-6.4068 -42.5683 16.0066 0.8322
-3.2880 -42.2980 15.0436 0.8352
-1.7642 -42.3086 15.0151 0.8355
-0.2344 -40.6187 14.4031 0.8417
1.2808 -42.4929 15.0742 0.8349
2.8109 -42.5035 15.1041 0.8346
5.8766 -42.3616 15.1647 0.8340
9.1852 -43.1677 15.6493 0.8292
10.6631 -42.5478 15.5534 0.8301
15.6654 -42.4841 16.0558 0.8252
17.6197 -42.9659 16.4664 0.8211
21.4852 -43.2586 17.1266 0.8147
6.2235 11.6545 4.6848 0.9455
5.8142 11.8971 4.6954 0.9454
5.2955 11.9007 4.6187 0.9462
4.7473 11.7911 4.5071 0.9475
4.3043 11.9075 4.4896 0.9477
2.8326 11.6177 4.2402 0.9505
2.3949 11.6208 4.2072 0.9509
1.9635 11.6238 4.1800 0.9512
1.1360 11.8551 4.2229 0.9507
0.7124 11.9324 4.2386 0.9505
-1.4393 11.9473 4.2670 0.9502
-1.8770 11.9504 4.2894 0.9500
-2.2617 11.6530 4.2091 0.9509
-2.6998 11.6561 4.2425 0.9505
-3.1454 11.6592 4.2820 0.9500
-3.6001 11.6623 4.3278 0.9495
-4.1699 11.9662 4.4933 0.9476
-4.6594 11.9696 4.5545 0.9469
-5.1361 11.9107 4.5993 0.9464
-5.6473 11.9021 4.6713 0.9456
-6.7375 11.9096 4.8519 0.9436
-54.3471 75.7173 33.0484 0.6733
-54.2814 70.1648 31.4556 0.6863
-59.4108 61.7415 30.3822 0.6951
-63.8668 61.7722 31.5059 0.6859
-49.5361 44.5834 23.6312 0.7536
-49.5580 41.4819 22.9161 0.7601
-49.5786 38.5590 22.2708 0.7660
-49.7130 35.8758 21.7383 0.7709
-53.0362 35.4500 22.6201 0.7628
-31.8310 -31.1844 15.8007 0.8277
-29.6390 -31.1996 15.2591 0.8331
-27.4083 -31.0084 14.6746 0.8389
-25.8003 -31.3915 14.4081 0.8416
-22.4438 -31.6961 13.7713 0.8480
-18.5699 -33.3216 13.5263 0.8505
-17.0375 -33.3322 13.2736 0.8531
-14.1292 -33.3523 12.8437 0.8575
-11.2440 -29.4419 11.1751 0.8748
-10.7828 -31.5931 11.8370 0.8679
-10.3298 -39.2892 14.4049 0.8416
-6.3630 -42.2767 15.1596 0.8341
-4.8372 -42.4420 15.1468 0.8342
-3.1913 -41.0539 13.8985 0.8404
-0.2374 -41.1311 13.8830 0.8406
1.2395 -41.1235 13.8865 0.8406
4.1957 -41.0157 13.9160 0.8402
19.5760 -43.2452 16.0222 0.8184
26.7340 -41.8292 16.7556 0.8109
12.6653 -11.8174 5.8467 0.9295
6.7349 11.5907 4.5246 0.9450
6.2234 11.6543 4.4593 0.9458
5.2955 11.9007 4.3965 0.9465
4.3043 11.9076 4.2736 0.9479
3.3622 11.9141 4.1784 0.9491
2.8326 11.6178 4.0361 0.9508
1.9635 11.6238 3.9789 0.9515
1.5371 11.6267 3.9585 0.9517
1.1360 11.8552 4.0197 0.9510
0.7124 11.9325 4.0347 0.9508
-0.1454 11.9384 4.0298 0.9508
-1.0055 11.9444 4.0458 0.9507
-1.4393 11.9474 4.0617 0.9505
-1.8770 11.9504 4.0830 0.9502
-2.2617 11.6530 4.0066 0.9511
-2.6997 11.6561 4.0384 0.9507
-3.1454 11.6592 4.0759 0.9503
-3.6001 11.6623 4.1196 0.9498
-5.1362 11.9110 4.3781 0.9467
-6.2209 11.9804 4.5563 0.9446
-6.7798 11.9843 4.6474 0.9435
-7.1773 11.6871 4.6291 0.9437
-54.4649 70.4021 30.0432 0.6868
-55.2568 61.7129 27.9592 0.7049
-59.4109 61.7416 28.9203 0.6965
-49.5754 41.4965 21.8211 0.7611
-49.9490 38.8471 21.3576 0.7656
-49.7136 35.8762 20.6926 0.7720
-53.7537 35.9296 21.8230 0.7611
-38.8158 -30.5898 16.6807 0.8117
-31.5280 -30.8877 14.8973 0.8300
-27.9779 -31.6526 14.2588 0.8367
-26.0384 -31.6812 13.8414 0.8410
-24.1935 -31.6906 13.4571 0.8451
-22.4488 -31.7031 13.1116 0.8487
-19.3291 -31.9316 12.5987 0.8542
-18.5699 -33.3216 12.8754 0.8513
-17.0375 -33.3322 12.6349 0.8538
-14.1292 -33.3523 12.2257 0.8582
-11.2411 -29.4343 10.6346 0.8755
-7.6297 -40.7045 13.9780 0.8396
-4.6693 -40.9690 13.9176 0.8402
-3.2339 -41.6023 13.3795 0.8392
-0.2421 -41.9597 13.4540 0.8384
1.2651 -41.9701 13.4633 0.8383
2.7763 -41.9806 13.4899 0.8380
8.7987 -41.3513 13.5556 0.8373
10.4369 -41.6452 13.7659 0.8350
11.9425 -41.3041 13.7861 0.8348
15.0673 -40.8620 13.9642 0.8328
16.7983 -40.9625 14.1956 0.8303
23.4649 -43.2722 15.7833 0.8132
24.7810 -42.0254 15.6431 0.8147
26.8687 -42.0398 15.9974 0.8109
40.9380 15.5142 14.0372 0.8320
36.6266 15.4056 12.7404 0.8463
36.8247 17.0695 13.0142 0.8432
37.0602 18.8232 13.3277 0.8398
37.3365 20.6820 13.6855 0.8359
6.7350 11.5907 4.2983 0.9452
6.2232 11.6541 4.2361 0.9460
5.2955 11.9007 4.1765 0.9468
4.3043 11.9076 4.0598 0.9482
3.8279 11.9109 4.0115 0.9488
3.3622 11.9141 3.9693 0.9493
2.8326 11.6178 3.8342 0.9510
2.3949 11.6208 3.8044 0.9514
0.7112 11.9127 3.8265 0.9511
-0.5746 11.9414 3.8333 0.9510
-1.0056 11.9444 3.8434 0.9509
-1.8654 11.8760 3.8546 0.9508
-2.6998 11.6561 3.8363 0.9510
-3.1454 11.6592 3.8720 0.9505
-6.7798 11.9843 4.4149 0.9438
-54.3473 75.7176 29.8843 0.6760
-54.2776 70.1599 28.4419 0.6889
-49.4890 51.4305 22.8852 0.7410
-49.5993 35.7937 19.6121 0.7734
-62.3908 35.5076 23.0176 0.7397
-39.5030 -31.1313 16.1266 0.8096
-33.9266 -30.9305 14.7204 0.8246
-32.1068 -31.4547 14.4117 0.8279
-26.0381 -31.6809 13.1487 0.8418
-24.2290 -31.7371 12.8026 0.8456
-20.9151 -31.9070 12.2326 0.8519
-18.5699 -33.3215 12.2312 0.8519
-15.5594 -33.3423 11.7975 0.8568
-14.1291 -33.3522 11.6140 0.8589
-10.7828 -31.5930 10.7037 0.8692
-10.7382 -40.8424 13.5406 0.8375
-9.3358 -41.5157 13.6439 0.8363
-7.7519 -41.3567 13.4914 0.8380
-6.3089 -41.9177 13.5917 0.8369
-3.2601 -41.9387 12.7842 0.8387
-0.2421 -41.9596 12.7523 0.8391
1.2651 -41.9700 12.7611 0.8390
2.7763 -41.9805 12.7863 0.8387
4.2955 -41.9911 12.8283 0.8382
5.8267 -42.0017 12.8871 0.8375
8.9417 -42.0233 13.0574 0.8356
13.8143 -42.0571 13.4536 0.8310
15.5123 -42.0689 13.6268 0.8291
17.0913 -41.6773 13.6900 0.8283
18.7557 -41.4331 13.8222 0.8268
22.2264 -40.9880 14.1704 0.8229
26.8687 -42.0398 15.1630 0.8117
36.1867 16.7738 12.1217 0.8464
37.6342 26.5038 13.9892 0.8249
6.7350 11.5908 4.0741 0.9455
6.2231 11.6538 4.0151 0.9463
5.2955 11.9007 3.9587 0.9470
4.2779 11.8344 3.8244 0.9488
3.8279 11.9109 3.8022 0.9490
2.8326 11.6178 3.6342 0.9512
2.3949 11.6208 3.6060 0.9516
1.9635 11.6238 3.5827 0.9519
1.5370 11.6268 3.5643 0.9522
0.7124 11.9325 3.6329 0.9513
-0.5746 11.9414 3.6334 0.9512
-1.4393 11.9474 3.6572 0.9509
-2.2617 11.6531 3.6076 0.9516
-4.6304 11.8951 3.8793 0.9480
-5.1364 11.9116 3.9423 0.9472
-5.6474 11.9021 4.0038 0.9464
-6.7798 11.9843 4.1846 0.9441
-7.1773 11.6871 4.1682 0.9443
-54.1189 64.9933 25.7036 0.7022
-49.7871 51.7402 21.8222 0.7407
-53.6871 51.9265 22.6995 0.7318
-49.5380 44.5852 20.2550 0.7568
-49.5599 41.4836 19.6420 0.7632
-49.5805 38.5605 19.0889 0.7691
-53.0366 35.4503 19.3877 0.7659
-39.5029 -31.1312 15.2855 0.8104
-36.5848 -31.0240 14.5782 0.8183
-35.0469 -31.9519 14.4134 0.8201
-33.8755 -33.1875 14.4126 0.8202
-27.9926 -31.6694 12.8457 0.8380
-26.0407 -31.6840 12.4641 0.8424
-22.4526 -31.7086 11.8080 0.8501
-18.5698 -33.3215 11.5933 0.8526
-7.1421 -15.3050 5.1329 0.9318
-14.1291 -33.3522 11.0082 0.8595
-9.4213 -41.8960 13.0508 0.8357
-7.8550 -41.9069 12.9579 0.8367
-6.3089 -41.9176 12.8828 0.8376
-4.7786 -41.9282 12.8251 0.8383
-3.2369 -41.6400 12.0011 0.8404
-0.2404 -41.6607 11.9712 0.8408
4.2649 -41.6920 12.0425 0.8399
10.5344 -42.0342 12.4519 0.8350
19.0608 -42.1070 13.2812 0.8250
22.7483 -41.9507 13.7125 0.8199
24.4512 -41.4661 13.8323 0.8184
26.1729 -40.9513 13.9652 0.8169
28.2345 -40.8659 14.2727 0.8132
78.9816 -46.8465 26.3868 0.6824
40.9384 15.5143 12.5798 0.8334
36.9508 15.5419 11.5186 0.8463
39.0683 25.4663 13.4005 0.8236
36.9045 25.9899 12.9701 0.8287
37.5854 30.7297 13.9502 0.8171
6.7350 11.5908 3.8520 0.9457
5.2955 11.9007 3.7429 0.9472
4.7474 11.7912 3.6524 0.9485
3.8279 11.9109 3.5950 0.9493
3.3622 11.9142 3.5572 0.9498
1.9635 11.6239 3.3874 0.9521
1.5371 11.6268 3.3700 0.9524
-0.5746 11.9414 3.4353 0.9515
-1.8771 11.9504 3.4760 0.9509
-2.6998 11.6562 3.4380 0.9514
-3.1454 11.6592 3.4700 0.9510
-4.1700 11.9663 3.6413 0.9486
-4.6594 11.9697 3.6908 0.9479
-5.1366 11.9119 3.7275 0.9474
-6.1821 11.9059 3.8548 0.9457
-6.7376 11.9097 3.9319 0.9446
-7.1773 11.6871 3.9410 0.9445
-7.7712 11.6912 4.0339 0.9432
-55.2114 61.6621 23.7829 0.7086
-52.6625 54.7285 21.8241 0.7290
-49.5387 44.5857 19.1510 0.7578
-50.2058 39.0468 18.2759 0.7674
-49.7154 35.8775 17.6169 0.7748
-68.0440 35.5541 22.0603 0.7265
-67.5702 26.5028 20.8561 0.7393
-67.7504 21.1046 20.3904 0.7443
-68.6372 18.7061 20.4419 0.7437
-70.0917 16.4241 20.6860 0.7411
-72.3506 14.2348 21.1882 0.7357
-39.4768 -31.1107 14.4426 0.8112
-37.4491 -31.7568 14.1090 0.8152
-33.9040 -33.2154 13.6383 0.8208
-30.2496 -31.8423 12.6202 0.8329
-26.0407 -31.6840 11.7846 0.8431
-24.1547 -31.6398 11.4381 0.8473
-19.3195 -31.9156 10.7201 0.8562
-18.5698 -33.3214 10.9612 0.8532
-16.8629 -32.9906 10.6463 0.8571
-7.1418 -15.3044 4.8529 0.9321
-14.1291 -33.3521 10.4081 0.8601
-10.7828 -31.5929 9.5922 0.8703
-10.4860 -34.7580 10.4322 0.8598
-10.7390 -40.8455 12.1356 0.8388
-4.7446 -41.6295 12.0395 0.8400
-3.3029 -42.4895 11.5460 0.8381
-0.2459 -42.6104 11.5442 0.8381
2.8114 -42.5118 11.5425 0.8381
4.3353 -42.3803 11.5416 0.8382
7.3717 -41.9997 11.5525 0.8380
10.5014 -41.9027 11.7034 0.8361
12.0971 -41.8386 11.7992 0.8349
13.7180 -41.7637 11.9094 0.8335
15.4018 -41.7691 12.0609 0.8315
17.2624 -42.0944 12.3259 0.8282
24.8528 -42.1471 13.2559 0.8165
26.9466 -42.1616 13.5561 0.8127
12.7956 -14.8174 5.3040 0.9221
56.2906 -36.1805 18.1287 0.7578
84.0719 -42.0253 25.4640 0.6774
45.6202 15.4397 13.0481 0.8191
36.9510 15.5420 10.8603 0.8469
35.3757 19.5958 10.9562 0.8457
42.3613 25.4943 13.3947 0.8147
39.4387 25.7077 12.7543 0.8228
36.2114 25.5018 11.9990 0.8323
36.8899 30.1611 12.9095 0.8208
37.6990 35.6297 14.0532 0.8066
5.8142 11.8972 3.5875 0.9466
5.2955 11.9008 3.5290 0.9474
3.8280 11.9110 3.3895 0.9495
1.9635 11.6239 3.1938 0.9523
1.5371 11.6268 3.1774 0.9526
1.1360 11.8552 3.2265 0.9518
0.2805 11.8221 3.2038 0.9522
-0.1454 11.9385 3.2346 0.9517
-0.5746 11.9414 3.2389 0.9517
-1.4393 11.9474 3.2602 0.9514
-2.6998 11.6562 3.2415 0.9516
-3.1454 11.6593 3.2717 0.9512
-3.6001 11.6624 3.3067 0.9507
-4.1700 11.9663 3.4331 0.9488
-5.1367 11.9121 3.5145 0.9477
-6.2209 11.9805 3.6573 0.9456
-6.7799 11.9844 3.7304 0.9445
-7.7712 11.6912 3.8033 0.9435
-54.0186 75.2598 25.0979 0.6812
-54.1205 64.9952 22.9139 0.7043
-49.4911 51.4326 19.3375 0.7439
-66.1592 51.4544 22.7066 0.7066
-53.9865 36.0852 17.5925 0.7641
-57.5452 35.5435 18.3243 0.7556
-69.2626 36.1908 21.1719 0.7234
-68.7227 29.8436 20.2982 0.7331
-67.9521 26.6525 19.7751 0.7390
-69.2584 24.3343 19.8880 0.7377
-72.0656 19.6405 20.2361 0.7338
-73.3997 17.1992 20.4241 0.7317
-74.5227 14.6621 20.5768 0.7300
-76.4992 12.2169 20.9878 0.7254
-37.5459 -31.8390 13.3369 0.8155
-33.9039 -33.2153 12.8587 0.8214
-30.2495 -31.8423 11.8988 0.8336
-26.0377 -31.6804 11.1098 0.8437
-24.1413 -31.6222 10.7783 0.8480
-22.4264 -31.6715 10.5138 0.8514
-20.9150 -31.9068 10.3358 0.8538
-19.3163 -31.9104 10.1057 0.8568
-18.5698 -33.3213 10.3346 0.8538
-7.1416 -15.3037 4.5753 0.9324
-14.1291 -33.3521 9.8131 0.8606
-10.7827 -31.5929 9.0440 0.8708
-10.4860 -34.7580 9.8358 0.8603
-6.3419 -42.1365 11.5442 0.8381
-4.8264 -42.3468 11.5469 0.8381
-3.3513 -43.1120 11.0108 0.8365
4.4157 -43.1658 11.0487 0.8360
7.5894 -43.2399 11.1785 0.8343
10.5844 -42.2340 11.0867 0.8355
12.4913 -43.2021 11.4512 0.8306
17.2492 -42.0624 11.5760 0.8289
29.1389 -42.1750 13.0529 0.8093
54.9572 -41.1805 17.4865 0.7532
55.0308 -38.2300 17.0620 0.7584
56.3867 -36.2423 17.0678 0.7583
79.1403 -43.1780 22.9557 0.6893
75.4249 -28.0320 20.4890 0.7174
40.0145 10.4108 10.5281 0.8431
36.9512 15.5421 10.2073 0.8475
35.2229 16.3270 9.8855 0.8519
35.2453 19.5236 10.2595 0.8468
36.2607 25.5365 11.2930 0.8327
36.4644 32.0647 12.3642 0.8184
6.2227 11.6531 3.3638 0.9469
5.8142 11.8972 3.3718 0.9468
5.2955 11.9008 3.3168 0.9477
4.7474 11.7912 3.2366 0.9489
3.7041 11.5255 3.0826 0.9513
3.2534 11.5286 3.0502 0.9518
2.8315 11.6132 3.0437 0.9519
2.3940 11.6163 3.0200 0.9522
1.5364 11.6222 2.9851 0.9528
1.1140 11.6251 2.9737 0.9529
0.6942 11.6280 2.9661 0.9531
0.2760 11.6309 2.9624 0.9531
-0.1417 11.6338 2.9626 0.9531
-1.4026 11.6426 2.9860 0.9527
-2.6987 11.6515 3.0454 0.9518
-3.5734 11.5759 3.0848 0.9512
-4.6594 11.9697 3.2706 0.9484
-5.6474 11.9022 3.3545 0.9471
-6.2209 11.9805 3.4374 0.9458
-7.7712 11.6912 3.5746 0.9437
-54.4778 70.4186 22.6702 0.6925
-49.4650 55.2443 18.8818 0.7363
-49.8609 51.8169 18.3106 0.7432
-49.5617 41.4850 16.4575 0.7658
-49.5823 38.5619 15.9940 0.7716
-49.6017 35.7954 15.5755 0.7769
-64.1643 39.6319 19.2035 0.7325
-68.0445 35.5543 19.5489 0.7284
-70.3900 30.5677 19.5406 0.7285
-71.7118 28.1272 19.6144 0.7276
-84.6470 26.3679 22.5753 0.6935
-79.9044 18.7234 20.8973 0.7127
-80.7765 15.8926 20.9625 0.7119
-81.3605 12.9933 20.9794 0.7117
-39.8337 -31.3919 12.9140 0.8111
-36.4136 -33.1979 12.5470 0.8160
-30.2495 -31.8422 11.1834 0.8342
-26.0367 -31.6792 10.4414 0.8443
-19.3132 -31.9052 9.4966 0.8573
-14.1291 -33.3520 9.2231 0.8611
-11.2535 -29.4669 8.0317 0.8779
-10.7398 -40.8486 10.7550 0.8400
-9.8004 -43.5816 11.3743 0.8316
-8.1711 -43.5928 11.2934 0.8327
-6.5627 -43.6040 11.2280 0.8336
-3.3912 -43.6259 10.4348 0.8353
-0.2420 -41.9366 10.0007 0.8416
1.3160 -43.6585 10.4159 0.8356
4.2620 -41.6633 9.9872 0.8418
9.1071 -42.8003 10.4350 0.8353
12.6028 -43.5875 10.8200 0.8298
22.8410 -42.1217 11.4264 0.8212
24.7988 -42.0556 11.6427 0.8181
26.7810 -41.9027 11.8590 0.8151
56.4002 -36.2510 15.9882 0.7590
75.4246 -28.0319 19.1884 0.7183
40.0443 10.4185 9.8672 0.8435
36.6185 10.9448 9.1140 0.8546
36.7219 12.4282 9.2449 0.8526
36.8391 13.9608 9.3946 0.8504
36.9796 15.5540 9.5667 0.8479
35.2227 16.3269 9.2580 0.8524
35.2333 17.8954 9.4236 0.8500
35.1940 19.4952 9.5942 0.8475
36.7129 22.0949 10.2181 0.8384
35.2526 22.9791 10.0349 0.8411
36.1905 25.4871 10.5556 0.8336
36.1115 34.1294 11.8489 0.8152
38.7576 45.4677 14.2472 0.7822
35.2841 47.9796 14.2024 0.7828
6.7350 11.5908 3.1968 0.9464
5.6261 11.5122 3.0556 0.9487
5.1604 11.5971 3.0270 0.9491
4.6706 11.6005 2.9821 0.9499
4.1945 11.6038 2.9424 0.9505
3.7303 11.6070 2.9073 0.9511
3.2764 11.6102 2.8768 0.9516
2.8315 11.6133 2.8505 0.9520
1.9627 11.6193 2.8101 0.9527
1.5364 11.6222 2.7956 0.9529
1.1140 11.6252 2.7849 0.9531
0.2760 11.6310 2.7744 0.9533
-0.5600 11.6368 2.7782 0.9532
-1.4026 11.6426 2.7965 0.9529
-1.8292 11.6455 2.8111 0.9527
-2.2608 11.6485 2.8296 0.9524
-2.6987 11.6516 2.8521 0.9520
-4.5405 11.6643 2.9849 0.9498
-5.4989 11.5892 3.0590 0.9486
-6.2209 11.9806 3.2192 0.9460
-6.7799 11.9844 3.2835 0.9450
-7.7713 11.6913 3.3477 0.9439
-54.2873 70.1724 21.1569 0.6943
-54.1221 64.9971 20.1697 0.7062
-55.2412 61.6955 19.7481 0.7114
-53.2787 55.3688 18.3238 0.7291
-49.5173 47.8935 16.4279 0.7533
-49.5405 44.5874 15.8940 0.7603
-53.0371 35.4506 15.2128 0.7693
-68.1279 35.5979 18.3304 0.7290
-74.2779 32.2561 19.3110 0.7168
-67.5724 26.5036 17.3090 0.7419
-67.3732 23.6720 17.0292 0.7455
-68.6391 18.7067 16.9652 0.7464
-72.3526 14.2352 17.5845 0.7384
-39.5013 -28.8933 11.6708 0.8177
-36.4135 -33.1978 11.7505 0.8166
-33.9037 -33.2152 11.3183 0.8227
-26.0443 -31.6885 9.7815 0.8448
-22.4478 -31.7018 9.2632 0.8524
-20.9149 -31.9067 9.0977 0.8548
-19.3101 -31.9001 8.8923 0.8578
-18.5697 -33.3212 9.0967 0.8548
-7.1410 -15.3025 4.0269 0.9329
-11.1927 -29.3077 7.4813 0.8790
-10.4860 -34.7580 8.6576 0.8613
-10.7402 -40.8502 10.0727 0.8406
-8.1389 -43.4212 10.5349 0.8339
-4.9709 -43.6149 10.4681 0.8348
2.8880 -43.6693 9.7342 0.8358
12.6468 -43.7399 10.1272 0.8298
14.3701 -43.7489 10.2422 0.8280
17.9579 -43.7904 10.5271 0.8237
25.5739 -43.3701 11.1986 0.8136
27.3514 -42.7951 11.2966 0.8121
29.1395 -42.1758 11.4020 0.8105
54.8230 -41.0800 15.2373 0.7552
55.0295 -38.2292 14.9034 0.7599
60.7135 -36.0111 15.7007 0.7488
72.4781 -36.2299 18.0226 0.7175
75.4241 -28.0318 17.8971 0.7191
46.6849 10.3725 10.6369 0.8220
36.0936 10.7879 8.3789 0.8570
36.1881 12.2475 8.4975 0.8551
36.4154 15.3167 8.7868 0.8505
23.8179 11.0404 5.8391 0.8980
35.4386 19.6307 9.0108 0.8470
35.2523 22.9788 9.3595 0.8416
36.2611 25.5368 9.8646 0.8338
35.3601 28.9103 10.1589 0.8293
35.3251 31.0628 10.4627 0.8247
44.5785 45.2697 14.1314 0.7708
41.7109 45.5162 13.7318 0.7765
36.5079 46.0816 13.0763 0.7859
6.1890 11.5900 2.9224 0.9476
5.6659 11.5936 2.8701 0.9485
3.7303 11.6070 2.7117 0.9513
3.2764 11.6102 2.6832 0.9518
2.3940 11.6163 2.6380 0.9526
1.9627 11.6193 2.6210 0.9529
0.6942 11.6281 2.5909 0.9534
0.2760 11.6310 2.5877 0.9534
-0.5600 11.6368 2.5913 0.9534
-0.9799 11.6397 2.5981 0.9533
-4.0636 11.6610 2.7466 0.9507
-7.1745 11.6825 3.0493 0.9454
-54.2500 75.5822 20.6932 0.6830
-49.4663 55.2459 16.4937 0.7380
-49.5180 47.8940 15.3227 0.7541
-49.5412 44.5880 14.8247 0.7610
-68.1657 53.0149 19.2071 0.7020
-49.7177 35.8791 13.6371 0.7778
-62.4046 35.5155 15.9706 0.7451
-69.2633 36.1911 17.3819 0.7260
-68.7251 29.8447 16.6651 0.7356
-68.1061 26.7129 16.2718 0.7410
-69.4995 24.4191 16.3846 0.7394
-71.0705 22.1388 16.5568 0.7371
-76.5014 12.2172 17.2312 0.7280
-62.9573 -42.6678 16.9160 0.7322
-39.5016 -28.8935 10.8855 0.8183
-39.8335 -31.3918 11.2804 0.8124
-37.5822 -31.8697 10.9600 0.8172
-33.8648 -33.1771 10.5446 0.8234
-26.0375 -31.6802 9.1209 0.8453
-18.5697 -33.3212 8.4845 0.8553
-18.8269 -36.8331 9.2006 0.8441
-7.1407 -15.3019 3.7558 0.9331
-17.5846 -41.5088 10.0267 0.8313
-11.2287 -29.4018 7.0003 0.8790
-10.4860 -34.7580 8.0751 0.8618
-10.7406 -40.8517 9.3952 0.8411
-9.8010 -43.5844 9.9362 0.8327
-8.1389 -43.4214 9.8260 0.8344
-6.5627 -43.6038 9.8077 0.8347
-3.3912 -43.6258 9.0352 0.8363
-1.7506 -41.9826 8.6762 0.8423
1.3160 -43.6584 9.0188 0.8366
5.7893 -41.7324 8.6996 0.8419
8.8858 -41.7606 8.8159 0.8400
10.4538 -41.7127 8.8793 0.8389
12.6468 -43.7399 9.4015 0.8303
14.3700 -43.7489 9.5082 0.8285
22.7467 -41.9478 9.8530 0.8229
25.8540 -43.8451 10.5100 0.8123
29.1394 -42.1757 10.5850 0.8111
55.0241 -44.4021 14.5994 0.7492
55.0289 -38.2287 13.8353 0.7606
60.9791 -36.1687 14.6394 0.7486
72.4779 -36.2297 16.7311 0.7182
35.5870 10.6365 7.6693 0.8592
35.6731 12.0732 7.7763 0.8574
35.7704 13.5558 7.8986 0.8554
35.8797 15.0914 8.0372 0.8530
35.2095 16.3208 8.0132 0.8534
35.2326 17.8950 8.1595 0.8510
35.4683 19.6471 8.3722 0.8474
35.3249 31.0627 9.7129 0.8252
41.9215 45.7459 12.8121 0.7761
35.9925 45.4311 11.9679 0.7892
35.5781 48.3795 12.4000 0.7825
6.7323 11.5862 2.7669 0.9467
5.6658 11.5936 2.6645 0.9487
5.1604 11.5971 2.6210 0.9495
4.6706 11.6005 2.5822 0.9502
4.1945 11.6038 2.5477 0.9509
3.2764 11.6102 2.4909 0.9519
2.3940 11.6163 2.4490 0.9527
1.5364 11.6223 2.4207 0.9532
0.6942 11.6281 2.4053 0.9535
-0.1417 11.6339 2.4024 0.9536
-0.5600 11.6368 2.4056 0.9535
-1.4026 11.6426 2.4214 0.9532
-1.8292 11.6456 2.4341 0.9530
-2.2608 11.6486 2.4501 0.9527
-3.5987 11.6578 2.5192 0.9514
-4.0636 11.6610 2.5498 0.9508
-4.5405 11.6643 2.5845 0.9502
-5.5378 11.6712 2.6674 0.9486
-6.0622 11.6749 2.7163 0.9477
-6.6069 11.6786 2.7706 0.9467
-7.7682 11.6867 2.8976 0.9443
-54.3480 75.7186 19.2450 0.6834
-54.5013 70.4491 18.3915 0.6950
-54.0939 64.9632 17.4553 0.7080
-49.7679 51.7203 14.8206 0.7459
-49.5635 41.4866 13.3460 0.7680
-49.5840 38.5632 12.9702 0.7737
-49.6034 35.7966 12.6308 0.7789
-58.0533 35.8573 14.0893 0.7568
-74.7538 35.7048 17.1057 0.7129
-71.0671 30.8617 15.9981 0.7287
-72.5133 28.4416 16.0833 0.7275
-84.3535 13.4712 17.6383 0.7055
-39.8334 -31.3917 10.4721 0.8129
-37.5776 -31.8658 10.1734 0.8177
-36.4134 -33.1977 10.1745 0.8177
-34.7849 -34.0785 10.0550 0.8196
-29.4944 -38.6341 10.0363 0.8199
-20.9148 -31.9066 7.8774 0.8557
-19.3039 -31.8899 7.6972 0.8588
-19.0047 -37.1810 8.6220 0.8432
-7.1404 -15.3013 3.4865 0.9334
-17.8149 -42.0525 9.4302 0.8298
-10.7827 -31.5927 6.8928 0.8725
-10.4860 -34.7580 7.4964 0.8622
-9.8010 -43.5843 9.2242 0.8332
-8.1389 -43.4215 9.1220 0.8349
-6.5627 -43.6038 9.1049 0.8352
-1.7507 -41.9853 8.0113 0.8427
-0.2423 -41.9784 8.0031 0.8429
1.3160 -43.6583 8.3270 0.8371
2.8880 -43.6692 8.3435 0.8368
5.7889 -41.7291 8.0316 0.8424
8.8858 -41.7608 8.1397 0.8404
10.4556 -41.7200 8.1997 0.8393
12.6468 -43.7398 8.6804 0.8308
15.5433 -42.1528 8.5651 0.8328
17.9578 -43.7902 9.0231 0.8247
22.7582 -41.9690 9.1019 0.8233
28.0302 -43.8571 9.9230 0.8090
29.0108 -41.9896 9.7299 0.8124
31.2291 -41.9002 9.9627 0.8083
55.2264 -51.5290 14.4000 0.7352
55.0234 -44.4016 13.4794 0.7498
56.2017 -36.1234 12.7369 0.7618
60.9790 -36.1686 13.5165 0.7492
40.0450 10.4187 7.8886 0.8449
34.7132 10.3754 6.9072 0.8628
35.3628 14.8740 7.3138 0.8554
35.8848 25.2718 8.3675 0.8363
35.3150 31.0539 8.9654 0.8257
36.0366 45.4868 11.0635 0.7895
47.4519 75.3046 16.9690 0.6960
6.7323 11.5863 2.5547 0.9469
4.1945 11.6038 2.3523 0.9510
2.7828 11.4136 2.2397 0.9533
2.3529 11.4166 2.2223 0.9536
1.9290 11.4196 2.2079 0.9539
1.5100 11.4225 2.1966 0.9542
0.2712 11.4310 2.1799 0.9545
-0.5504 11.4367 2.1829 0.9544
-1.7977 11.4454 2.2088 0.9539
-2.2219 11.4483 2.2233 0.9536
-2.6523 11.4513 2.2409 0.9533
-3.0902 11.4543 2.2618 0.9528
-4.5406 11.6644 2.3863 0.9503
-5.0313 11.6678 2.4224 0.9496
-5.5378 11.6712 2.4628 0.9488
-6.0622 11.6749 2.5079 0.9478
-7.1745 11.6826 2.6137 0.9457
-7.7682 11.6867 2.6753 0.9445
-49.5192 47.8953 13.1339 0.7554
-49.5641 41.4871 12.3225 0.7686
-49.5846 38.5637 11.9755 0.7743
-68.9448 36.0247 14.8302 0.7285
-74.5337 35.5996 15.7471 0.7144
-75.6491 32.8515 15.7233 0.7147
-67.5744 26.5044 13.8383 0.7441
-67.7542 21.1058 13.5292 0.7490
-70.0955 16.4250 13.7253 0.7459
-72.3546 14.2356 14.0585 0.7406
-76.5028 12.2175 14.7697 0.7294
-76.8448 -40.7818 16.5854 0.7017
-72.6590 -41.9704 15.9970 0.7106
-37.5730 -31.8619 9.3919 0.8182
-36.4179 -33.2018 9.3952 0.8182
-36.8924 -36.1431 9.8462 0.8103
-29.4948 -38.6345 9.2666 0.8204
-29.5278 -41.7004 9.7412 0.8122
-20.9148 -31.9065 7.2732 0.8561
-19.3009 -31.8849 7.1056 0.8592
-18.5207 -33.2334 7.2533 0.8565
-7.1401 -15.3007 3.2190 0.9336
-17.8810 -42.2086 8.7392 0.8297
-10.4478 -34.6315 6.8962 0.8630
-9.8010 -43.5842 8.5166 0.8337
-8.1390 -43.4216 8.4223 0.8354
-6.5627 -43.6037 8.4065 0.8356
-4.9709 -43.6147 8.3688 0.8363
-3.3348 -42.8992 7.5257 0.8397
-1.7505 -41.9788 7.3484 0.8431
-0.2424 -42.0080 7.3473 0.8432
1.3050 -43.2943 7.5756 0.8387
2.8635 -43.2995 7.5896 0.8384
4.2663 -41.7054 7.3323 0.8435
8.8857 -41.7603 7.4673 0.8408
10.4669 -41.7651 7.5306 0.8396
12.6217 -43.6532 7.9476 0.8315
14.3700 -43.7487 8.0538 0.8295
17.9578 -43.7901 8.2778 0.8251
21.3741 -43.0349 8.4040 0.8227
25.8540 -43.8449 8.9023 0.8133
27.5564 -43.1159 8.9495 0.8124
29.0054 -41.9818 8.9246 0.8129
55.2630 -59.5339 14.2070 0.7190
55.0987 -41.2866 12.0420 0.7561
55.0465 -38.2410 11.7228 0.7617
72.4327 -36.2071 14.1630 0.7198
46.6858 10.3727 8.3644 0.8235
35.2503 13.3587 6.5931 0.8581
35.2608 14.8311 6.6904 0.8561
35.1819 17.8692 6.9015 0.8519
35.2967 21.2426 7.2051 0.8460
35.5113 25.0088 7.5965 0.8383
35.3241 31.0619 8.2270 0.8261
36.0738 36.6331 8.9921 0.8116
34.1718 46.4671 10.0881 0.7912
41.1943 65.3739 13.5145 0.7307
6.7324 11.5863 2.3437 0.9470
6.0827 11.3908 2.2585 0.9489
5.5685 11.3944 2.2181 0.9498
4.5903 11.4011 2.1496 0.9513
4.1240 11.4090 2.1218 0.9519
3.2457 11.5012 2.0901 0.9526
2.8134 11.5392 2.0773 0.9529
2.3849 11.5719 2.0665 0.9532
1.1140 11.6252 2.0426 0.9537
-0.9799 11.6397 2.0430 0.9537
-1.4026 11.6427 2.0510 0.9535
-2.2528 11.6072 2.0680 0.9531
-2.6824 11.5809 2.0791 0.9529
-3.1158 11.5495 2.0922 0.9526
-3.9972 11.4705 2.1245 0.9519
-4.4625 11.4638 2.1516 0.9513
-4.9448 11.4672 2.1841 0.9506
-6.6069 11.6787 2.3468 0.9470
-7.1746 11.6826 2.3978 0.9458
-7.7682 11.6867 2.4544 0.9446
-54.5029 70.4512 15.5787 0.6965
-49.5198 47.8958 12.0493 0.7560
-49.5430 44.5896 11.6577 0.7629
-29.2300 22.7332 6.4764 0.8604
-53.8124 35.9688 11.3206 0.7689
-57.4447 35.4814 11.8090 0.7602
-62.4051 35.5158 12.5584 0.7471
-74.7552 35.7054 14.4894 0.7143
-68.0175 26.6782 12.7785 0.7433
-69.5213 24.4267 12.8879 0.7414
-76.8284 15.1158 13.6948 0.7276
-77.8515 -41.3161 15.4148 0.6991
-69.6901 -40.2555 14.0761 0.7212
-61.2881 -41.5366 12.9491 0.7403
-39.4971 -28.8902 8.5588 0.8198
-39.8332 -31.3916 8.8702 0.8139
-37.5684 -31.8580 8.6152 0.8187
-36.9059 -33.6467 8.7347 0.8164
-37.4388 -36.6784 9.1667 0.8083
-28.7066 -32.4771 7.5811 0.8386
-29.6614 -41.8891 8.9771 0.8119
-18.6261 -33.4223 6.6920 0.8561
-7.1399 -15.3001 2.9530 0.9337
-12.0619 -31.5837 5.9131 0.8717
-10.7826 -31.5926 5.8385 0.8732
-10.4482 -34.6326 6.3269 0.8634
-10.7418 -40.8563 7.3886 0.8424
-8.0979 -43.2027 7.6877 0.8365
-3.3418 -42.9901 6.8663 0.8397
-1.7500 -41.9681 6.6887 0.8436
-0.2425 -42.0139 6.6903 0.8435
1.3055 -43.3134 6.9002 0.8390
5.7916 -41.7492 6.7117 0.8431
8.8854 -41.7586 6.7984 0.8412
14.2840 -43.4869 7.2887 0.8308
15.5131 -42.0711 7.1402 0.8339
17.8195 -43.4530 7.4785 0.8268
21.3737 -43.0340 7.6512 0.8231
27.5454 -43.0987 8.1448 0.8129
54.7683 -68.2275 13.9317 0.7016
57.0163 -66.0255 13.8912 0.7023
55.2096 -51.5133 12.0239 0.7365
57.1103 -49.5740 12.0423 0.7362
55.0035 -44.3855 11.2546 0.7511
54.8764 -38.1228 10.6400 0.7629
61.0103 -36.1871 11.2954 0.7503
70.3729 -38.3946 12.7652 0.7227
46.6861 10.3727 7.6154 0.8239
35.2500 13.3586 6.0026 0.8584
35.1699 16.3025 6.1727 0.8547
35.2431 19.5224 6.4155 0.8494
34.8563 20.9776 6.4781 0.8481
34.0335 22.1844 6.4690 0.8483
35.3242 24.8770 6.8798 0.8395
35.3439 26.8393 7.0668 0.8355
35.3585 28.9089 7.2727 0.8311
35.3399 33.4002 7.7430 0.8212
35.8478 36.4036 8.1356 0.8131
35.6127 38.8617 8.3936 0.8078
36.7871 43.1561 9.0299 0.7948
37.7891 55.4517 10.6854 0.7620
6.6425 11.4317 2.1053 0.9479
4.1945 11.6039 1.9648 0.9513
3.7303 11.6071 1.9414 0.9518
3.2765 11.6103 1.9210 0.9523
2.8315 11.6133 1.9034 0.9527
1.9627 11.6194 1.8764 0.9534
1.1140 11.6252 1.8596 0.9538
0.6942 11.6282 1.8549 0.9539
-0.5600 11.6369 1.8552 0.9539
-1.4026 11.6427 1.8673 0.9536
-1.8292 11.6456 1.8771 0.9534
-2.6987 11.6517 1.9045 0.9527
-4.0636 11.6611 1.9664 0.9512
-4.5406 11.6644 1.9932 0.9506
-5.0313 11.6678 2.0233 0.9498
-54.2913 70.1776 14.1285 0.6981
-49.4690 55.2489 11.8089 0.7405
-49.4957 51.4374 11.3669 0.7489
-49.8898 48.2536 11.0522 0.7549
-49.6050 35.7978 9.7410 0.7805
-81.7612 54.6501 15.6599 0.6714
-65.1979 40.2703 12.2026 0.7332
-62.4052 35.5159 11.4338 0.7476
-68.0457 35.5549 12.2254 0.7327
-74.5340 35.5998 13.1528 0.7157
-73.2933 28.7474 12.5366 0.7270
-75.4191 26.4989 12.7292 0.7234
-65.6973 17.9049 10.8430 0.7590
-89.7265 21.0249 14.6747 0.6885
-89.2713 17.5639 14.4878 0.6918
-76.7798 -40.7474 13.8412 0.7032
-39.4568 -28.8607 7.7843 0.8204
-37.5639 -31.8542 7.8427 0.8191
-37.7390 -36.9725 8.4128 0.8074
-29.6619 -41.8898 8.1733 0.8123
-18.6264 -33.4230 6.0928 0.8564
-19.3240 -37.8056 6.7609 0.8420
-7.1396 -15.2995 2.6885 0.9339
-12.0619 -31.5837 5.3836 0.8720
-10.4844 -39.8770 6.5657 0.8462
-9.7229 -43.2370 7.0568 0.8357
-8.1305 -43.3765 7.0274 0.8363
-3.3574 -43.1897 6.2229 0.8394
-1.7508 -41.9858 6.0365 0.8438
-0.2424 -42.0017 6.0336 0.8439
4.2677 -41.7195 6.0243 0.8441
5.7888 -41.7286 6.0517 0.8435
7.5887 -43.2362 6.3058 0.8375
8.8855 -41.7593 6.1330 0.8415
12.5460 -43.3913 6.4885 0.8332
15.5141 -42.0738 6.4417 0.8343
17.8147 -43.4414 6.7447 0.8272
19.8271 -43.8000 6.9065 0.8234
21.3733 -43.0331 6.9022 0.8235
22.7502 -41.9542 6.8558 0.8246
25.4496 -43.1592 7.1974 0.8167
27.5345 -43.0816 7.3447 0.8133
28.9972 -41.9699 7.3280 0.8137
56.3092 -75.5504 13.5356 0.6833
56.8950 -65.8850 12.5048 0.7034
55.2443 -59.5137 11.6647 0.7203
57.0573 -57.2038 11.6062 0.7214
55.2095 -51.5132 10.8469 0.7370
55.0028 -44.3850 10.1528 0.7516
55.0453 -38.2401 9.6281 0.7627
61.0101 -36.1870 10.1898 0.7508
40.0456 10.4189 5.9441 0.8460
35.2497 13.3585 5.4150 0.8587
35.2420 14.8232 5.4921 0.8568
35.2025 16.3175 5.5737 0.8549
35.2312 17.8943 5.6763 0.8524
35.4367 19.6297 5.8193 0.8490
35.3510 24.8959 6.2111 0.8397
35.3437 26.8392 6.3751 0.8358
35.2682 33.3324 6.9709 0.8219
35.4329 35.9823 7.2542 0.8154
36.0321 42.2704 7.9788 0.7990
36.0371 45.4874 8.3364 0.7910
37.0581 54.3790 9.4530 0.7665
36.0356 57.1872 9.7098 0.7610
6.7324 11.5863 1.9249 0.9473
6.1891 11.5901 1.8874 0.9483
5.6659 11.5937 1.8537 0.9492
5.1605 11.5972 1.8234 0.9500
4.1945 11.6039 1.7725 0.9514
2.3940 11.6164 1.7038 0.9532
1.9627 11.6194 1.6928 0.9535
0.6942 11.6282 1.6734 0.9540
0.2760 11.6311 1.6713 0.9541
-0.1417 11.6340 1.6713 0.9541
-0.5600 11.6369 1.6736 0.9540
-0.9799 11.6398 1.6780 0.9539
-1.4026 11.6427 1.6846 0.9537
-2.6987 11.6517 1.7181 0.9528
-6.0623 11.6749 1.8897 0.9482
-6.6069 11.6787 1.9275 0.9472
-7.7683 11.6867 2.0158 0.9449
-54.2038 75.5178 13.3532 0.6868
-54.4748 70.4148 12.7887 0.6978
-54.1267 65.0026 12.1510 0.7105
-55.2582 61.7144 11.8996 0.7155
-49.8904 48.2543 9.9705 0.7554
-49.5442 44.5907 9.5750 0.7639
-53.0378 35.4511 9.1641 0.7728
-57.4449 35.4816 9.6991 0.7612
-67.5765 26.5052 10.4273 0.7458
-67.7561 21.1063 10.1944 0.7507
-70.0973 16.4254 10.3422 0.7476
-72.3565 14.2360 10.5933 0.7423
-76.5049 12.2178 11.1292 0.7312
-71.4276 -41.2591 11.8493 0.7165
-66.4462 -41.6322 11.2638 0.7284
-39.8330 -31.3914 7.2853 0.8147
-37.5593 -31.8503 7.0743 0.8195
-37.1035 -33.8269 7.2125 0.8164
-29.6222 -36.0417 6.7017 0.8282
-19.2918 -31.8700 5.3515 0.8602
-18.6267 -33.4236 5.4965 0.8567
-7.1393 -15.2989 2.4252 0.9341
-17.8727 -42.1889 6.5818 0.8310
-12.0402 -31.5268 4.8478 0.8725
-10.4488 -34.6349 5.1968 0.8640
-10.4847 -39.8785 5.9232 0.8465
1.3407 -44.4803 5.7019 0.8357
7.8150 -44.5252 5.7923 0.8334
8.8840 -41.7523 5.4695 0.8419
12.8840 -44.5603 5.9434 0.8294
14.3699 -43.7485 5.9002 0.8305
19.8271 -43.7999 6.1604 0.8238
22.7261 -41.9097 6.1086 0.8251
27.5237 -43.0647 6.5486 0.8137
29.0135 -41.9935 6.5400 0.8140
55.2442 -59.5136 10.4045 0.7207
57.0565 -57.2031 10.3522 0.7219
55.2094 -51.5131 9.6751 0.7375
55.0447 -38.2397 8.5878 0.7632
56.4147 -36.2603 8.5928 0.7630
72.5527 -36.2671 10.3930 0.7210
40.0458 10.4189 5.3019 0.8463
35.2295 10.5297 4.7113 0.8622
35.2494 13.3583 4.8300 0.8590
35.2021 16.3174 4.9715 0.8552
35.2308 17.8941 5.0631 0.8527
35.4364 19.6294 5.1906 0.8493
34.2267 22.3104 5.2349 0.8481
35.5750 25.0536 5.5752 0.8391
35.4709 29.0009 5.8706 0.8313
35.3391 33.3994 6.2303 0.8219
35.2558 35.8024 6.4382 0.8166
34.1490 37.2643 6.4764 0.8156
35.5990 44.9344 7.3454 0.7936
34.1702 46.4649 7.3902 0.7925
36.1791 53.0891 8.2317 0.7718
35.5050 56.3452 8.5334 0.7645
6.7324 11.5863 1.7170 0.9474
6.1891 11.5901 1.6835 0.9484
5.1605 11.5972 1.6264 0.9501
3.7303 11.6071 1.5622 0.9520
3.2765 11.6103 1.5457 0.9525
2.3940 11.6164 1.5197 0.9533
1.5365 11.6223 1.5021 0.9538
0.2760 11.6311 1.4907 0.9542
-0.9799 11.6398 1.4967 0.9540
-2.6987 11.6517 1.5325 0.9529
-3.1442 11.6548 1.5467 0.9525
-3.5987 11.6579 1.5633 0.9520
-4.0636 11.6611 1.5823 0.9514
-4.5406 11.6644 1.6038 0.9508
-5.0313 11.6678 1.6281 0.9500
-5.5379 11.6713 1.6553 0.9492
-7.1746 11.6827 1.7567 0.9462
-7.7683 11.6868 1.7981 0.9450
-54.3485 75.7193 11.9425 0.6867
-49.4703 55.2503 9.5024 0.7415
-49.5664 41.4890 8.2822 0.7705
-53.0380 35.4512 8.1741 0.7732
-57.4451 35.4817 8.6514 0.7616
-68.0461 35.5551 9.8373 0.7337
-68.7299 29.8468 9.6010 0.7392
-67.5771 26.5055 9.3009 0.7462
-71.2535 22.1958 9.5625 0.7401
-85.5032 10.5232 11.0383 0.7065
-26.7953 -8.5357 3.6033 0.8928
-78.8346 -41.8379 11.4355 0.6977
-26.8101 -15.4865 3.9671 0.8826
-66.1684 -41.4581 10.0049 0.7299
-61.3551 -41.5820 9.4968 0.7416
-56.8898 -41.6121 9.0312 0.7526
-39.8329 -31.3913 6.4983 0.8150
-37.5548 -31.8465 6.3091 0.8199
-37.2145 -33.9281 6.4526 0.8162
-37.9042 -37.1344 6.7990 0.8074
-30.2490 -31.8417 5.6274 0.8377
-28.7078 -32.4785 5.5541 0.8396
-29.6861 -38.8852 6.2684 0.8210
-29.6628 -41.8911 6.5769 0.8130
-20.9147 -31.9063 4.8882 0.8574
-20.1996 -39.5185 5.6867 0.8361
-7.1390 -15.2983 2.1631 0.9342
-17.8699 -42.1824 5.8699 0.8313
-12.0619 -31.5836 4.3319 0.8725
-10.4492 -34.6359 4.6355 0.8642
-8.3249 -44.4133 5.7898 0.8334
-3.3855 -43.5526 4.9220 0.8388
-0.2426 -42.0356 4.7364 0.8443
1.3407 -44.4802 5.0140 0.8360
2.9424 -44.4913 5.0239 0.8357
12.8840 -44.5602 5.2264 0.8297
14.3699 -43.7485 5.1884 0.8308
21.3724 -43.0314 5.4136 0.8241
27.5129 -43.0478 5.7565 0.8141
56.9953 -66.0013 9.8256 0.7040
55.2440 -59.5135 9.1493 0.7212
55.0016 -44.3840 7.9633 0.7524
55.0673 -41.2630 7.7532 0.7581
61.0098 -36.1868 7.9924 0.7516
70.2853 -38.3468 9.0212 0.7245
40.0460 10.4190 4.6623 0.8466
35.2292 10.5296 4.1429 0.8624
35.4629 12.0021 4.2183 0.8601
35.2490 13.3582 4.2472 0.8592
35.2018 16.3172 4.3717 0.8554
35.4661 19.6459 4.5682 0.8494
35.5517 29.0670 5.1741 0.8312
34.3431 37.4762 5.7274 0.8150
35.4021 41.5313 6.1488 0.8028
35.4755 44.7785 6.4368 0.7946
34.1697 46.4642 6.4985 0.7928
35.5051 56.3453 7.5039 0.7648
5.6659 11.5938 1.4540 0.9494
5.1605 11.5973 1.4302 0.9502
3.2765 11.6103 1.3593 0.9526
2.8315 11.6134 1.3468 0.9530
1.9627 11.6194 1.3277 0.9537
0.2760 11.6311 1.3109 0.9542
-0.9799 11.6398 1.3161 0.9541
-1.4026 11.6427 1.3213 0.9539
-1.8292 11.6457 1.3282 0.9537
-2.6987 11.6517 1.3476 0.9530
-4.5406 11.6644 1.4103 0.9509
-5.0313 11.6678 1.4317 0.9501
-6.0623 11.6750 1.4822 0.9484
-7.7683 11.6868 1.5811 0.9451
-48.7394 58.5330 8.5821 0.7359
-49.9149 44.9243 7.5665 0.7631
-59.0708 36.4859 7.8229 0.7562
-72.6105 31.5320 8.9194 0.7271
-74.1337 29.0771 8.9724 0.7258
-75.4208 26.4995 9.0072 0.7249
-94.0569 18.5055 10.8008 0.6799
-85.4541 10.5172 9.7010 0.7071
-26.7956 -8.5358 3.1686 0.8930
-79.0616 -41.9583 10.0848 0.6975
-61.3850 -41.6023 8.3552 0.7419
-29.6231 -36.0428 5.2567 0.8288
-19.2859 -31.8601 4.1962 0.8608
-7.1388 -15.2978 1.9021 0.9343
-17.8672 -42.1760 5.1610 0.8316
-12.0619 -31.5836 3.8093 0.8728
-10.4495 -34.6371 4.0764 0.8645
-8.3248 -44.4132 5.0913 0.8337
-6.5626 -43.6034 4.9683 0.8374
-1.7477 -41.9122 4.0802 0.8449
2.8736 -43.4512 4.2356 0.8395
7.8150 -44.5250 4.3971 0.8339
8.8800 -41.7336 4.1502 0.8424
12.8840 -44.5601 4.5118 0.8299
14.3699 -43.7484 4.4790 0.8311
21.3720 -43.0306 4.6733 0.8244
22.7355 -41.9271 4.6391 0.8256
26.3387 -44.6670 5.0437 0.8119
27.5021 -43.0309 4.9676 0.8145
29.0206 -42.0038 4.9659 0.8145
54.8362 -68.3122 8.5205 0.7032
55.2439 -59.5134 7.8983 0.7216
55.0009 -44.3835 6.8744 0.7527
56.4144 -36.2601 6.5230 0.7637
72.5522 -36.2669 7.8896 0.7218
46.6856 10.3726 4.6517 0.8251
40.0462 10.4191 4.0249 0.8468
35.2289 10.5295 3.5764 0.8626
35.2301 17.8937 3.8434 0.8532
35.2417 19.5216 3.9187 0.8505
34.9045 21.0066 3.9625 0.8490
35.3219 31.0600 4.5751 0.8278
35.3382 33.3985 4.7295 0.8225
34.3729 37.5087 4.9486 0.8151
34.1527 46.4411 5.6072 0.7932
35.3665 51.8968 6.1086 0.7769
6.7501 11.6169 1.3069 0.9474
6.3300 11.8541 1.3071 0.9474
5.9017 12.0762 1.3074 0.9474
4.2338 11.7127 1.2114 0.9512
3.7755 11.7478 1.2002 0.9516
2.8658 11.7541 1.1768 0.9525
2.4230 11.7572 1.1676 0.9529
1.9627 11.6194 1.1462 0.9537
1.5585 11.7892 1.1567 0.9533
0.7042 11.7951 1.1493 0.9536
-0.5680 11.8039 1.1495 0.9536
-0.9940 11.8068 1.1525 0.9535
-1.4227 11.8098 1.1570 0.9533
-2.7318 11.7943 1.1776 0.9525
-3.6504 11.8252 1.2038 0.9515
-5.0898 11.8033 1.2503 0.9497
-5.6022 11.8068 1.2711 0.9488
-6.2272 11.9926 1.3144 0.9471
-6.6548 11.7633 1.3146 0.9471
-7.7683 11.6868 1.3650 0.9452
-54.4893 70.4336 8.6617 0.6992
-49.8674 51.8237 6.9955 0.7490
-60.5585 54.5038 7.9248 0.7208
-49.6072 35.7994 5.9504 0.7820
-58.0543 35.8579 6.6371 0.7602
-69.2648 36.1919 7.6015 0.7305
-81.6373 35.4520 8.6571 0.6993
-67.5785 26.5060 7.0607 0.7470
-67.7579 21.1069 6.9030 0.7519
-76.5071 12.2182 7.5360 0.7324
-56.8405 -41.5761 6.8499 0.7535
-39.7610 -31.3347 4.9241 0.8159
-37.5458 -31.8389 4.7885 0.8205
-30.2489 -31.8416 4.2719 0.8382
-28.7085 -32.4794 4.2164 0.8401
-29.6061 -41.8110 4.9832 0.8139
-18.6278 -33.4255 3.7220 0.8575
-17.8645 -42.1695 4.4546 0.8319
-10.7826 -31.5924 3.2470 0.8745
-10.4498 -34.6381 3.5192 0.8647
-10.4859 -39.8828 4.0111 0.8473
-9.9848 -44.4017 4.4267 0.8329
-8.3248 -44.4132 4.3952 0.8339
-6.5626 -43.6033 4.2890 0.8376
-4.9708 -43.6144 4.2697 0.8383
-1.7501 -41.9710 3.4408 0.8449
1.3407 -44.4801 3.6449 0.8364
5.7918 -41.7500 3.4524 0.8444
12.8839 -44.5601 3.7993 0.8301
15.5280 -42.1113 3.6763 0.8352
18.2945 -44.6112 3.9493 0.8241
21.3716 -43.0298 3.9352 0.8246
22.7967 -42.0400 3.9171 0.8254
26.3387 -44.6669 4.2473 0.8121
56.2873 -75.5210 7.7149 0.6852
54.8354 -68.3112 7.1750 0.7036
56.9938 -65.9995 7.1426 0.7047
55.2438 -59.5133 6.6511 0.7219
57.0544 -57.2009 6.6174 0.7231
55.2090 -51.5128 6.1848 0.7386
57.0049 -49.4824 6.1829 0.7386
54.9753 -44.3628 5.7862 0.7531
56.2164 -36.1328 5.4737 0.7648
60.9666 -36.1612 5.8060 0.7524
70.2842 -38.3462 6.5579 0.7252
72.5520 -36.2668 6.6437 0.7221
70.3627 10.4056 5.8260 0.7517
39.7682 10.3467 3.3658 0.8480
35.2289 10.5295 3.0117 0.8628
35.2386 11.9262 3.0472 0.8613
35.2486 13.3580 3.0875 0.8596
35.2588 14.8302 3.1330 0.8577
35.2192 16.3253 3.1796 0.8557
35.2301 17.8937 3.2365 0.8534
33.9940 22.1586 3.3237 0.8497
35.3377 33.3981 3.9826 0.8227
35.4746 44.7773 4.6792 0.7951
6.7810 13.8755 1.2650 0.9399
6.1761 13.8797 1.2443 0.9409
4.7273 11.7413 1.0367 0.9505
3.7755 11.7479 1.0107 0.9517
3.3162 11.7510 1.0001 0.9522
2.4230 11.7572 0.9833 0.9530
1.9628 11.6194 0.9652 0.9538
1.5585 11.7892 0.9740 0.9534
0.7042 11.7951 0.9678 0.9537
-0.5680 11.8039 0.9680 0.9537
-0.9940 11.8069 0.9705 0.9536
-1.8554 11.8128 0.9794 0.9531
-2.7319 11.7947 0.9917 0.9526
-3.1894 11.8221 1.0029 0.9520
-4.1220 11.8285 1.0260 0.9510
-4.6058 11.8319 1.0400 0.9503
-5.1036 11.8353 1.0557 0.9496
-5.6022 11.8068 1.0704 0.9489
-7.1899 13.8466 1.2779 0.9393
-7.7592 13.7155 1.2907 0.9387
-48.5523 79.0595 7.5993 0.6891
-48.3108 67.3076 6.7861 0.7171
-48.3444 62.4906 6.4714 0.7283
-49.4723 55.2525 6.0747 0.7426
-49.4989 51.4407 5.8473 0.7509
-49.5682 41.4905 5.2946 0.7715
-49.5885 38.5667 5.1455 0.7771
-49.6078 35.7998 5.0108 0.7823
-62.4061 35.5163 5.8814 0.7496
-68.0466 35.5554 6.2886 0.7348
-74.7591 35.7073 6.7860 0.7171
-68.7322 29.8478 6.1377 0.7403
-68.3231 24.0057 5.9316 0.7478
-70.7660 22.0439 6.0710 0.7427
-74.2396 20.2329 6.3026 0.7343
-85.5313 10.5267 7.0586 0.7076
-72.2880 -41.7561 6.8380 0.7153
-66.2738 -41.5242 6.4059 0.7306
-61.2442 -41.5068 6.0599 0.7431
-56.8711 -41.5985 5.7713 0.7537
-40.3362 -39.5170 4.6252 0.7972
-30.2488 -31.8415 3.5973 0.8384
-30.2219 -39.5870 4.0794 0.8188
-19.2807 -31.8516 3.0497 0.8612
-18.6281 -33.4261 3.1343 0.8576
-17.8617 -42.1631 3.7507 0.8321
-10.7825 -31.5923 2.7342 0.8746
-9.9848 -44.4016 3.7277 0.8331
-8.3248 -44.4131 3.7011 0.8341
-3.3965 -43.6933 2.9182 0.8389
-1.7508 -41.9867 2.7982 0.8450
1.3407 -44.4800 2.9631 0.8366
2.9423 -44.4911 2.9690 0.8363
8.8858 -41.7604 2.8429 0.8427
10.4588 -41.7328 2.8648 0.8416
12.8839 -44.5600 3.0886 0.8303
22.7667 -41.9846 3.1802 0.8257
27.4806 -42.9973 3.3980 0.8150
28.9873 -41.9555 3.3956 0.8151
54.8097 -68.2792 5.8301 0.7040
56.9867 -65.9913 5.8058 0.7050
54.9997 -44.3825 4.7059 0.7533
55.1603 -41.3327 4.5897 0.7586
55.0412 -38.2373 4.4626 0.7644
56.3177 -36.1979 4.4578 0.7646
66.4215 -36.2388 5.0382 0.7384
72.3053 -36.1435 5.3826 0.7232
46.6895 10.3735 3.1847 0.8255
40.0467 10.4192 2.7554 0.8471
35.2286 10.5294 2.4483 0.8629
35.2383 11.9261 2.4771 0.8615
35.2482 13.3579 2.5100 0.8598
35.2585 14.8301 2.5470 0.8578
35.2297 17.8935 2.6311 0.8535
35.2886 21.2377 2.7425 0.8478
35.3362 23.0336 2.8087 0.8444
35.3493 24.8947 2.8789 0.8409
35.3419 26.8378 2.9549 0.8370
35.3563 28.9072 3.0410 0.8327
35.2215 35.7676 3.3426 0.8177
34.1038 37.2150 3.3612 0.8168
35.4516 41.5893 3.6389 0.8033
34.1681 46.4621 3.8403 0.7936
35.5191 52.1208 4.1998 0.7766
35.2827 55.9923 4.4068 0.7670
35.7136 66.8799 5.0485 0.7379
6.7966 13.9074 1.0307 0.9398
2.8658 11.7542 0.8056 0.9527
2.4230 11.7572 0.7993 0.9530
1.9628 11.6195 0.7847 0.9539
1.5585 11.7892 0.7918 0.9534
1.1300 11.7922 0.7888 0.9536
0.7042 11.7951 0.7868 0.9537
-0.9940 11.8069 0.7890 0.9536
-2.2933 11.8159 0.8015 0.9529
-2.7320 11.7952 0.8062 0.9526
-3.6504 11.8253 0.8241 0.9516
-4.6058 11.8319 0.8454 0.9504
-5.6022 11.8069 0.8702 0.9490
-7.7592 13.7155 1.0493 0.9388
-48.2333 78.5401 6.1372 0.6911
-48.2084 67.1648 5.5051 0.7179
-48.2599 62.3814 5.2517 0.7289
-49.4995 51.4414 4.7536 0.7511
-49.5241 47.9000 4.5877 0.7587
-49.5471 44.5933 4.4386 0.7655
-49.7178 41.6157 4.3172 0.7711
-50.2138 39.0531 4.2358 0.7749
-53.9270 36.0454 4.3191 0.7710
-57.4456 35.4820 4.4960 0.7629
-62.4062 35.5164 4.7813 0.7499
-68.0468 35.5555 5.1123 0.7351
-75.4225 26.5001 5.3231 0.7258
-79.0266 -41.9398 5.9572 0.6986
-72.2573 -41.7383 5.5565 0.7157
-66.2494 -41.5089 5.2057 0.7310
-56.8174 -41.5591 4.6873 0.7541
-39.8326 -31.3911 3.3770 0.8160
-40.3361 -39.5169 3.7600 0.7974
-30.2488 -31.8415 2.9244 0.8386
-30.2219 -39.5870 3.3163 0.8190
-20.9145 -31.9061 2.5403 0.8582
-19.2784 -31.8477 2.4789 0.8614
-20.2698 -39.6559 2.9655 0.8365
-7.1370 -15.2940 1.1238 0.9346
-17.8590 -42.1567 3.0486 0.8323
-12.0618 -31.5834 2.2512 0.8733
-10.4866 -39.8857 2.7461 0.8476
-9.9847 -44.4015 3.0304 0.8332
-7.4237 -39.6056 2.6831 0.8508
-6.5626 -43.6032 2.9361 0.8380
-4.9708 -43.6143 2.9229 0.8386
-1.7982 -43.1220 2.2139 0.8413
-0.2489 -43.1327 2.2126 0.8413
1.3407 -44.4799 2.2827 0.8367
9.0571 -42.5654 2.2323 0.8400
12.8839 -44.5600 2.3794 0.8305
5.0475 -15.3670 0.8297 0.9373
6.0316 -16.3574 0.8943 0.9326
6.1647 -15.0327 0.8335 0.9370
7.4844 -15.0692 0.8631 0.9348
26.3385 -44.6668 2.6599 0.8125
54.7979 -73.5226 4.7038 0.6926
54.8339 -68.3093 4.4933 0.7041
54.8668 -63.5365 4.3062 0.7145
55.0648 -55.2063 3.9998 0.7318
55.0911 -51.4028 3.8651 0.7395
54.9991 -44.3820 3.6253 0.7535
72.5491 -36.2654 4.1606 0.7226
87.6554 -36.2094 4.8650 0.6840
46.6898 10.3735 2.4534 0.8257
35.2581 14.8300 1.9621 0.8580
35.2294 17.8933 2.0269 0.8536
35.1885 19.4921 2.0636 0.8512
35.3055 21.2479 2.1137 0.8479
35.3358 23.0333 2.1637 0.8446
35.2892 26.7978 2.2730 0.8374
35.3208 31.0591 2.4127 0.8283
35.3371 33.3975 2.4941 0.8230
35.4366 35.9860 2.5907 0.8169
35.4558 38.6904 2.6920 0.8104
35.4514 41.5892 2.8033 0.8034
35.4162 51.9697 3.2260 0.7773
6.7948 11.6937 0.6938 0.9473
35.5172 66.5120 3.8678 0.7393
6.7966 13.9074 0.7940 0.9399
4.7145 11.7095 0.6475 0.9507
1.9628 11.6195 0.6045 0.9539
0.7022 11.7632 0.6045 0.9539
0.2792 11.7661 0.6037 0.9540
-0.1434 11.7690 0.6038 0.9540
-1.4189 11.7779 0.6085 0.9536
-1.8504 11.7809 0.6117 0.9534
-2.2871 11.7839 0.6158 0.9531
-2.7301 11.7870 0.6206 0.9527
-3.1807 11.7901 0.6264 0.9523
-3.6405 11.7933 0.6331 0.9518
-4.1108 11.7965 0.6408 0.9512
-4.5933 11.7999 0.6495 0.9505
-5.0898 11.8033 0.6594 0.9498
-7.2287 13.9213 0.8046 0.9391
-7.7592 13.7156 0.8084 0.9388
-48.3141 78.6716 4.7359 0.6909
-48.4259 62.5959 4.0597 0.7283
-49.6222 55.4200 3.8159 0.7423
-49.8693 51.8256 3.6894 0.7497
-49.8941 48.2578 3.5607 0.7573
-49.9390 41.8009 3.3407 0.7704
-70.1661 54.5707 4.5597 0.7005
-63.5238 36.1524 3.7493 0.7462
-69.2654 36.1922 4.0089 0.7312
-74.7605 35.7079 4.2499 0.7176
-82.1000 35.6529 4.5914 0.6987
-67.3808 23.6746 3.6636 0.7512
-68.6464 18.7087 3.6498 0.7520
-79.0151 -41.9336 4.5886 0.6989
-72.2268 -41.7207 4.2787 0.7160
-56.8320 -41.5699 3.6119 0.7543
-40.3361 -39.5168 2.8966 0.7976
-30.2487 -31.8414 2.2529 0.8387
-28.7097 -32.4807 2.2237 0.8406
-19.6364 -23.8918 1.5864 0.8835
-30.2218 -39.5869 2.5548 0.8192
-29.6651 -41.8943 2.6332 0.8142
-18.6288 -33.4273 1.9630 0.8579
-7.1364 -15.2927 0.8657 0.9346
-10.7825 -31.5922 1.7124 0.8749
