ply
format ascii 1.0
element vertex 1551
property float32 x
property float32 y
property float32 z
property float32 I
end_header
35.8977 19.8850 12.4718 0.8423
37.2266 28.2690 14.2060 0.8225
5.6779 11.6184 3.9301 0.9474
5.2995 11.9098 3.9617 0.9470
4.7663 11.8382 3.8785 0.9480
2.9068 11.9224 3.7295 0.9500
2.3805 11.5508 3.5842 0.9519
1.9641 11.6273 3.5838 0.9519
1.1146 11.6318 3.5512 0.9523
0.6975 11.6831 3.5570 0.9522
0.2832 11.9361 3.6286 0.9513
-1.0054 11.9429 3.6424 0.9511
-1.4390 11.9452 3.6565 0.9509
-2.3193 11.9498 3.6995 0.9504
-3.1441 11.6541 3.6685 0.9508
-3.5983 11.6565 3.7075 0.9503
-5.1593 11.9646 3.9599 0.9470
-5.6783 11.9674 4.0257 0.9461
-6.7735 11.9731 4.1807 0.9441
-8.3845 11.6815 4.3700 0.9417
-54.9681 61.3904 25.0434 0.7086
-50.0976 52.0630 21.9583 0.7393
-50.5049 45.4554 20.6504 0.7527
-52.9015 35.3600 19.3383 0.7664
-57.8922 35.7579 20.6799 0.7524
-62.4223 35.5255 21.8281 0.7406
-35.0440 -31.9492 14.4122 0.8202
-30.2974 -31.8926 13.3690 0.8320
-27.3976 -33.3351 13.1137 0.8349
-24.2707 -31.7917 12.1557 0.8460
-18.5869 -33.3521 11.6039 0.8525
-16.6823 -32.6374 11.1396 0.8579
-11.7431 -30.7487 10.0033 0.8714
-10.8987 -31.9327 10.2545 0.8684
-11.2979 -37.4493 11.8880 0.8491
-10.9481 -41.6408 13.0853 0.8353
-9.4248 -41.9113 13.0555 0.8356
-7.8574 -41.9195 12.9618 0.8367
-6.3104 -41.9277 12.8859 0.8376
-4.7795 -41.9357 12.8274 0.8382
-0.2404 -41.6606 11.9712 0.8408
1.2560 -41.6685 11.9787 0.8407
4.2641 -41.6843 12.0403 0.8400
5.7837 -41.6922 12.0948 0.8393
8.9384 -42.0077 12.3409 0.8363
10.5298 -42.0160 12.4465 0.8350
13.8065 -42.0332 12.7129 0.8318
15.5075 -42.0558 12.8799 0.8298
17.2503 -42.0649 13.0640 0.8276
19.0460 -42.0744 13.2709 0.8251
22.4654 -41.4291 13.5420 0.8219
24.3901 -41.3625 13.7977 0.8189
54.5753 -40.8944 19.5960 0.7529
54.5718 -37.9112 19.0935 0.7584
56.0729 -36.0406 19.1534 0.7577
78.5395 -46.5843 26.2391 0.6838
37.0967 15.6033 11.5641 0.8458
34.8583 16.1580 11.0401 0.8522
39.2453 25.5816 13.4612 0.8229
36.1514 25.4595 12.7055 0.8319
36.4799 27.7019 13.1621 0.8264
6.1971 11.6051 3.7803 0.9467
5.6778 11.6181 3.7157 0.9476
4.2801 11.8408 3.6179 0.9489
3.3639 11.9200 3.5589 0.9498
2.3805 11.5509 3.3888 0.9521
1.1146 11.6318 3.3576 0.9525
-0.1445 11.8640 3.4093 0.9518
-1.8766 11.9475 3.4751 0.9509
-2.3193 11.9498 3.4978 0.9506
-4.0628 11.6589 3.5477 0.9499
-5.1593 11.9647 3.7440 0.9472
-6.1768 11.8956 3.8515 0.9457
-6.7313 11.8985 3.9282 0.9447
-8.3846 11.6815 4.1318 0.9419
-50.4680 52.4479 20.9147 0.7387
-50.3295 39.1431 18.3209 0.7669
-68.6803 39.0871 22.7071 0.7197
-67.8220 35.4380 21.9883 0.7273
-74.2505 35.4644 23.6443 0.7100
-68.2147 26.7555 21.0550 0.7372
-67.9187 23.8637 20.6857 0.7411
-70.4764 16.5142 20.7996 0.7399
-72.6722 14.2981 21.2823 0.7347
-39.5371 -31.1582 14.4647 0.8110
-36.4801 -33.2585 14.1849 0.8143
-33.9614 -33.2716 13.6614 0.8205
-30.2973 -31.8925 12.6401 0.8327
-28.0261 -34.0996 12.6831 0.8322
-24.2391 -31.7502 11.4780 0.8468
-22.6113 -31.9327 11.2431 0.8497
-19.4106 -32.0662 10.7707 0.8556
-18.5869 -33.3520 10.9713 0.8531
-15.5713 -33.3678 10.5807 0.8579
-11.2983 -37.4505 11.2403 0.8498
-9.4248 -41.9112 12.3437 0.8363
-7.8015 -41.6209 12.1679 0.8384
-6.2655 -41.6290 12.0966 0.8393
-4.7455 -41.6370 12.0416 0.8400
-3.3026 -42.4852 11.5448 0.8381
2.8112 -42.5077 11.5414 0.8382
4.3063 -42.0971 11.4645 0.8391
5.8510 -42.1772 11.5361 0.8382
7.3697 -41.9884 11.5494 0.8381
10.4975 -41.8871 11.6990 0.8361
12.0919 -41.8209 11.7942 0.8349
13.7114 -41.7437 11.9037 0.8335
17.2502 -42.0646 12.3172 0.8283
19.0459 -42.0741 12.5122 0.8258
20.9018 -42.0840 12.7302 0.8231
24.8278 -42.1047 13.2425 0.8166
54.5399 -44.0114 18.9869 0.7479
83.8077 -41.8932 25.3839 0.6782
37.0439 11.0720 10.4747 0.8519
41.1174 15.5821 11.9126 0.8334
37.0969 15.6034 10.9031 0.8464
34.6267 17.5873 10.5218 0.8513
35.7687 27.1618 12.1678 0.8302
4.2801 11.8408 3.4111 0.9492
3.3639 11.9200 3.3555 0.9500
2.9068 11.9224 3.3246 0.9504
2.3805 11.5509 3.1951 0.9523
1.5374 11.6296 3.1781 0.9525
0.6974 11.6826 3.1707 0.9527
0.2832 11.9362 3.2347 0.9517
-0.1445 11.8640 3.2145 0.9520
-1.0054 11.9429 3.2470 0.9515
-1.8766 11.9475 3.2765 0.9511
-2.3193 11.9498 3.2979 0.9508
-2.6988 11.6518 3.2403 0.9516
-3.5983 11.6565 3.3050 0.9507
-4.0629 11.6590 3.3449 0.9501
-4.6564 11.9621 3.4776 0.9482
-5.1593 11.9647 3.5300 0.9474
-6.1768 11.8956 3.6313 0.9460
-6.7735 11.9731 3.7269 0.9446
-8.3846 11.6816 3.8956 0.9422
-54.9239 70.9954 24.3180 0.6894
-54.7505 65.7518 23.1806 0.7015
-55.1288 61.5700 22.3900 0.7100
-50.0990 52.0643 19.5750 0.7412
-50.1182 48.4746 18.8900 0.7490
-50.2665 45.2408 18.3216 0.7556
-58.9220 39.3842 19.2008 0.7455
-62.2173 35.4089 19.3946 0.7433
-69.2488 24.3310 19.8853 0.7377
-70.5961 21.9910 20.0324 0.7361
-71.9343 19.6047 20.1993 0.7342
-73.2987 17.1756 20.3960 0.7320
-33.9613 -33.2716 12.8805 0.8212
-30.2972 -31.8924 11.9176 0.8334
-29.3412 -35.6998 12.5193 0.8257
-24.1913 -31.6877 10.8006 0.8477
-20.9377 -31.9414 10.3470 0.8536
-19.4083 -32.0623 10.1540 0.8561
-18.5868 -33.3520 10.3442 0.8537
-11.2986 -37.4518 10.5981 0.8503
-10.9489 -41.6439 11.6656 0.8366
-9.4113 -41.8516 11.6216 0.8371
-0.2489 -43.1334 10.9833 0.8369
1.3004 -43.1415 10.9902 0.8368
7.6682 -43.6892 11.2947 0.8327
10.5903 -42.2574 11.0928 0.8354
12.4854 -43.1817 11.4458 0.8307
18.9798 -41.9283 11.7192 0.8270
24.8262 -42.1020 12.4455 0.8173
26.9156 -42.1132 12.7264 0.8136
29.1044 -42.1251 13.0375 0.8095
54.5553 -40.8794 17.3587 0.7547
56.0725 -36.0403 16.9727 0.7595
60.8049 -36.0653 18.0014 0.7469
78.7619 -42.9716 22.8460 0.6905
83.8073 -41.8930 23.8576 0.6793
75.0678 -27.8993 20.3920 0.7185
40.0164 10.4113 10.5286 0.8431
36.4893 10.9062 9.6975 0.8545
36.5971 12.3860 9.8380 0.8526
36.7196 13.9155 9.9988 0.8504
36.8580 15.5029 10.1816 0.8479
34.6683 16.0700 9.7299 0.8541
34.6765 17.6125 9.9034 0.8517
36.4263 21.9225 10.8255 0.8391
35.0902 26.6466 11.2193 0.8337
35.6943 31.3875 12.1030 0.8219
6.1971 11.6051 3.3500 0.9471
5.6776 11.6176 3.2926 0.9480
4.7962 11.9125 3.2699 0.9484
4.2801 11.8408 3.2060 0.9494
2.8327 11.6182 3.0450 0.9518
1.5368 11.6250 2.9858 0.9528
1.1142 11.6272 2.9742 0.9529
0.6943 11.6294 2.9665 0.9531
0.2760 11.6316 2.9626 0.9531
-0.1417 11.6338 2.9625 0.9531
-0.5599 11.6360 2.9663 0.9531
-0.9798 11.6382 2.9739 0.9529
-1.4023 11.6404 2.9854 0.9528
-1.8287 11.6426 3.0009 0.9525
-2.6977 11.6472 3.0443 0.9518
-3.1232 11.5767 3.0532 0.9517
-4.6564 11.9621 3.2686 0.9484
-5.1594 11.9647 3.3178 0.9476
-5.6784 11.9674 3.3729 0.9468
-6.1769 11.8957 3.4130 0.9462
-6.7735 11.9732 3.5028 0.9448
-54.9248 70.9965 22.8562 0.6904
-55.1298 61.5711 21.0442 0.7110
-50.1536 41.9805 16.6540 0.7634
-50.1694 39.0186 16.1835 0.7693
-50.1844 36.2159 15.7585 0.7746
-52.9020 35.3603 16.2026 0.7690
-64.1652 39.6325 19.2038 0.7325
-62.5552 35.6012 18.3274 0.7430
-75.1961 35.9161 21.2192 0.7090
-73.2146 25.7244 19.7600 0.7259
-74.9490 23.3470 19.9888 0.7232
-79.4816 18.6244 20.7867 0.7139
-75.3361 12.0312 19.4260 0.7299
-39.9176 -31.4580 12.9412 0.8108
-33.9613 -33.2715 12.1060 0.8218
-29.6991 -36.1353 11.9101 0.8244
-24.1837 -31.6777 10.1480 0.8483
-22.5083 -31.7872 9.9177 0.8515
-17.5835 -34.4004 9.8374 0.8526
-9.6962 -43.1185 11.2535 0.8332
-7.9057 -42.1771 10.9266 0.8377
-0.2420 -41.9369 10.0008 0.8416
2.8876 -43.6640 10.4352 0.8353
6.0379 -43.5241 10.4785 0.8347
7.6688 -43.6921 10.5784 0.8333
9.0064 -42.3274 10.3196 0.8370
14.1596 -43.1083 10.8203 0.8298
15.6631 -42.4777 10.7963 0.8301
17.7554 -43.2967 11.1593 0.8250
22.8564 -42.1500 11.4341 0.8211
24.7779 -42.0201 11.6328 0.8182
26.7567 -41.8645 11.8482 0.8152
72.2084 -36.0950 19.2509 0.7175
40.2979 10.4845 9.9297 0.8426
36.2919 15.2648 9.3888 0.8505
34.7795 19.2656 9.4812 0.8492
36.0651 21.7051 10.0378 0.8411
34.6863 22.6099 9.8737 0.8434
36.2480 25.5276 10.5724 0.8333
34.7728 26.4056 10.4121 0.8356
41.7115 45.5168 14.7226 0.7758
36.2967 45.8151 13.9386 0.7863
36.6989 49.9035 14.7718 0.7751
6.1971 11.6052 3.1373 0.9473
5.6307 11.5218 3.0581 0.9486
5.1643 11.6060 3.0293 0.9491
4.6738 11.6085 2.9842 0.9498
4.1971 11.6111 2.9442 0.9505
3.7324 11.6135 2.9089 0.9511
3.2780 11.6159 2.8782 0.9516
2.8327 11.6182 2.8517 0.9520
2.3949 11.6205 2.8294 0.9524
1.9633 11.6228 2.8109 0.9527
1.1142 11.6272 2.7854 0.9531
0.6943 11.6294 2.7782 0.9532
-1.8287 11.6427 2.8104 0.9527
-2.2601 11.6449 2.8288 0.9524
-2.6977 11.6472 2.8510 0.9520
-3.1428 11.6496 2.8774 0.9516
-3.5969 11.6519 2.9080 0.9511
-4.0613 11.6544 2.9431 0.9505
-5.0277 11.6594 3.0279 0.9491
-6.1769 11.8957 3.1964 0.9464
-7.3549 11.9762 3.3515 0.9438
-54.9256 70.9976 21.4057 0.6913
-55.1300 61.5713 19.7084 0.7119
-50.1195 48.4759 16.6277 0.7507
-50.1542 41.9810 15.5971 0.7642
-50.1700 39.0190 15.1563 0.7700
-52.9021 35.3604 15.1741 0.7698
-74.2667 35.4722 19.6267 0.7129
-74.3411 32.2835 19.3274 0.7166
-67.9207 23.8643 17.1676 0.7438
-68.2409 21.2574 17.0445 0.7453
-70.4784 16.5147 17.2621 0.7425
-62.6970 -42.4914 18.0614 0.7324
-39.9174 -31.4579 12.1197 0.8114
-37.8990 -32.1384 11.8497 0.8152
-28.0313 -31.7132 10.0934 0.8403
-24.2002 -31.6994 9.5104 0.8487
-20.9376 -31.9412 9.1075 0.8547
-19.4037 -32.0546 8.9354 0.8572
-18.5868 -33.3518 9.1050 0.8547
-18.1109 -38.8102 10.2131 0.8385
-10.9000 -31.9364 8.0472 0.8704
-8.1735 -43.6059 10.5797 0.8332
-6.4870 -43.1005 10.3939 0.8359
2.8876 -43.6639 9.7330 0.8358
5.7872 -41.7170 9.3676 0.8415
7.6687 -43.6920 9.8666 0.8338
10.4600 -41.7376 9.5704 0.8384
12.6405 -43.7181 10.1221 0.8299
15.4897 -42.0079 9.9584 0.8324
17.9452 -43.7595 10.5197 0.8238
20.9268 -42.1343 10.4638 0.8247
23.0559 -42.5179 10.7578 0.8202
54.5379 -44.0099 15.5874 0.7504
54.4454 -40.7970 15.1323 0.7567
60.5393 -35.9078 15.6556 0.7494
70.5727 -38.5037 17.8811 0.7193
72.2313 -36.1064 17.9612 0.7183
35.5300 12.0248 8.3430 0.8575
35.7469 15.0356 8.6256 0.8531
34.8782 19.3203 8.8683 0.8493
34.7833 28.4387 9.9932 0.8318
34.7946 30.5963 10.3056 0.8271
34.7856 47.3018 13.0596 0.7862
6.1947 11.6006 2.9250 0.9475
3.7324 11.6135 2.7132 0.9512
-0.5600 11.6360 2.5911 0.9534
-0.9798 11.6382 2.5977 0.9533
-1.4023 11.6405 2.6078 0.9531
-2.2601 11.6450 2.6384 0.9526
-3.1428 11.6496 2.6838 0.9518
-3.5969 11.6520 2.7123 0.9513
-5.0277 11.6595 2.8241 0.9493
-5.5335 11.6621 2.8711 0.9485
-6.0570 11.6648 2.9234 0.9476
-6.6007 11.6677 2.9816 0.9465
-15.3069 18.3826 5.3206 0.9066
-55.1302 61.5715 18.3823 0.7127
-50.7801 42.5049 14.7291 0.7623
-50.5408 39.3074 14.2410 0.7692
-50.5559 36.4840 13.8670 0.7745
-58.6840 39.2251 15.6999 0.7488
-57.2860 35.3835 14.9762 0.7589
-62.2180 35.4093 15.9228 0.7458
-68.2175 26.7566 16.2984 0.7406
-69.4880 24.4150 16.3819 0.7395
-72.4713 19.7511 16.7071 0.7351
-75.3750 14.8299 17.0864 0.7299
-39.9726 -29.2380 11.0153 0.8163
-39.9173 -31.4578 11.3041 0.8120
-37.8941 -32.1342 11.0509 0.8158
-33.9611 -33.2713 10.5745 0.8230
-29.9183 -36.4020 10.4803 0.8244
-24.2084 -31.7101 8.8734 0.8492
-20.9375 -31.9411 8.4947 0.8551
-18.8539 -33.8312 8.6144 0.8532
-19.0936 -37.3548 9.3310 0.8421
-11.7631 -30.8012 7.3334 0.8736
-10.9003 -31.9374 7.5059 0.8709
-11.2997 -37.4554 8.7017 0.8519
-10.9501 -41.6486 9.5784 0.8382
-9.8046 -43.6002 9.9398 0.8327
-6.4870 -43.1005 9.6944 0.8364
-4.9718 -43.6226 9.7654 0.8353
-1.7499 -41.9641 8.6724 0.8424
1.3158 -43.6555 9.0182 0.8366
2.8876 -43.6638 9.0355 0.8363
4.2724 -41.7651 8.6688 0.8424
5.7872 -41.7169 8.6963 0.8420
12.6405 -43.7180 9.3968 0.8304
14.3619 -43.7241 9.5029 0.8286
15.5244 -42.1016 9.2655 0.8325
17.9452 -43.7594 9.7658 0.8243
19.8119 -43.7663 9.9198 0.8218
20.8121 -41.9034 9.6608 0.8261
29.1050 -42.1260 10.5725 0.8113
54.5373 -44.0093 14.4703 0.7511
54.6264 -40.9327 14.0947 0.7567
60.8041 -36.0649 14.5974 0.7492
70.5720 -38.5033 16.5997 0.7201
72.2310 -36.1063 16.6741 0.7191
47.0303 10.4492 9.9478 0.8214
34.9478 10.4455 7.5316 0.8616
35.0247 11.8538 7.6350 0.8598
35.2215 14.8146 7.8898 0.8555
34.6673 16.0694 7.8898 0.8555
34.6755 17.6120 8.0305 0.8531
34.9079 19.3367 8.2399 0.8496
34.8354 22.7071 8.5861 0.8438
34.6953 24.4341 8.7623 0.8409
34.7542 26.3915 9.0107 0.8367
34.7829 28.4384 9.2770 0.8323
34.7942 30.5960 9.5670 0.8276
39.0083 45.7617 12.4161 0.7822
36.0841 45.5466 11.9984 0.7887
6.1947 11.6006 2.7155 0.9477
5.1644 11.6060 2.6230 0.9494
4.6738 11.6086 2.5840 0.9502
4.1971 11.6111 2.5493 0.9508
1.9633 11.6228 2.4339 0.9530
1.1142 11.6273 2.4118 0.9534
0.6943 11.6295 2.4056 0.9535
0.2760 11.6317 2.4024 0.9536
-0.1417 11.6339 2.4024 0.9536
-0.9798 11.6383 2.4116 0.9534
-1.4023 11.6405 2.4209 0.9532
-2.2601 11.6450 2.4494 0.9527
-3.1428 11.6496 2.4914 0.9519
-5.0277 11.6595 2.6218 0.9495
-5.5335 11.6621 2.6653 0.9486
-6.0570 11.6649 2.7139 0.9477
-6.6007 11.6677 2.7680 0.9467
-7.1672 11.6707 2.8279 0.9456
-7.7596 11.6738 2.8944 0.9444
-8.3813 11.6770 2.9679 0.9430
-54.9272 70.9996 18.5352 0.6931
-50.1016 52.0671 14.9200 0.7444
-54.6511 52.8588 15.6992 0.7330
-50.7638 45.6884 14.1021 0.7566
-50.7807 42.5054 13.6738 0.7630
-50.1712 39.0199 13.1238 0.7714
-67.8233 35.4387 15.8009 0.7316
-75.0544 35.8484 17.1745 0.7120
-72.5474 28.4549 16.0909 0.7274
-83.9921 16.5253 17.6754 0.7049
-75.3383 12.0316 15.7532 0.7323
-67.7941 -42.4767 16.5191 0.7213
-39.9642 -29.2318 10.2238 0.8169
-39.9172 -31.4577 10.4941 0.8125
-37.8892 -32.1300 10.2577 0.8164
-36.4796 -33.2580 10.1930 0.8174
-19.3991 -32.0471 7.7352 0.8581
-19.0382 -34.1619 8.0753 0.8524
-19.2017 -41.1474 9.3758 0.8307
-11.7148 -30.6746 6.7800 0.8745
-10.9007 -31.9383 6.9682 0.8712
-10.9505 -41.6501 8.8923 0.8387
-9.8045 -43.6001 9.2275 0.8332
-4.9718 -43.6225 9.0656 0.8358
-3.3917 -43.6308 8.3431 0.8368
1.3158 -43.6555 8.3265 0.8371
2.8876 -43.6637 8.3425 0.8368
5.7871 -41.7166 8.0292 0.8424
8.8820 -41.7429 8.1362 0.8405
12.6404 -43.7179 8.6760 0.8308
17.9451 -43.7594 9.0168 0.8248
20.8172 -41.9136 8.9219 0.8265
25.8279 -43.8008 9.6941 0.8130
28.9758 -41.9390 9.7182 0.8126
54.5367 -44.0088 13.3602 0.7517
40.2988 10.4848 7.9385 0.8440
34.9817 10.4557 6.9606 0.8619
35.0166 21.0740 7.7915 0.8467
34.7938 30.5956 8.8331 0.8281
39.0077 45.7611 11.4636 0.7828
36.0841 45.5468 11.0781 0.7893
43.7835 75.3508 16.6143 0.7013
6.1947 11.6006 2.5072 0.9479
5.1644 11.6060 2.4218 0.9496
3.6682 11.4139 2.2856 0.9524
3.2217 11.4162 2.2615 0.9528
2.7840 11.4185 2.2407 0.9533
1.5104 11.4252 2.1971 0.9542
1.0950 11.4274 2.1886 0.9543
-0.5503 11.4360 2.1827 0.9544
-2.2212 11.4448 2.2226 0.9536
-2.6513 11.4471 2.2401 0.9533
-3.0888 11.4493 2.2608 0.9529
-3.5351 11.4517 2.2849 0.9524
-4.0613 11.6544 2.3529 0.9510
-5.0278 11.6595 2.4207 0.9496
-5.5335 11.6621 2.4609 0.9488
-6.6007 11.6677 2.5557 0.9469
-54.9280 71.0007 17.1137 0.6938
-55.1043 61.5426 15.7487 0.7144
-50.4720 52.4521 13.8774 0.7435
-50.1214 48.4777 13.2937 0.7528
-50.1560 41.9825 12.4697 0.7662
-50.1866 36.2176 11.7991 0.7772
-57.2864 35.3837 12.8367 0.7602
-68.9456 36.0251 14.8303 0.7285
-74.2675 35.4726 15.6909 0.7152
-68.2189 26.7572 13.9702 0.7420
-68.2428 21.2580 13.6268 0.7475
-69.0780 18.8263 13.6497 0.7471
-72.6764 14.2989 14.1210 0.7396
-75.3391 12.0317 14.5451 0.7330
-77.2965 -41.0216 16.6829 0.7002
-72.8525 -42.0821 16.0396 0.7099
-60.3320 -40.8885 13.8947 0.7432
-37.8845 -32.1261 9.4698 0.8169
-36.7651 -33.5183 9.4848 0.8166
-37.2594 -36.5026 9.9441 0.8086
-30.2968 -31.8920 8.3862 0.8360
-29.1794 -33.0120 8.3997 0.8358
-20.9374 -31.9410 7.2811 0.8560
-19.6126 -38.3702 8.2153 0.8391
-16.6198 -35.6147 7.4927 0.8521
-13.5402 -31.9621 6.6177 0.8682
-10.9509 -41.6516 8.2106 0.8391
-7.9607 -42.4706 8.2378 0.8387
-6.4869 -43.1003 8.3094 0.8374
-3.3630 -43.2623 7.5894 0.8384
-0.2424 -41.9978 7.3455 0.8432
2.8631 -43.2939 7.5886 0.8385
4.2668 -41.7105 7.3332 0.8434
5.7871 -41.7169 7.3661 0.8428
7.5996 -43.2980 7.6885 0.8365
12.6157 -43.6324 7.9439 0.8316
14.3618 -43.7239 8.0492 0.8295
15.5305 -42.1183 7.8513 0.8334
19.8118 -43.7661 8.4024 0.8228
20.8104 -41.9000 8.1824 0.8270
25.8278 -43.8007 8.8934 0.8134
27.1917 -42.5453 8.8311 0.8146
55.0052 -51.3227 13.1577 0.7368
56.5911 -49.1232 13.1065 0.7376
60.6828 -35.9929 12.3399 0.7509
69.8938 -38.1333 13.9254 0.7237
47.0311 10.4494 8.4263 0.8223
34.6937 11.7417 6.4060 0.8618
34.7089 14.5990 6.5857 0.8582
34.6665 16.0691 6.6828 0.8563
34.9257 22.7659 7.2916 0.8443
34.6945 24.4335 7.4218 0.8417
34.7934 30.5953 8.1034 0.8285
34.7686 35.3077 8.6667 0.8177
34.9586 38.1478 9.0498 0.8105
36.8288 43.2050 9.9293 0.7941
41.2374 65.4422 13.5286 0.7304
5.0756 11.4065 2.1836 0.9506
4.5935 11.4091 2.1511 0.9513
3.6838 11.4626 2.1058 0.9523
3.2469 11.5054 2.0909 0.9526
2.8143 11.5429 2.0780 0.9529
1.9598 11.6023 2.0580 0.9533
1.5367 11.6244 2.0508 0.9535
1.1142 11.6273 2.0429 0.9537
0.6943 11.6295 2.0376 0.9538
0.2760 11.6317 2.0349 0.9539
-0.9798 11.6383 2.0427 0.9537
-2.2523 11.6050 2.0676 0.9531
-3.9958 11.4664 2.1237 0.9519
-4.4597 11.4566 2.1502 0.9513
-4.9413 11.4591 2.1826 0.9506
-5.4384 11.4617 2.2188 0.9498
-6.6007 11.6678 2.3446 0.9470
-7.1673 11.6707 2.3954 0.9459
-54.7552 65.7574 14.9660 0.7065
-50.1029 52.0685 12.6381 0.7457
-50.1220 48.4783 12.1958 0.7534
-50.1566 41.9830 11.4399 0.7667
-50.5426 39.3088 11.1986 0.7710
-57.2866 35.3838 11.7765 0.7608
-75.1995 35.9177 14.5756 0.7129
-69.5361 30.1969 13.2591 0.7350
-68.2196 26.7574 12.8165 0.7426
-69.5070 24.4217 12.8852 0.7414
-67.0992 18.2870 12.1636 0.7540
-74.2469 17.3978 13.3375 0.7337
-75.3398 12.0318 13.3438 0.7336
-69.8695 -40.3590 14.1123 0.7206
-39.9170 -31.4576 8.8888 0.8135
-37.8802 -32.1224 8.6865 0.8174
-37.8029 -37.0351 9.2559 0.8066
-30.2968 -31.8919 7.6935 0.8364
-29.1798 -33.0124 7.7060 0.8362
-29.9099 -42.2400 9.0523 0.8104
-20.9374 -31.9409 6.6797 0.8563
-10.9513 -41.6531 7.5328 0.8395
-1.7509 -41.9889 6.6920 0.8435
-0.2424 -41.9964 6.6875 0.8436
4.2650 -41.6928 6.6737 0.8439
15.5169 -42.0813 7.1419 0.8339
19.6422 -43.3915 7.5845 0.8245
20.8079 -41.8950 7.4487 0.8274
22.7280 -41.9134 7.5923 0.8244
28.9418 -41.8897 8.1076 0.8136
54.4495 -67.8304 13.8506 0.7031
56.6037 -65.5478 13.7907 0.7041
56.6240 -56.7695 12.7678 0.7227
56.6697 -49.1914 11.9494 0.7379
54.5540 -44.0228 11.1626 0.7528
54.7104 -40.9956 10.8863 0.7581
54.4574 -37.8317 10.5588 0.7645
60.8350 -36.0832 11.2630 0.7509
69.9126 -38.1435 12.6818 0.7243
40.2990 10.4848 6.6307 0.8448
34.7007 13.1504 5.9091 0.8604
34.6829 19.2121 6.3135 0.8516
34.6320 20.8426 6.4364 0.8490
33.4175 21.7828 6.3520 0.8508
34.7207 26.3661 6.9422 0.8381
34.7930 30.5949 7.3777 0.8289
34.7682 35.3073 7.8905 0.8182
35.0183 38.2129 8.2535 0.8106
36.2503 45.7565 9.2956 0.7894
36.6120 58.1020 10.9356 0.7572
5.6633 11.5883 2.0538 0.9491
4.6739 11.6087 1.9927 0.9506
4.1971 11.6112 1.9660 0.9512
3.2781 11.6160 1.9219 0.9523
1.9633 11.6229 1.8770 0.9534
1.5368 11.6251 1.8672 0.9536
1.1142 11.6273 1.8600 0.9538
-0.1417 11.6339 1.8527 0.9540
-0.5600 11.6361 1.8550 0.9539
-0.9798 11.6383 1.8598 0.9538
-1.4023 11.6405 1.8670 0.9536
-1.8287 11.6428 1.8767 0.9534
-2.2601 11.6450 1.8889 0.9531
-4.0613 11.6545 1.9653 0.9512
-4.5377 11.6570 1.9919 0.9506
-5.0278 11.6595 2.0219 0.9499
-5.5327 11.6605 2.0552 0.9491
-6.0212 11.5958 2.0806 0.9485
-7.0439 11.4699 2.1433 0.9469
-8.2368 11.4758 2.2493 0.9444
-50.7656 45.6900 10.8757 0.7583
-81.5532 54.5111 15.6201 0.6721
-62.2188 35.4098 11.3996 0.7483
-67.8240 35.4391 12.1855 0.7335
-74.2682 35.4729 13.1059 0.7165
-75.0234 26.3599 12.6624 0.7246
-90.5940 28.2205 15.1096 0.6809
-80.2247 18.7985 13.1207 0.7162
-89.1859 17.5471 14.4739 0.6920
-75.3406 12.0319 12.1490 0.7342
-77.0350 -40.8828 13.8872 0.7024
-66.4141 -41.6121 12.4799 0.7280
-61.2102 -41.4837 11.7744 0.7412
-39.9414 -29.2152 7.8799 0.8184
-39.9169 -31.4575 8.0928 0.8140
-37.8758 -32.1187 7.9079 0.8178
-30.2967 -31.8918 7.0046 0.8368
-29.1802 -33.0129 7.0160 0.8366
-30.0891 -36.6099 7.5459 0.8254
-20.9373 -31.9409 6.0815 0.8567
-19.3923 -32.0359 5.9631 0.8593
-19.3537 -41.4732 7.2877 0.8308
-10.9236 -36.2086 6.0224 0.8580
-6.4869 -43.1002 6.9404 0.8382
-3.3916 -43.6305 6.2864 0.8379
4.2635 -41.6781 6.0183 0.8443
10.4622 -41.7464 6.1823 0.8404
12.4905 -43.1995 6.4598 0.8338
14.3618 -43.7237 6.6111 0.8303
15.5003 -42.0362 6.4359 0.8344
17.7180 -43.2055 6.7081 0.8280
20.8082 -41.8955 6.7197 0.8278
25.3961 -43.0685 7.1823 0.8171
28.9565 -41.9110 7.3177 0.8139
55.1980 -59.4639 11.6549 0.7205
56.6690 -49.1909 10.7796 0.7384
54.6137 -40.9231 9.8034 0.7590
69.9103 -38.1423 11.4400 0.7248
72.3054 -36.1435 11.6120 0.7213
41.0761 1.6073 5.9051 0.8469
34.8867 11.8071 5.2907 0.8617
34.7004 13.1503 5.3306 0.8607
34.6659 16.0688 5.4887 0.8569
34.8764 19.3193 5.7273 0.8512
33.4501 21.8041 5.7358 0.8510
34.7813 24.4946 6.1110 0.8421
34.7706 26.4039 6.2717 0.8383
34.7813 28.4371 6.4537 0.8340
34.7926 30.5945 6.6554 0.8293
34.7677 35.3067 7.1181 0.8185
35.0178 38.2124 7.4455 0.8110
35.3171 41.4316 7.8205 0.8025
35.6371 44.9825 8.2438 0.7930
36.2952 53.2595 9.2584 0.7707
36.0487 57.2080 9.7134 0.7609
6.1947 11.6007 1.8891 0.9482
5.6706 11.6034 1.8552 0.9491
4.6739 11.6087 1.7977 0.9507
4.1971 11.6112 1.7736 0.9513
2.8327 11.6184 1.7179 0.9528
2.3949 11.6206 1.7044 0.9532
1.9633 11.6229 1.6933 0.9535
0.6943 11.6296 1.6736 0.9540
0.2760 11.6318 1.6714 0.9541
-0.5600 11.6362 1.6735 0.9540
-0.9798 11.6384 1.6778 0.9539
-1.8287 11.6428 1.6930 0.9535
-2.2601 11.6451 1.7040 0.9532
-2.6977 11.6474 1.7174 0.9528
-3.5969 11.6521 1.7518 0.9519
-6.0571 11.6650 1.8881 0.9483
-7.7597 11.6739 2.0136 0.9449
-54.9304 71.0037 12.8956 0.6957
-50.4740 52.4540 10.4569 0.7452
-50.1410 45.1279 9.6904 0.7614
-50.1577 41.9840 9.3961 0.7677
-52.9031 35.3611 9.1409 0.7733
-68.2209 26.7580 10.5268 0.7437
-68.2447 21.2585 10.2679 0.7491
-75.3413 12.0320 10.9599 0.7347
-78.2846 -41.5460 12.7311 0.6990
-71.5941 -41.3552 11.8769 0.7160
-39.9517 -29.2227 7.1105 0.8187
-39.9167 -31.4574 7.3006 0.8143
-38.2518 -37.4749 7.6924 0.8054
-30.2966 -31.8918 6.3189 0.8371
-29.1805 -33.0133 6.3294 0.8369
-30.0896 -36.6104 6.8074 0.8257
-30.1042 -39.4328 7.1265 0.8183
-29.9098 -42.2398 7.4349 0.8113
-20.9373 -31.9408 5.4862 0.8570
-19.3900 -32.0322 5.3789 0.8596
-19.9091 -38.9504 6.2838 0.8380
-19.3792 -41.5280 6.5831 0.8309
-12.0477 -31.5464 4.8509 0.8724
-10.8439 -31.7720 4.8226 0.8731
-10.9521 -41.6561 6.1872 0.8403
-9.6969 -43.1213 6.3491 0.8364
-7.9494 -42.4101 6.1983 0.8400
-3.4555 -44.4521 5.7129 0.8354
-1.7520 -42.0161 5.3882 0.8440
2.8876 -43.6634 5.6069 0.8382
4.2617 -41.6607 5.3659 0.8446
5.7887 -41.7280 5.3979 0.8438
7.8125 -44.5113 5.7905 0.8334
10.4619 -41.7452 5.5143 0.8407
18.2816 -44.5799 6.1737 0.8234
19.8117 -43.7659 6.1556 0.8239
20.8166 -41.9124 5.9962 0.8280
22.7263 -41.9102 6.1087 0.8251
54.4293 -67.8053 11.1409 0.7042
56.6683 -49.1903 9.6149 0.7389
60.8346 -36.0830 9.0628 0.7518
69.9097 -38.1420 10.2041 0.7253
72.3052 -36.1434 10.3575 0.7218
47.0305 10.4492 6.1730 0.8234
40.2995 10.4850 5.3355 0.8454
35.1699 10.5119 4.7033 0.8624
34.9164 11.8171 4.7232 0.8619
34.8386 14.6535 4.8427 0.8586
34.6706 17.6095 4.9825 0.8549
35.0050 24.6522 5.4859 0.8414
34.7522 26.3900 5.5912 0.8386
34.7922 30.5942 5.9363 0.8296
34.7542 32.8466 6.1272 0.8246
33.5573 36.6186 6.3641 0.8185
34.0248 46.2672 7.3587 0.7933
35.4369 52.0001 8.0629 0.7759
35.5046 56.3447 8.5333 0.7645
36.4142 62.6683 9.2869 0.7466
6.1948 11.6007 1.6851 0.9483
5.6707 11.6035 1.6548 0.9493
5.1644 11.6061 1.6277 0.9501
4.1971 11.6112 1.5820 0.9514
3.2781 11.6160 1.5465 0.9525
2.8327 11.6184 1.5323 0.9529
2.3949 11.6207 1.5203 0.9533
1.5368 11.6252 1.5025 0.9538
0.6943 11.6296 1.4928 0.9541
0.2760 11.6318 1.4908 0.9542
-2.6978 11.6474 1.5319 0.9529
-3.1429 11.6497 1.5461 0.9525
-4.0613 11.6545 1.5814 0.9514
-4.5377 11.6570 1.6028 0.9508
-6.0571 11.6650 1.6841 0.9484
-50.1583 41.9844 8.3811 0.7681
-50.1888 36.2192 7.9304 0.7791
-52.9033 35.3612 8.1534 0.7737
-62.2192 35.4100 9.1729 0.7492
-67.8245 35.4394 9.8053 0.7345
-71.0635 22.1366 9.5370 0.7407
-76.3263 17.8850 10.0447 0.7290
-78.8908 15.5216 10.3022 0.7231
-85.9758 10.5814 11.0993 0.7052
-27.3068 -8.6986 3.6721 0.8909
-79.2901 -42.0796 11.5016 0.6963
-66.3574 -41.5765 10.0335 0.7292
-61.4816 -41.6676 9.5164 0.7412
-39.9166 -31.4573 6.5119 0.8147
-37.8673 -32.1114 6.3615 0.8185
-37.6847 -34.3567 6.5341 0.8141
-30.2965 -31.8917 5.6363 0.8375
-29.1809 -33.0138 5.6457 0.8372
-29.9097 -42.2397 6.6317 0.8116
-20.9372 -31.9407 4.8935 0.8573
-19.0449 -34.1739 5.0128 0.8540
-19.3792 -41.5279 5.8719 0.8313
-13.5326 -31.9441 4.4452 0.8694
-12.0694 -31.6032 4.3346 0.8725
-10.9022 -31.9428 4.3247 0.8727
-10.9525 -41.6575 5.5190 0.8405
-9.9884 -44.4178 5.8334 0.8323
-7.9457 -42.3902 5.5261 0.8404
-6.4869 -43.1000 5.5846 0.8388
-0.2424 -42.0010 4.7325 0.8444
4.2597 -41.6419 4.7164 0.8449
7.8125 -44.5112 5.0919 0.8337
12.8775 -44.5378 5.2238 0.8298
14.3617 -43.7236 5.1854 0.8309
15.4931 -42.0166 5.0457 0.8351
19.8116 -43.7658 5.4129 0.8242
20.8185 -41.9162 5.2733 0.8283
26.3121 -44.6219 5.8367 0.8118
54.4285 -67.8044 9.7966 0.7047
55.1977 -59.4636 9.1416 0.7214
56.7680 -56.9138 9.0572 0.7236
56.6677 -49.1897 8.4549 0.7393
56.0999 -36.0579 7.5140 0.7646
60.8344 -36.0828 7.9694 0.7522
72.3048 -36.1432 9.1079 0.7222
51.7193 -11.1436 5.9611 0.8082
47.0308 10.4493 5.4283 0.8237
40.2998 10.4850 4.6919 0.8457
35.1702 10.5120 4.1359 0.8626
34.9161 11.8170 4.1533 0.8621
34.8388 14.6536 4.2585 0.8589
34.6652 16.0685 4.3050 0.8574
34.6699 17.6092 4.3813 0.8551
34.9058 19.3356 4.4960 0.8516
34.6139 20.8317 4.5519 0.8499
33.4494 21.8036 4.4988 0.8515
34.7519 26.3897 4.9166 0.8389
34.7918 30.5938 5.2201 0.8299
34.7538 32.8462 5.3880 0.8249
34.7669 35.3059 5.5830 0.8192
33.5387 36.5983 5.5932 0.8189
34.8537 40.8880 6.0536 0.8055
34.8705 44.0149 6.3270 0.7977
34.3098 50.3462 6.8646 0.7825
34.9470 55.4597 7.3859 0.7681
5.6707 11.6035 1.4552 0.9493
5.1644 11.6062 1.4313 0.9502
4.6739 11.6087 1.4100 0.9509
3.7324 11.6137 1.3745 0.9521
3.2781 11.6161 1.3599 0.9526
2.8327 11.6184 1.3474 0.9530
2.3949 11.6207 1.3369 0.9534
0.2760 11.6318 1.3110 0.9542
-0.5600 11.6362 1.3126 0.9542
-1.4023 11.6406 1.3211 0.9539
-1.8287 11.6428 1.3279 0.9537
-2.6978 11.6474 1.3471 0.9530
-4.0613 11.6545 1.3906 0.9515
-5.5336 11.6623 1.4544 0.9494
-6.0571 11.6650 1.4810 0.9485
-6.6008 11.6679 1.5104 0.9475
-7.1673 11.6708 1.5432 0.9464
-49.7875 55.6046 8.4096 0.7405
-37.2905 36.0676 5.8454 0.8115
-67.8248 35.4395 8.6224 0.7349
-74.2691 35.4733 9.2736 0.7180
-75.6399 26.5765 9.0333 0.7242
-66.9925 18.2579 7.8235 0.7562
-80.2269 18.7990 9.2842 0.7177
-75.3428 12.0323 8.5967 0.7356
-85.9284 10.5756 9.7548 0.7057
-27.3071 -8.6987 3.2291 0.8910
-66.4450 -41.6314 8.8347 0.7293
-61.4899 -41.6733 8.3695 0.7416
-39.9165 -31.4572 5.7263 0.8150
-37.6851 -34.3571 5.7459 0.8144
-39.7043 -38.8979 6.2627 0.7995
-30.2964 -31.8916 4.9563 0.8377
-20.9372 -31.9407 4.3031 0.8575
-19.3856 -32.0248 4.2180 0.8601
-19.1008 -34.2741 4.4210 0.8539
-13.5307 -31.9396 3.9083 0.8697
-12.0694 -31.6031 3.8117 0.8727
-10.9025 -31.9436 3.8030 0.8730
-10.9246 -36.2119 4.2617 0.8588
-7.9420 -42.3704 4.8571 0.8407
-5.0654 -44.4436 5.0400 0.8352
-3.4555 -44.4520 4.3368 0.8360
-1.7479 -41.9165 4.0807 0.8448
-0.2425 -42.0225 4.0875 0.8446
1.3113 -43.5049 4.2336 0.8395
2.8876 -43.6632 4.2563 0.8387
4.2620 -41.6636 4.0737 0.8451
7.8125 -44.5111 4.3957 0.8339
10.4744 -41.7951 4.1910 0.8410
12.8775 -44.5377 4.5095 0.8300
15.5050 -42.0489 4.3592 0.8352
22.7467 -41.9477 4.6414 0.8255
29.0190 -42.0015 4.9656 0.8145
56.2159 -75.4253 9.1500 0.6852
56.5820 -65.5227 8.4207 0.7062
56.7673 -56.9132 7.8188 0.7239
56.6670 -49.1892 7.2988 0.7397
54.5515 -44.0208 6.8183 0.7545
54.5835 -37.9194 6.4646 0.7656
60.8342 -36.0827 6.8798 0.7526
40.3002 10.4851 4.0504 0.8459
35.1704 10.5120 3.5705 0.8628
34.6815 19.2113 3.8564 0.8527
34.6315 20.8423 3.9315 0.8501
33.5173 21.8479 3.8916 0.8515
34.7914 30.5935 4.5063 0.8301
34.7664 35.3055 4.8196 0.8194
33.5564 36.6177 4.8311 0.8191
34.8533 40.8874 5.2259 0.8058
35.0403 44.2293 5.4886 0.7971
34.8220 55.2614 6.3533 0.7691
33.6051 57.8339 6.5062 0.7643
6.2507 11.7054 1.2907 0.9481
5.9028 12.0784 1.3076 0.9474
5.4665 12.2850 1.3079 0.9474
3.3178 11.7568 1.1882 0.9521
2.4239 11.7615 1.1681 0.9529
1.9871 11.7638 1.1604 0.9532
1.5368 11.6252 1.1406 0.9540
1.1302 11.7943 1.1525 0.9535
0.7042 11.7965 1.1495 0.9536
0.2800 11.7987 1.1480 0.9537
-0.5680 11.8032 1.1494 0.9536
-1.8550 11.8099 1.1628 0.9531
-2.2926 11.8122 1.1704 0.9528
-3.1880 11.8169 1.1905 0.9520
-3.6387 11.7873 1.1999 0.9516
-4.1085 11.7898 1.2144 0.9511
-4.5904 11.7923 1.2309 0.9504
-6.1274 11.8004 1.2933 0.9480
-6.6554 11.7644 1.3147 0.9471
-7.1673 11.6708 1.3322 0.9464
-8.3814 11.6772 1.3981 0.9439
-54.9327 71.0068 8.7322 0.6971
-49.3138 59.2227 7.4960 0.7337
-50.1594 41.9854 6.3625 0.7688
-50.1899 36.2199 6.0203 0.7798
-57.8946 35.7594 6.6189 0.7607
-63.3337 36.0443 7.0881 0.7461
-68.2230 26.7588 7.1281 0.7449
-72.6804 14.2997 7.2050 0.7425
-75.3435 12.0324 7.4214 0.7359
-85.8920 10.5711 8.4175 0.7062
-79.4757 -42.1781 8.7516 0.6966
-72.4929 -41.8744 8.1430 0.7143
-66.4565 -41.6386 7.6281 0.7297
-61.5160 -41.6909 7.2282 0.7418
-37.6303 -34.3071 4.9530 0.8149
-30.2964 -31.8915 4.2786 0.8380
-29.1817 -33.0147 4.2859 0.8377
-29.9095 -42.2395 5.0343 0.8122
-20.9371 -31.9406 3.7148 0.8577
-19.1011 -34.2748 3.8166 0.8541
-20.2868 -39.6893 4.3356 0.8360
-19.3791 -41.5277 4.4575 0.8318
-13.5288 -31.9352 3.3735 0.8699
-12.0694 -31.6031 3.2905 0.8729
-10.9028 -31.9445 3.2832 0.8731
-10.9250 -36.2130 3.6792 0.8590
-7.9382 -42.3507 4.1911 0.8410
-6.4869 -43.0998 4.2394 0.8393
-5.0653 -44.4435 4.3509 0.8355
-3.4555 -44.4519 3.6520 0.8362
-1.7484 -41.9297 3.4374 0.8450
4.2734 -41.7753 3.4396 0.8449
5.7871 -41.7163 3.4496 0.8445
8.8765 -41.7168 3.4934 0.8427
10.4651 -41.7579 3.5261 0.8413
15.5408 -42.1461 3.6793 0.8350
19.8116 -43.7656 3.9349 0.8246
20.7962 -41.8713 3.8293 0.8289
26.3120 -44.6218 4.2430 0.8123
27.1620 -42.4987 4.1312 0.8167
56.7666 -56.9124 6.5840 0.7243
56.5641 -49.0998 6.1351 0.7404
54.4619 -37.8349 5.4317 0.7663
60.7912 -36.0572 5.7893 0.7530
47.0317 10.4495 3.9462 0.8242
39.9593 10.3965 3.3820 0.8473
34.6919 11.7412 2.9999 0.8633
34.7070 14.5981 3.0840 0.8598
34.6647 16.0683 3.1295 0.8578
34.6729 17.6107 3.1853 0.8555
33.4606 21.8109 3.2715 0.8519
34.7797 28.4358 3.6797 0.8350
34.7530 32.8455 3.9167 0.8254
34.7660 35.3051 4.0585 0.8197
34.8528 40.8869 4.4006 0.8060
35.0943 44.2973 4.6290 0.7971
34.8215 55.2605 5.3500 0.7694
33.6045 57.8328 5.4786 0.7646
6.2506 11.7053 1.0869 0.9481
35.0079 71.6343 6.5306 0.7262
6.1808 13.8903 1.2453 0.9408
4.2365 11.7201 1.0208 0.9512
3.7777 11.7544 1.0113 0.9517
3.3178 11.7569 1.0006 0.9522
2.8671 11.7592 0.9914 0.9526
1.9871 11.7638 0.9772 0.9532
1.5368 11.6252 0.9605 0.9540
0.7042 11.7965 0.9680 0.9537
0.2800 11.7988 0.9667 0.9537
-0.1437 11.8010 0.9667 0.9537
-1.8550 11.8100 0.9792 0.9532
-2.2926 11.8122 0.9856 0.9529
-3.6387 11.7874 1.0104 0.9517
-4.1196 11.8218 1.0254 0.9510
-4.6028 11.8244 1.0393 0.9504
-5.1000 11.8270 1.0550 0.9496
-5.6130 11.8297 1.0725 0.9488
-6.1274 11.8004 1.0891 0.9480
-7.8285 13.8381 1.3023 0.9382
-8.4077 13.6906 1.3159 0.9376
-49.2460 74.0868 7.2866 0.6997
-8.3963 11.6980 1.1794 0.9438
-49.4148 59.3440 6.3253 0.7335
-49.4740 55.2545 6.0749 0.7426
-50.1067 52.0724 5.9191 0.7482
-50.1757 39.0234 5.2064 0.7748
-50.1905 36.2203 5.0697 0.7800
-57.2878 35.3845 5.5152 0.7632
-62.2199 35.4104 5.8638 0.7503
-68.2236 26.7591 6.0025 0.7452
-68.2338 23.9744 5.9238 0.7481
-89.9759 17.7025 7.5110 0.6921
-61.4349 -41.6360 6.0788 0.7424
-37.6860 -34.3579 4.1771 0.8149
-30.2963 -31.8914 3.6030 0.8382
-29.1821 -33.0151 3.6092 0.8379
-30.0913 -36.6124 3.8818 0.8268
-20.9371 -31.9405 3.1282 0.8579
-13.5270 -31.9308 2.8404 0.8701
-10.9031 -31.9454 2.7648 0.8733
-10.9253 -36.2141 3.0983 0.8591
-10.9536 -41.6619 3.5284 0.8412
-6.4869 -43.0997 3.5700 0.8395
-5.0653 -44.4434 3.6638 0.8357
-3.4555 -44.4518 2.9688 0.8363
-1.7509 -41.9878 2.7983 0.8450
-0.2423 -41.9799 2.7954 0.8451
1.3092 -43.4355 2.8936 0.8401
2.8876 -43.6631 2.9137 0.8391
4.2695 -41.7366 2.7936 0.8452
8.8823 -41.7443 2.8418 0.8427
10.4572 -41.7264 2.8644 0.8416
4.3475 -15.0363 1.0422 0.9392
4.8832 -14.8665 1.0420 0.9392
6.0551 -14.7655 1.0626 0.9380
6.6899 -14.7786 1.0802 0.9370
20.8241 -41.9274 3.1172 0.8289
26.3120 -44.6217 3.4493 0.8125
27.1571 -42.4911 3.3578 0.8170
54.4012 -67.7704 5.7867 0.7058
56.5742 -65.5136 5.7638 0.7068
54.3253 -58.5237 5.3171 0.7261
54.4949 -54.6349 5.1383 0.7339
54.6240 -47.4157 4.8164 0.7483
54.5812 -37.9178 4.4253 0.7661
56.0992 -36.0575 4.4405 0.7654
60.8336 -36.0824 4.7097 0.7531
47.0354 10.4503 3.2083 0.8244
40.3010 10.4853 2.7729 0.8463
35.1714 10.5123 2.4443 0.8632
34.6916 11.7410 2.4387 0.8634
34.6990 13.1498 2.4708 0.8618
34.6644 16.0681 2.5441 0.8580
34.7604 20.9198 2.7014 0.8499
34.7797 24.4935 2.8325 0.8432
34.7795 28.4356 2.9914 0.8352
34.7528 32.8453 3.1841 0.8256
34.7154 35.2537 3.2945 0.8201
33.5178 36.5756 3.3034 0.8196
34.8690 44.0130 3.7390 0.7984
34.0244 46.2667 3.8241 0.7944
34.7988 51.0638 4.1146 0.7806
33.5857 57.8004 4.4513 0.7649
35.2028 72.0330 5.3386 0.7251
3.7777 11.7545 0.8221 0.9517
3.3178 11.7569 0.8134 0.9522
1.1302 11.7943 0.7889 0.9536
-0.5680 11.8032 0.7868 0.9537
-0.9912 11.7735 0.7867 0.9537
-2.2926 11.8123 0.8012 0.9529
-3.1880 11.8170 0.8150 0.9521
-4.1196 11.8218 0.8336 0.9511
-5.1000 11.8270 0.8576 0.9497
-5.6130 11.8297 0.8719 0.9489
-6.1274 11.8004 0.8854 0.9481
-48.9162 73.5907 5.8840 0.7017
-8.3963 11.6979 0.9588 0.9439
-49.3914 63.8440 5.3748 0.7235
-49.3694 59.2895 5.1374 0.7340
-49.5468 55.3358 4.9458 0.7425
-50.1074 52.0730 4.8120 0.7485
-50.1440 45.1305 4.4921 0.7630
-50.1606 41.9864 4.3557 0.7693
-75.4933 54.4803 6.1991 0.6885
-57.2879 35.3846 4.4836 0.7634
-67.8255 35.4399 5.0956 0.7358
-74.2700 35.4737 5.4806 0.7190
-75.4969 29.6118 5.4000 0.7225
-85.0877 26.5052 5.9342 0.6996
-80.2290 18.7995 5.4869 0.7187
-75.3449 12.0326 5.0806 0.7365
-79.4518 -42.1654 5.9893 0.6973
-61.4621 -41.6544 4.9439 0.7426
-56.8836 -41.6075 4.6928 0.7539
-39.9162 -31.4569 3.3841 0.8157
-37.8503 -32.0971 3.3046 0.8196
-29.1825 -33.0155 2.9341 0.8381
-30.2599 -39.6368 3.3205 0.8188
-20.9371 -31.9404 2.5430 0.8580
-19.3790 -32.0139 2.4918 0.8607
-19.1018 -34.2760 2.6128 0.8544
-12.0081 -23.4928 1.7568 0.8996
-13.5251 -31.9264 2.3088 0.8702
-12.0693 -31.6030 2.2526 0.8732
-10.9256 -36.2153 2.5188 0.8593
-9.9884 -44.4175 3.0315 0.8332
-6.4868 -43.0997 2.9022 0.8397
-3.4554 -44.4517 2.2871 0.8365
-0.2489 -43.1323 2.2126 0.8413
1.3180 -43.7277 2.2441 0.8393
2.8876 -43.6630 2.2447 0.8392
6.1735 -44.5023 2.3047 0.8353
7.8125 -44.5109 2.3182 0.8344
8.9895 -42.2478 2.2157 0.8411
10.5869 -42.2438 2.2340 0.8399
4.7244 -16.3398 0.8725 0.9341
5.3682 -16.3432 0.8824 0.9334
6.0276 -16.3467 0.8937 0.9326
6.1602 -15.0218 0.8328 0.9370
23.0453 -42.4983 2.4799 0.8240
27.5626 -39.8935 2.4873 0.8235
54.4255 -67.8005 4.4599 0.7059
54.5899 -63.2158 4.2845 0.7157
54.4731 -58.6830 4.1073 0.7256
54.6537 -50.9947 3.8344 0.7413
54.6238 -47.4156 3.7104 0.7485
54.4462 -40.7976 3.4900 0.7615
56.0153 -36.0035 3.4157 0.7659
60.8334 -36.0823 3.6282 0.7533
65.8044 -35.9021 3.8453 0.7406
90.8633 -33.7698 4.9725 0.6782
34.6987 13.1496 1.9035 0.8619
34.7974 17.6739 2.0020 0.8553
35.4215 24.9455 2.2224 0.8407
34.7685 26.4023 2.2395 0.8396
34.7905 30.5927 2.3765 0.8306
34.7524 32.8449 2.4529 0.8257
34.7654 35.3044 2.5417 0.8200
34.8616 38.0419 2.6469 0.8133
34.8522 40.8862 2.7559 0.8064
34.8687 44.0126 2.8804 0.7986
34.8676 47.4133 3.0190 0.7900
34.7984 51.0632 3.1698 0.7808
34.7699 55.1787 3.3456 0.7701
33.5350 57.7133 3.4240 0.7654
6.2504 11.7049 0.6807 0.9482
35.2021 72.0316 4.1126 0.7253
4.2365 11.7201 0.6393 0.9513
3.7674 11.7226 0.6316 0.9519
3.3088 11.7250 0.6249 0.9524
2.8593 11.7274 0.6192 0.9528
2.4174 11.7297 0.6143 0.9532
1.5368 11.6253 0.6015 0.9541
1.1271 11.7624 0.6061 0.9538
0.7023 11.7646 0.6046 0.9539
0.2792 11.7669 0.6038 0.9540
-0.5665 11.7713 0.6045 0.9539
-2.2864 11.7803 0.6156 0.9531
-3.1794 11.7850 0.6261 0.9523
-4.1085 11.7899 0.6404 0.9512
-4.5904 11.7924 0.6491 0.9506
-8.3962 11.6978 0.7386 0.9440
-55.9002 72.2574 4.6863 0.6936
-49.5470 55.3359 3.8101 0.7427
-50.4778 52.4581 3.7344 0.7471
-64.6575 62.5371 4.6143 0.6975
-50.5313 42.2967 3.3803 0.7680
-50.5471 39.3123 3.2848 0.7738
-67.9283 23.8670 3.6933 0.7495
-69.0835 18.8278 3.6730 0.7507
-72.6823 14.3001 3.7998 0.7433
-79.4398 -42.1590 4.6133 0.6975
-66.4731 -41.6490 4.0239 0.7304
-61.6120 -41.7560 3.8179 0.7422
-56.9998 -41.6926 3.6226 0.7536
-39.9160 -31.4568 2.6070 0.8158
-37.8461 -32.0935 2.5456 0.8198
-37.6869 -34.3587 2.6160 0.8152
-40.4042 -39.5835 2.9015 0.7973
-30.2962 -31.8913 2.2564 0.8385
-20.8783 -23.6205 1.6171 0.8814
-29.9094 -42.2392 2.6549 0.8128
-12.0720 -23.6177 1.3606 0.8992
-13.4416 -31.7292 1.7676 0.8711
-12.0693 -31.6029 1.7353 0.8733
-10.9037 -31.9471 1.7316 0.8735
-10.9259 -36.2164 1.9405 0.8594
-10.9544 -41.6648 2.2099 0.8415
-9.9883 -44.4174 2.3354 0.8333
-5.0653 -44.4433 2.2946 0.8360
-3.0908 -39.7598 1.4369 0.8525
-1.6585 -39.7729 1.4343 0.8527
2.6327 -39.8095 1.4375 0.8524
6.9938 -39.8468 1.4576 0.8505
11.5154 -39.8270 1.4938 0.8471
13.1049 -39.8974 1.5131 0.8453
6.0359 -16.3690 0.6286 0.9326
7.4131 -16.3763 0.6477 0.9306
19.8159 -39.8977 1.6051 0.8367
22.9456 -42.3145 1.7343 0.8248
54.2460 -72.7821 3.2706 0.6954
54.4247 -67.7996 3.1325 0.7061
54.4495 -63.0532 3.0017 0.7164
54.4724 -58.6822 2.8849 0.7258
54.6237 -47.4154 2.6061 0.7486
54.5482 -44.0181 2.5255 0.7554
54.5801 -37.9170 2.3945 0.7664
60.8332 -36.0821 2.5484 0.7534
65.7051 -35.8480 2.6968 0.7411
72.3010 -36.1413 2.9124 0.7236
87.2929 -36.0597 3.4030 0.6852
61.8745 -20.4998 2.3485 0.7704
39.1927 10.1970 1.4591 0.8504
35.1718 10.5124 1.3226 0.8634
35.3785 24.9152 1.5591 0.8410
34.7681 26.4020 1.5730 0.8397
34.7788 28.4350 1.6186 0.8354
34.7901 30.5924 1.6692 0.8307
34.7520 32.8445 1.7229 0.8258
34.8610 38.0413 1.8591 0.8134
34.8518 40.8856 1.9357 0.8065
34.7979 51.0625 2.2264 0.7809
6.2503 11.7047 0.4781 0.9483
6.1808 13.8904 0.5478 0.9410
5.5938 13.8935 0.5396 0.9418
4.2365 11.7202 0.4490 0.9513
3.7777 11.7545 0.4449 0.9518
3.3178 11.7569 0.4401 0.9523
2.8671 11.7593 0.4361 0.9527
2.4239 11.7616 0.4327 0.9531
1.9872 11.7639 0.4299 0.9534
1.1302 11.7944 0.4269 0.9537
0.7042 11.7966 0.4258 0.9538
-0.5680 11.8033 0.4258 0.9538
-0.9912 11.7735 0.4257 0.9538
-1.4225 11.8078 0.4285 0.9535
-2.2926 11.8123 0.4335 0.9530
-2.7365 11.8146 0.4370 0.9526
-3.1880 11.8170 0.4410 0.9522
-3.6387 11.7874 0.4445 0.9518
-5.6130 11.8297 0.4718 0.9489
-6.1275 11.8005 0.4791 0.9482
-7.8286 13.8381 0.5728 0.9383
-8.4173 13.7062 0.5795 0.9376
-49.2342 63.6408 2.8991 0.7247
-49.8170 59.8270 2.8050 0.7323
-49.5471 55.3361 2.6762 0.7428
-50.1086 52.0744 2.6038 0.7488
-50.1275 48.4836 2.5127 0.7564
-57.2883 35.3849 2.4261 0.7637
-67.8260 35.4401 2.7573 0.7362
-75.2055 35.9205 3.0029 0.7163
-68.2256 26.7598 2.6405 0.7458
-67.9289 23.8673 2.5942 0.7496
-68.2489 21.2599 2.5756 0.7512
-73.8752 20.1337 2.7588 0.7360
-80.2304 18.7998 2.9690 0.7190
-57.2905 -41.9052 2.5575 0.7527
-29.9763 -23.6235 1.3751 0.8583
-30.2961 -31.8912 1.5849 0.8386
-20.8781 -23.6204 1.1359 0.8815
-19.2819 -31.8536 1.3416 0.8615
-19.3790 -41.5274 1.6511 0.8324
-10.8081 -31.6671 1.2056 0.8747
-10.9263 -36.2175 1.3630 0.8595
-3.1012 -39.8941 0.8315 0.8521
-0.2293 -39.7274 0.8256 0.8530
1.3061 -43.3315 0.9009 0.8408
2.6417 -39.9456 0.8319 0.8520
7.0144 -39.9642 0.8432 0.8502
8.5059 -39.9753 0.8493 0.8492
4.5887 -15.8702 0.3433 0.9360
13.9066 -42.3380 0.9261 0.8367
6.7142 -16.3726 0.3677 0.9316
7.4131 -16.3762 0.3736 0.9306
21.7788 -40.1629 0.9494 0.8329
23.5449 -39.9291 0.9633 0.8307
53.9033 -72.3223 1.8744 0.6971
54.4929 -54.6329 1.6035 0.7344
54.1016 -50.4795 1.5377 0.7438
49.2965 -42.7912 1.3565 0.7702
54.5640 -40.8859 1.4169 0.7613
54.5795 -37.9166 1.3810 0.7665
56.0987 -36.0572 1.3858 0.7658
65.7048 -35.8478 1.5554 0.7412
87.2926 -36.0596 1.9627 0.6853
95.4011 -27.8494 2.0652 0.6719
35.1720 10.5125 0.7628 0.8634
34.6907 11.7407 0.7611 0.8637
34.7057 14.5976 0.7824 0.8602
34.6634 16.0676 0.7940 0.8583
34.6715 17.6100 0.8081 0.8559
34.7594 20.9192 0.8430 0.8502
35.3781 24.9150 0.8992 0.8410
34.7677 26.4017 0.9072 0.8397
34.7784 28.4347 0.9335 0.8355
34.7645 35.3036 1.0296 0.8202
34.8605 38.0407 1.0722 0.8135
34.8513 40.8851 1.1164 0.8066
35.0791 44.2782 1.1739 0.7977
34.8666 47.4119 1.2230 0.7902
34.8194 55.2572 1.3572 0.7700
6.2502 11.7046 0.2757 0.9483
34.9529 71.5218 1.6543 0.7272
6.1950 13.9223 0.3167 0.9409
5.6066 13.9254 0.3120 0.9417
3.3178 11.7569 0.2539 0.9523
1.9871 11.7639 0.2479 0.9534
1.5368 11.6253 0.2437 0.9542
0.7042 11.7966 0.2456 0.9538
-0.1438 11.8011 0.2453 0.9539
-0.5680 11.8033 0.2456 0.9538
-1.8550 11.8100 0.2484 0.9533
-2.7365 11.8147 0.2520 0.9526
-3.1880 11.8170 0.2543 0.9522
-4.6029 11.8245 0.2637 0.9505
-5.1000 11.8271 0.2677 0.9498
-5.6130 11.8297 0.2721 0.9490
-6.1275 11.8005 0.2763 0.9482
-50.1092 52.0750 1.5018 0.7489
-50.1623 41.9878 1.3594 0.7697
-52.9044 35.3619 1.3224 0.7752
-57.2884 35.3849 1.3993 0.7638
-67.8261 35.4403 1.5903 0.7363
-76.1938 33.0881 1.7262 0.7172
-77.4112 30.3627 1.7280 0.7170
-85.0899 26.5059 1.8520 0.7001
-79.2493 -42.0579 1.8644 0.6984
-68.0104 -39.2851 1.6321 0.7303
-38.3063 -24.0010 0.9394 0.8346
-53.9463 -39.4591 1.3889 0.7654
-30.0929 -36.6144 0.9849 0.8273
-20.3966 -26.7170 0.6985 0.8742
-20.6244 -31.4635 0.7818 0.8603
-18.9955 -34.0852 0.8109 0.8555
-13.3452 -31.5017 0.7109 0.8721
-12.0333 -31.5086 0.7009 0.8738
-10.8084 -31.6680 0.6954 0.8747
-10.9266 -36.2186 0.7862 0.8595
-10.9299 -41.5716 0.8932 0.8420
-3.0603 -20.3330 0.4273 0.9210
-0.2489 -43.1321 0.2390 0.8415
4.2944 -41.9810 0.2338 0.8447
7.8124 -44.5106 0.2504 0.8346
8.9379 -42.0054 0.2380 0.8422
10.5292 -42.0137 0.2400 0.8409
13.9063 -42.3369 0.2469 0.8367
7.8957 -15.8973 0.0984 0.9315
22.8248 -42.0918 0.2653 0.8257
26.9156 -42.1133 0.2769 0.8188
54.4232 -67.7978 0.4817 0.7063
54.4710 -58.6807 0.4436 0.7260
54.4923 -54.6323 0.4275 0.7344
52.2794 -48.7794 0.3962 0.7513
49.2963 -42.7911 0.3617 0.7702
13.1641 -9.8641 0.0911 0.9363
13.8916 -9.6505 0.0937 0.9346
90.8608 -33.7688 0.5371 0.6786
90.8800 -30.1097 0.5305 0.6818
90.8988 -26.5351 0.5247 0.6847
52.6927 9.7369 0.2969 0.8071
44.3885 9.8622 0.2519 0.8337
38.0342 9.8956 0.2178 0.8545
35.1722 10.5126 0.2034 0.8634
34.6903 11.7406 0.2029 0.8637
34.6977 13.1493 0.2056 0.8621
34.7053 14.5975 0.2086 0.8602
34.6712 17.6098 0.2155 0.8559
34.7592 20.9191 0.2248 0.8502
34.7682 22.6633 0.2300 0.8470
33.8733 23.8552 0.2296 0.8473
34.7673 26.4014 0.2419 0.8398
34.7893 30.5917 0.2567 0.8308
34.7512 32.8437 0.2649 0.8259
34.3484 40.2951 0.2934 0.8091
34.8672 44.0107 0.3111 0.7988
34.2495 50.2577 0.3370 0.7841
35.0048 71.6279 0.4417 0.7269
6.1951 13.9223 0.0844 0.9409
5.6066 13.9254 0.0832 0.9417
2.8671 11.7593 0.0671 0.9527
2.4239 11.7617 0.0665 0.9531
1.9871 11.7639 0.0661 0.9534
1.5368 11.6253 0.0650 0.9542
1.1302 11.7944 0.0656 0.9537
0.2800 11.7989 0.0654 0.9539
-0.1437 11.8011 0.0654 0.9539
-0.9912 11.7736 0.0655 0.9538
-1.4225 11.8078 0.0659 0.9535
-2.2926 11.8124 0.0667 0.9530
-2.7365 11.8147 0.0672 0.9526
-3.6387 11.7875 0.0684 0.9519
-4.1196 11.8219 0.0694 0.9512
-5.1000 11.8271 0.0714 0.9498
-6.1275 11.8005 0.0737 0.9482
-7.8467 13.8702 0.0883 0.9382
-48.9995 73.7160 0.4904 0.7018
-55.8354 72.1735 0.5056 0.6942
-49.5473 55.3363 0.4116 0.7430
-50.5487 39.3136 0.3548 0.7740
-79.2046 18.5595 0.4507 0.7222
-75.3479 12.0331 0.4228 0.7370
-80.5323 -39.1007 0.4960 0.6990
-74.2885 -39.4252 0.4660 0.7143
-68.0101 -39.2850 0.4352 0.7304
-58.3721 -39.5603 0.3907 0.7542
-54.1713 -39.6237 0.3719 0.7645
-31.8623 -31.2151 0.2471 0.8366
-25.6820 -31.2476 0.2241 0.8506
-22.1394 -31.2662 0.2123 0.8579
-18.9365 -31.2830 0.2026 0.8639
-12.2752 -24.0153 0.1494 0.8977
-14.6090 -31.3057 0.1914 0.8709
-11.9611 -31.3196 0.1858 0.8745
-7.8570 -41.9172 0.2363 0.8432
-3.5981 -31.5698 0.1761 0.8806
0.6583 -9.9545 -0.0967 0.9609
1.0172 -9.9436 -0.0969 0.9608
1.3790 -9.9408 -0.0973 0.9606
4.5884 -15.8693 -0.1602 0.9361
6.0358 -16.3689 -0.1692 0.9326
6.7142 -16.3725 -0.1716 0.9317
7.4131 -16.3762 -0.1743 0.9306
7.8955 -15.8970 -0.1721 0.9315
35.8415 -51.8761 -0.6114 0.7771
35.8655 -48.1209 -0.5820 0.7866
29.5655 -31.8504 -0.4214 0.8404
31.7883 -31.8699 -0.4365 0.8352
12.2924 -11.4694 -0.1630 0.9350
13.7204 -9.5316 -0.1620 0.9354
14.7952 -9.5095 -0.1705 0.9321
15.9934 -9.4862 -0.1803 0.9283
37.5779 -20.5021 -0.4151 0.8426
87.2917 -36.0592 -0.9159 0.6854
90.8600 -33.7685 -0.9399 0.6786
36.1889 -10.5642 -0.3656 0.8600
36.4194 -6.4887 -0.3587 0.8624
38.3123 0.1228 -0.3715 0.8579
52.6932 9.7370 -0.5196 0.8071
44.3888 9.8623 -0.4409 0.8337
38.0345 9.8957 -0.3811 0.8545
35.1724 10.5126 -0.3560 0.8634
34.6900 11.7405 -0.3551 0.8637
34.6974 13.1492 -0.3598 0.8621
34.8965 14.6779 -0.3671 0.8595
34.8708 19.3162 -0.3865 0.8526
34.7680 22.6632 -0.4024 0.8470
34.9694 28.5909 -0.4380 0.8347
21.2984 26.8836 -0.3326 0.8718
34.8660 47.4110 -0.5707 0.7902
18.8926 27.7229 -0.3253 0.8744
6.2501 11.7043 -0.1287 0.9483
26.4443 54.1110 -0.5840 0.7859
5.6067 13.9254 -0.1456 0.9417
3.7777 11.7546 -0.1197 0.9518
3.3179 11.7570 -0.1185 0.9523
2.8671 11.7594 -0.1174 0.9527
2.4240 11.7617 -0.1164 0.9531
1.9872 11.7640 -0.1157 0.9534
1.5368 11.6254 -0.1137 0.9542
0.7042 11.7967 -0.1146 0.9538
0.2800 11.7989 -0.1144 0.9539
-0.9912 11.7736 -0.1146 0.9538
-1.8550 11.8101 -0.1159 0.9533
-4.1197 11.8220 -0.1214 0.9512
-5.1000 11.8271 -0.1249 0.9498
-6.1275 11.8006 -0.1289 0.9482
-7.8468 13.8703 -0.1545 0.9382
-49.0003 73.7172 -0.8583 0.7018
-30.7417 39.7372 -0.4872 0.8179
-34.1693 41.0352 -0.5178 0.8077
-51.0258 49.3524 -0.6883 0.7528
-65.0221 54.4261 -0.8222 0.7123
-50.1790 39.0260 -0.6164 0.7755
-52.9048 35.3622 -0.6170 0.7753
-62.2211 35.4111 -0.6942 0.7510
-67.8267 35.4405 -0.7421 0.7363
-74.2714 35.4744 -0.7981 0.7195
-69.5452 30.2009 -0.7352 0.7384
-86.8311 34.0574 -0.9044 0.6886
-74.5781 23.2314 -0.7574 0.7316
-69.0860 18.8285 -0.6943 0.7509
-72.6849 14.3006 -0.7183 0.7435
-75.3486 12.0332 -0.7399 0.7370
-75.6948 -7.0573 -0.7372 0.7378
-82.8951 -19.9857 -0.8268 0.7110
-47.9841 -23.2976 -0.5172 0.8079
-47.9776 -25.4618 -0.5267 0.8047
-47.9064 -27.6723 -0.5365 0.8015
-38.0714 -25.8020 -0.4460 0.8320
-38.0822 -27.8552 -0.4575 0.8280
-29.7900 -23.4767 -0.3678 0.8592
-29.6647 -31.2266 -0.4176 0.8417
-19.9114 -28.1197 -0.3341 0.8712
-20.5007 -31.2747 -0.3626 0.8611
-17.4382 -31.2908 -0.3473 0.8665
-12.0476 -23.5699 -0.2567 0.8995
-11.9611 -31.3195 -0.3251 0.8745
-11.8493 -34.7177 -0.3557 0.8635
-11.9048 -45.2795 -0.4540 0.8292
-3.5851 -31.4561 -0.3070 0.8810
-1.5629 -20.1047 -0.5029 0.9225
-0.0571 -9.8903 -0.2467 0.9612
1.3728 -9.8956 -0.2491 0.9608
3.5358 -20.1450 -0.5101 0.9214
5.0372 -20.0995 -0.5168 0.9204
6.6247 -20.1686 -0.5294 0.9186
6.0358 -16.3689 -0.4351 0.9326
6.7141 -16.3725 -0.4413 0.9316
7.4131 -16.3761 -0.4483 0.9306
7.8750 -15.8556 -0.4415 0.9316
12.8851 -20.1606 -0.5967 0.9087
17.4405 -20.1964 -0.6655 0.8987
18.9368 -20.4003 -0.6942 0.8946
11.5098 -11.5393 -0.4065 0.9369
11.5918 -10.0621 -0.3828 0.9404
14.7410 -9.4747 -0.4370 0.9323
15.9577 -9.4650 -0.4627 0.9285
37.5775 -20.5019 -1.0675 0.8426
66.0975 -24.5655 -1.7585 0.7542
65.3346 -21.6462 -1.7164 0.7593
65.6634 -16.6354 -1.6893 0.7626
35.2650 -6.2830 -0.8933 0.8665
63.1339 -8.9234 -1.5901 0.7748
73.8041 -5.0712 -1.8449 0.7438
73.9288 -2.4183 -1.8447 0.7438
38.3208 0.1228 -0.9557 0.8578
73.7178 5.5402 -1.8436 0.7439
73.0903 10.8090 -1.8426 0.7441
52.6937 9.7371 -1.3363 0.8070
44.3891 9.8624 -1.1340 0.8336
35.1726 10.5127 -0.9155 0.8634
34.6897 11.7404 -0.9133 0.8637
34.8961 14.6777 -0.9441 0.8594
26.4401 12.2558 -0.7268 0.8899
26.2612 13.3383 -0.7345 0.8888
26.1983 15.7669 -0.7625 0.8848
21.4101 15.0780 -0.6531 0.9005
20.7300 16.9488 -0.6678 0.8984
26.2135 23.0505 -0.8705 0.8696
26.2838 26.6913 -0.9342 0.8608
26.2573 28.6527 -0.9692 0.8560
20.6856 26.1102 -0.8307 0.8752
20.7089 28.1602 -0.8717 0.8695
18.8927 27.7231 -0.8366 0.8744
16.8231 28.9523 -0.8351 0.8746
6.2500 11.7041 -0.3309 0.9483
26.4739 54.1716 -1.5036 0.7856
6.1951 13.9224 -0.3800 0.9408
2.8671 11.7594 -0.3019 0.9527
2.4240 11.7617 -0.2995 0.9531
1.1302 11.7944 -0.2955 0.9537
0.2800 11.7989 -0.2943 0.9539
-0.9912 11.7736 -0.2947 0.9538
-1.4225 11.8078 -0.2966 0.9535
-1.8550 11.8101 -0.2981 0.9533
-2.7365 11.8147 -0.3024 0.9526
-3.1880 11.8171 -0.3052 0.9522
-4.1197 11.8220 -0.3122 0.9511
-5.6131 11.8298 -0.3265 0.9490
-6.1275 11.8006 -0.3316 0.9482
