ply
format ascii 1.0
element vertex 1547
property float32 x
property float32 y
property float32 z
property float32 I
end_header
-11.8476 -34.7128 7.5736 0.8609
-11.4572 -43.5771 9.3038 0.8319
-4.9714 -43.6195 9.0650 0.8358
-0.2519 -43.6504 8.3219 0.8372
1.3160 -43.6607 8.3275 0.8371
2.7579 -41.7034 7.9679 0.8435
4.2721 -41.7630 8.0035 0.8429
12.6461 -43.7376 8.6799 0.8308
13.8254 -42.0909 8.4462 0.8349
15.5251 -42.1036 8.5552 0.8330
17.9560 -43.7857 9.0222 0.8247
25.7986 -43.7511 9.6831 0.8132
53.8379 -43.4450 13.1890 0.7545
53.8518 -37.4110 12.5009 0.7657
61.1797 -36.2877 13.5610 0.7485
72.2240 -36.1028 15.3936 0.7198
34.8467 10.4153 6.9338 0.8623
33.8870 14.2532 7.0086 0.8610
34.1359 15.8231 7.1730 0.8579
34.1459 17.3430 7.3013 0.8556
34.1564 18.9204 7.4441 0.8530
34.3578 22.3958 7.8188 0.8462
34.4150 24.2367 8.0248 0.8425
34.2530 26.0109 8.1996 0.8393
34.2270 32.3483 8.9784 0.8255
34.2612 34.7924 9.3091 0.8197
34.1421 37.2568 9.6342 0.8140
39.0232 45.7793 11.4682 0.7827
36.0461 45.4987 11.0664 0.7895
47.4631 75.3222 16.9730 0.6959
43.7508 75.2944 16.6019 0.7015
5.6649 11.5916 2.4597 0.9488
5.1594 11.5949 2.4195 0.9496
4.6696 11.5981 2.3836 0.9504
2.7820 11.4104 2.2391 0.9533
2.3521 11.4132 2.2216 0.9537
1.9284 11.4160 2.2072 0.9539
1.0944 11.4214 2.1874 0.9544
0.2711 11.4268 2.1791 0.9545
-0.1392 11.4295 2.1791 0.9545
-0.5501 11.4321 2.1820 0.9545
-3.0887 11.4487 2.2607 0.9529
-3.5350 11.4516 2.2849 0.9524
-5.0286 11.6614 2.4211 0.9496
-8.3859 11.6833 2.7417 0.9431
-55.4171 66.5523 16.5107 0.7028
-55.3980 61.8707 15.8327 0.7131
-50.9520 52.9509 14.0094 0.7414
-50.6290 45.5671 12.9858 0.7578
-50.6500 42.3960 12.5925 0.7642
-53.0019 35.4271 12.1540 0.7714
-68.9060 36.0045 14.8218 0.7286
-74.4669 35.5677 15.7330 0.7146
-75.8061 32.9197 15.7560 0.7142
-68.7675 26.9724 14.0826 0.7402
-68.4367 24.0456 13.8290 0.7443
-68.7469 21.4150 13.7274 0.7459
-69.5797 18.9631 13.7489 0.7455
-70.9871 16.6339 13.8999 0.7431
-75.8964 12.1207 14.6527 0.7313
-78.2384 -41.5214 16.8861 0.6972
-60.2871 -40.8581 13.8843 0.7434
-40.5925 -29.6914 9.5880 0.8148
-39.1474 -33.1970 9.7854 0.8114
-37.2105 -33.9244 9.5997 0.8146
-32.4914 -31.8315 8.6716 0.8309
-29.7762 -33.6872 8.5715 0.8327
-30.6739 -37.3214 9.2099 0.8214
-22.5932 -31.9071 7.4535 0.8528
-20.3289 -36.4778 7.9613 0.8436
-20.1470 -39.4156 8.4391 0.8351
-13.6027 -32.1094 6.6482 0.8676
-12.0651 -31.5919 6.4471 0.8714
-11.5033 -33.7039 6.7894 0.8650
-11.9115 -39.4833 7.8624 0.8454
-11.4572 -43.5772 8.5901 0.8324
-9.8025 -43.5910 8.5180 0.8337
-7.9179 -42.2419 8.1935 0.8395
-6.4862 -43.0955 8.3085 0.8374
-4.9714 -43.6196 8.3697 0.8363
2.7582 -41.7073 7.3105 0.8439
6.0070 -43.3016 7.6459 0.8373
7.6020 -43.3114 7.6909 0.8365
12.6222 -43.6548 7.9479 0.8315
13.8212 -42.0779 7.7462 0.8354
17.8833 -43.6086 8.2435 0.8258
19.2437 -42.5113 8.1615 0.8274
20.8431 -41.9657 8.1952 0.8267
23.0128 -42.4386 8.4435 0.8220
25.7982 -43.7504 8.8832 0.8136
27.1607 -42.4967 8.8210 0.8148
56.0046 -60.3329 14.3977 0.7159
56.0314 -56.1754 13.8769 0.7246
55.0566 -51.3707 13.1700 0.7366
56.0798 -48.6794 12.9881 0.7397
53.9520 -43.5370 12.1253 0.7546
53.9909 -37.5077 11.4980 0.7657
72.4084 -36.1950 14.1583 0.7198
31.6354 -11.7574 5.9028 0.8719
46.7547 10.3879 8.3767 0.8233
40.0933 10.4313 7.2457 0.8452
35.0104 10.4642 6.3909 0.8621
34.1577 11.5603 6.3070 0.8638
26.3006 11.0623 4.9903 0.8906
34.1455 17.3428 6.6982 0.8560
34.3577 22.3957 7.1730 0.8466
34.4146 24.2364 7.3619 0.8429
34.2657 28.0155 7.7411 0.8355
34.2799 30.1437 7.9838 0.8308
34.2447 32.3650 8.2411 0.8259
34.2426 34.7735 8.5356 0.8202
36.2199 42.4907 9.7651 0.7971
34.3018 50.3344 10.6533 0.7809
41.2034 65.3883 13.5175 0.7306
37.9850 65.3716 13.2235 0.7356
6.0816 11.3889 2.2581 0.9489
5.5674 11.3922 2.2177 0.9498
5.0707 11.3955 2.1815 0.9506
4.5893 11.3986 2.1491 0.9513
3.2438 11.4946 2.0889 0.9527
2.8117 11.5324 2.0761 0.9529
1.9582 11.5924 2.0562 0.9534
1.1136 11.6213 2.0419 0.9537
-0.1417 11.6295 2.0341 0.9539
-0.5598 11.6322 2.0368 0.9538
-0.9795 11.6349 2.0421 0.9537
-1.4018 11.6364 2.0499 0.9535
-2.2512 11.5989 2.0665 0.9532
-2.6804 11.5725 2.0776 0.9529
-3.5513 11.5042 2.1058 0.9523
-3.9942 11.4619 2.1229 0.9519
-4.4601 11.4577 2.1504 0.9513
-5.4395 11.4640 2.2193 0.9498
-5.9545 11.4674 2.2599 0.9489
-7.7633 11.6792 2.4528 0.9446
-55.2363 61.6900 14.4826 0.7144
-50.6073 48.9477 12.3139 0.7513
-50.6296 45.5676 11.9134 0.7584
-51.0402 39.6957 11.3089 0.7691
-51.0589 36.8470 11.0127 0.7744
-53.5635 35.8025 11.2682 0.7698
-57.4031 35.4558 11.8005 0.7603
-62.3567 35.4882 12.5487 0.7473
-70.1595 30.4676 13.3779 0.7330
-69.5134 24.4239 12.8865 0.7414
-71.1030 22.1489 13.0252 0.7390
-77.9122 -41.3483 15.4269 0.6990
-65.8302 -41.2462 13.5869 0.7295
-61.3269 -41.5628 12.9572 0.7402
-40.6143 -29.7074 8.8008 0.8152
-32.4868 -31.8270 7.9543 0.8314
-30.2636 -31.8570 7.6851 0.8366
-29.7766 -33.6877 7.8637 0.8331
-30.6905 -37.3416 8.4538 0.8218
-21.1703 -32.2962 6.7540 0.8549
-20.1666 -33.3150 6.8112 0.8537
-19.5892 -35.1505 7.0380 0.8492
-16.8062 -36.0142 6.9509 0.8510
-13.6008 -32.1050 6.0982 0.8680
-12.0651 -31.5920 5.9146 0.8717
-11.5036 -33.7049 6.2289 0.8654
-11.5327 -38.2275 6.9836 0.8503
-9.7142 -43.1984 7.7440 0.8354
-6.4862 -43.0956 7.6223 0.8378
-4.8887 -42.8935 7.5506 0.8392
-3.3916 -43.6301 6.9685 0.8376
-1.7515 -42.0024 6.6941 0.8434
5.9813 -43.1165 6.9315 0.8384
8.8857 -41.7605 6.7987 0.8412
13.8216 -42.0792 7.0528 0.8358
15.5325 -42.1237 7.1491 0.8337
23.0084 -42.4304 7.6859 0.8224
25.7677 -43.6986 8.0781 0.8143
27.1512 -42.4819 8.0283 0.8153
54.1930 -67.5109 13.7853 0.7042
55.9749 -64.8196 13.6375 0.7069
55.2061 -59.4727 12.9214 0.7199
55.9528 -56.0966 12.6164 0.7255
53.9713 -40.4418 10.7393 0.7610
35.0105 10.4642 5.8186 0.8624
34.2701 11.5984 5.7611 0.8637
34.1662 12.9478 5.8181 0.8624
26.2990 11.0616 4.5431 0.8909
34.1666 20.5625 6.3499 0.8509
34.2521 26.0102 6.8485 0.8401
34.2653 28.0151 7.0478 0.8359
34.2794 30.1433 7.2688 0.8312
34.2442 32.3646 7.5030 0.8263
34.5137 37.6623 8.1345 0.8131
35.8258 45.2207 9.1867 0.7916
33.8922 46.0869 9.1095 0.7932
36.0620 57.2292 10.7713 0.7603
35.2312 65.9764 11.9099 0.7386
5.6569 11.5752 2.0515 0.9492
3.2756 11.6071 1.9205 0.9523
1.9621 11.6157 1.8758 0.9534
1.5359 11.6185 1.8662 0.9536
0.6939 11.6240 1.8543 0.9539
0.2759 11.6267 1.8519 0.9540
-0.1417 11.6294 1.8520 0.9540
-0.5598 11.6322 1.8544 0.9539
-0.9795 11.6349 1.8593 0.9538
-1.4020 11.6377 1.8665 0.9536
-2.2598 11.6433 1.8886 0.9531
-2.6975 11.6461 1.9036 0.9527
-3.1427 11.6490 1.9213 0.9523
-4.0615 11.6550 1.9654 0.9512
-4.5381 11.6582 1.9921 0.9506
-6.5183 11.5221 2.1080 0.9478
-7.6296 11.4781 2.1947 0.9457
-8.2413 11.4819 2.2506 0.9444
-55.3853 71.5918 14.4133 0.6931
-55.3744 61.8443 13.2186 0.7145
-51.0498 49.3756 11.3092 0.7500
-51.0209 42.7065 10.5949 0.7638
-51.0407 39.6962 10.2963 0.7696
-53.5633 35.8023 10.2591 0.7703
-62.3564 35.4881 11.4248 0.7478
-74.4661 35.5674 13.1409 0.7159
-71.9323 31.2375 12.4877 0.7279
-73.0074 28.6354 12.4877 0.7279
-67.9022 18.5059 11.2069 0.7520
-80.7505 18.9217 13.2067 0.7147
-75.8969 12.1207 12.2387 0.7325
-66.2839 -41.5305 12.4554 0.7285
-40.6214 -29.7125 8.0141 0.8156
-39.8570 -31.4103 8.0807 0.8142
-38.1811 -34.8092 8.2273 0.8112
-30.7096 -40.2258 8.0587 0.8147
-22.5933 -31.9072 6.2256 0.8535
-21.1706 -32.2968 6.1492 0.8552
-20.3761 -36.5626 6.6652 0.8441
-20.2975 -39.7102 7.1015 0.8347
-19.6342 -42.0742 7.3933 0.8286
-11.5039 -33.7059 5.6712 0.8657
-11.6210 -38.5201 6.4069 0.8496
-9.6939 -43.1083 7.0358 0.8361
-6.4862 -43.0957 6.9397 0.8382
-4.8986 -42.9808 6.8884 0.8393
6.0272 -43.4475 6.3010 0.8376
7.6706 -43.7024 6.3738 0.8359
8.8962 -41.8093 6.1404 0.8414
10.4682 -41.7700 6.1858 0.8403
13.8232 -42.0843 6.3632 0.8361
15.5234 -42.0989 6.4455 0.8342
19.2376 -42.4976 6.7011 0.8282
20.8120 -41.9032 6.7209 0.8277
23.0041 -42.4224 6.9323 0.8228
25.6985 -43.5813 7.2678 0.8151
27.1418 -42.4671 7.2399 0.8157
55.8839 -64.7142 12.2826 0.7078
55.9249 -56.0686 11.3758 0.7261
55.2354 -51.5375 10.8520 0.7369
53.9507 -43.5360 9.9586 0.7557
53.9707 -40.4414 9.6880 0.7614
53.9898 -37.5069 9.4434 0.7667
56.2180 -36.1338 9.6000 0.7633
72.4982 -36.2399 11.6430 0.7207
40.7034 3.0590 5.8635 0.8479
35.0104 10.4642 5.2491 0.8627
34.3507 11.6257 5.2094 0.8637
34.1659 12.9477 5.2485 0.8627
26.2974 11.0610 4.0982 0.8911
34.1349 15.8227 5.4046 0.8590
34.1422 18.9126 5.6067 0.8541
34.1663 20.5623 5.7283 0.8512
32.9475 21.4765 5.6496 0.8531
34.2790 30.1429 6.5572 0.8316
34.5132 37.6617 7.3382 0.8135
34.4021 50.4815 8.7754 0.7812
36.8505 63.4191 10.5364 0.7435
34.9387 65.4285 10.6549 0.7410
5.6648 11.5916 1.8533 0.9492
3.2756 11.6071 1.7325 0.9524
2.8307 11.6100 1.7166 0.9529
2.3933 11.6129 1.7032 0.9532
1.9621 11.6157 1.6922 0.9535
1.5359 11.6185 1.6835 0.9537
1.1136 11.6212 1.6770 0.9539
0.6939 11.6240 1.6728 0.9540
0.2759 11.6267 1.6706 0.9541
-0.5597 11.6321 1.6729 0.9540
-0.9795 11.6349 1.6773 0.9539
-1.8284 11.6404 1.6926 0.9535
-2.2598 11.6432 1.7038 0.9532
-3.5969 11.6520 1.7517 0.9519
-4.5381 11.6581 1.7971 0.9507
-5.0286 11.6613 1.8243 0.9500
-5.5347 11.6646 1.8547 0.9492
-6.0587 11.6681 1.8886 0.9483
-6.6029 11.6716 1.9263 0.9473
-55.3752 61.8451 11.9248 0.7150
-50.6517 42.3975 9.4887 0.7657
-50.6714 39.4090 9.2212 0.7715
-74.4657 35.5672 11.8545 0.7164
-68.7699 26.9733 10.6115 0.7419
-68.4385 24.0463 10.4204 0.7459
-73.1993 14.4018 10.7166 0.7397
-75.8971 12.1208 11.0407 0.7330
-78.1029 -41.4495 12.7015 0.6996
-61.8055 -41.8872 10.7252 0.7395
-40.4904 -29.6167 7.2063 0.8165
-39.8571 -31.4104 7.2897 0.8146
-39.0198 -33.0888 7.3492 0.8132
-38.1715 -34.8005 7.4201 0.8116
-30.2637 -31.8571 6.3120 0.8373
-29.7774 -33.6886 6.4588 0.8339
-30.6914 -37.3426 6.9436 0.8226
-30.7100 -40.2264 7.2700 0.8150
-22.5934 -31.9073 5.6162 0.8539
-21.1710 -32.2973 5.5474 0.8555
-20.3765 -36.5633 6.0129 0.8444
-19.7460 -42.3139 6.7076 0.8280
-13.5971 -32.0962 5.0072 0.8686
-11.4461 -33.5363 5.0904 0.8666
-11.4573 -43.5775 6.4726 0.8335
-9.7245 -43.2441 6.3671 0.8360
-6.4863 -43.0958 6.2604 0.8385
-4.9215 -43.1811 6.2431 0.8389
-1.7532 -42.0428 5.3917 0.8439
-0.2519 -43.6508 5.5931 0.8386
4.2639 -41.6824 5.3687 0.8445
8.8972 -41.8142 5.4776 0.8416
13.8291 -42.1019 5.6781 0.8363
15.5149 -42.0759 5.7461 0.8346
19.2345 -42.4908 5.9762 0.8285
20.8164 -41.9120 5.9961 0.8280
25.8479 -43.8346 6.5203 0.8145
29.0256 -42.0111 6.5427 0.8139
55.9324 -75.0449 11.9925 0.6856
56.0942 -64.9578 10.9970 0.7074
56.1989 -48.7828 9.5353 0.7407
53.9702 -40.4409 8.6412 0.7619
56.2182 -36.1340 8.5629 0.7638
40.7196 4.5350 5.2497 0.8477
46.7517 10.3873 6.1364 0.8244
35.7949 10.6987 4.7869 0.8601
34.3805 11.6357 4.6507 0.8638
34.1656 12.9476 4.6815 0.8630
26.2958 11.0603 3.6554 0.8913
34.1345 15.8225 4.8207 0.8592
34.1659 20.5621 5.1094 0.8515
34.1923 32.3155 6.0282 0.8272
33.2587 36.2928 6.3075 0.8199
33.8546 46.0358 7.3219 0.7942
34.3404 50.3911 7.8134 0.7820
34.9652 55.4886 8.4036 0.7676
5.6648 11.5915 1.6531 0.9493
5.1594 11.5948 1.6261 0.9501
4.1935 11.6011 1.5806 0.9515
3.7293 11.6042 1.5618 0.9520
3.2756 11.6071 1.5453 0.9525
2.8307 11.6100 1.5312 0.9530
1.9621 11.6157 1.5094 0.9536
1.1136 11.6212 1.4959 0.9540
0.6939 11.6239 1.4920 0.9541
0.2759 11.6267 1.4902 0.9542
-0.1417 11.6294 1.4902 0.9542
-0.5598 11.6321 1.4922 0.9541
-0.9795 11.6349 1.4961 0.9540
-1.4020 11.6376 1.5019 0.9538
-1.8284 11.6404 1.5098 0.9536
-2.2598 11.6432 1.5197 0.9533
-3.5969 11.6519 1.5625 0.9520
-4.0615 11.6550 1.5814 0.9514
-5.0285 11.6613 1.6272 0.9501
-5.5347 11.6646 1.6543 0.9493
-6.0587 11.6680 1.6846 0.9484
-7.1701 11.6753 1.7555 0.9462
-7.7632 11.6792 1.7969 0.9450
-8.3858 11.6832 1.8427 0.9437
-55.1908 66.2807 11.0514 0.7062
-55.4010 61.8740 10.6416 0.7154
-50.6092 48.9496 9.0215 0.7528
-50.6720 39.4094 8.2251 0.7719
-50.6906 36.5812 8.0097 0.7772
-57.4024 35.4553 8.6449 0.7618
-62.3558 35.4878 9.1930 0.7488
-67.9876 35.5246 9.8288 0.7339
-68.7706 26.9736 9.4652 0.7424
-69.1936 24.3116 9.3972 0.7440
-78.2109 15.3879 10.2134 0.7251
-28.4606 -15.1042 4.1284 0.8782
-61.3511 -41.5792 9.4962 0.7417
-38.2825 -34.9017 6.6377 0.8115
-32.4733 -31.8137 5.8248 0.8325
-30.2638 -31.8572 5.6302 0.8376
-30.7105 -40.2270 6.4847 0.8154
-21.1713 -32.2978 4.9482 0.8558
-20.3769 -36.5640 5.3634 0.8447
-20.3985 -39.9077 5.7427 0.8347
-19.7464 -42.3148 5.9831 0.8284
-11.9767 -39.6992 5.3131 0.8460
-11.4573 -43.5776 5.7734 0.8338
-9.9865 -44.4092 5.8323 0.8323
-7.9128 -42.2147 5.5032 0.8410
1.3200 -43.7923 4.9365 0.8383
2.7579 -41.7024 4.7090 0.8452
6.1753 -44.5148 5.0637 0.8345
7.7373 -44.0825 5.0428 0.8351
8.8952 -41.8051 4.8157 0.8419
15.5202 -42.0902 5.0546 0.8348
18.2929 -44.6075 5.4323 0.8236
19.2314 -42.4841 5.2544 0.8288
20.8066 -41.8923 5.2703 0.8284
27.1266 -42.4434 5.6755 0.8165
29.0231 -42.0075 5.7529 0.8142
55.7872 -74.8501 10.5183 0.6868
54.1738 -67.4871 9.7508 0.7058
56.0934 -64.9570 9.6701 0.7079
55.2258 -59.4938 9.1462 0.7213
55.9487 -56.0925 8.9265 0.7269
56.0585 -48.6610 8.3640 0.7417
53.9495 -43.5350 7.8110 0.7565
56.2184 -36.1341 7.5299 0.7641
60.9731 -36.1651 7.9876 0.7517
69.3536 -37.8386 8.9016 0.7276
72.4989 -36.2402 9.1324 0.7216
40.0915 10.4308 4.6676 0.8464
26.2941 11.0596 3.2141 0.8915
34.1342 15.8223 4.2391 0.8595
34.1367 18.9095 4.3970 0.8546
34.1656 20.5618 4.4929 0.8517
32.9469 21.4761 4.4312 0.8536
34.2783 30.1423 5.1431 0.8322
33.2812 36.3173 5.5503 0.8201
34.3728 43.3866 6.2367 0.8003
34.4178 54.6198 7.2741 0.7712
34.9386 65.4284 8.3572 0.7419
5.1594 11.5948 1.4299 0.9502
4.6696 11.5980 1.4087 0.9509
2.3933 11.6128 1.3360 0.9534
1.9621 11.6156 1.3273 0.9537
1.1136 11.6212 1.3154 0.9541
0.2759 11.6266 1.3104 0.9543
-0.1417 11.6294 1.3104 0.9543
-0.5598 11.6321 1.3121 0.9542
-1.8283 11.6404 1.3276 0.9537
-3.1427 11.6489 1.3594 0.9526
-3.5969 11.6519 1.3740 0.9521
-5.0285 11.6613 1.4309 0.9502
-5.5347 11.6646 1.4547 0.9494
-7.1701 11.6753 1.5437 0.9463
-55.3877 71.5949 10.1990 0.6946
-55.4209 66.5569 9.7586 0.7057
-49.8195 55.6404 8.4150 0.7404
-37.5777 36.3454 5.8904 0.8102
-51.2565 46.1318 7.7698 0.7576
-51.2776 42.9213 7.5345 0.7640
-53.5626 35.8019 7.2591 0.7716
-59.0073 36.4467 7.8145 0.7564
-62.3556 35.4876 8.0839 0.7492
-67.9873 35.5245 8.6430 0.7343
-76.1807 26.7666 9.0979 0.7225
-67.6152 18.4276 7.8963 0.7542
-94.7553 18.6429 10.8810 0.6779
-75.8976 12.1209 8.6600 0.7339
-72.7658 -42.0321 9.4683 0.7130
-56.9684 -41.6696 7.9526 0.7527
-39.8574 -31.4106 5.7178 0.8152
-39.1480 -33.1975 5.7834 0.8133
-38.2829 -34.9021 5.8370 0.8118
-32.4687 -31.8093 5.1214 0.8328
-30.2639 -31.8573 4.9509 0.8379
-32.3994 -39.4208 5.7493 0.8143
-30.7110 -40.2276 5.7024 0.8157
-13.5934 -32.0875 3.9264 0.8691
-12.0652 -31.5923 3.8103 0.8727
-11.5049 -33.7087 4.0132 0.8664
-11.9835 -39.7220 4.6748 0.8462
-11.4773 -43.6536 5.0857 0.8339
-9.9865 -44.4093 5.1287 0.8326
-1.7521 -42.0172 4.0905 0.8445
2.7569 -41.6876 4.0637 0.8454
6.1753 -44.5149 4.3713 0.8348
7.7526 -44.1698 4.3620 0.8351
12.8835 -44.5587 4.5116 0.8299
13.8153 -42.0601 4.3061 0.8370
15.5410 -42.1468 4.3693 0.8348
18.2929 -44.6076 4.6895 0.8239
22.9911 -42.3984 4.6913 0.8238
29.0383 -42.0295 4.9689 0.8144
55.9405 -75.0557 9.1052 0.6865
54.1739 -67.4873 8.4176 0.7062
55.9532 -64.7946 8.3271 0.7089
55.2259 -59.4940 7.8957 0.7216
55.2359 -51.5379 7.3482 0.7381
56.1976 -48.7817 7.2383 0.7415
56.2186 -36.1342 6.5004 0.7645
61.2128 -36.3073 6.9226 0.7512
69.3529 -37.8382 7.6845 0.7280
72.4992 -36.2404 7.8838 0.7220
34.1559 11.5597 3.5074 0.8651
34.1650 12.9474 3.5538 0.8634
34.1652 20.5616 3.8786 0.8519
34.2592 24.1270 4.0757 0.8450
34.2508 26.0092 4.1832 0.8413
34.2426 32.3630 4.5829 0.8275
5.7156 11.6954 1.2662 0.9490
5.4542 12.2574 1.3050 0.9475
5.0116 12.4475 1.3052 0.9475
4.5624 12.6216 1.3054 0.9475
3.7293 11.6041 1.1856 0.9522
3.3153 11.7478 1.1873 0.9521
2.8572 11.7188 1.1733 0.9527
1.5546 11.7592 1.1537 0.9534
-0.1437 11.7963 1.1475 0.9537
-0.5678 11.7991 1.1490 0.9536
-1.4221 11.8046 1.1565 0.9533
-2.2922 11.8103 1.1702 0.9528
-2.7362 11.8132 1.1795 0.9524
-3.1878 11.8162 1.1904 0.9520
-3.6485 11.8192 1.2032 0.9515
-4.0615 11.6549 1.2005 0.9516
-4.5908 11.7934 1.2310 0.9504
-5.5989 11.8000 1.2704 0.9489
-6.1290 11.8034 1.2936 0.9480
-6.6413 11.7394 1.3119 0.9472
-7.7632 11.6791 1.3641 0.9452
-49.7563 64.3157 7.9095 0.7212
-49.7720 59.7730 7.5657 0.7315
-49.8194 55.6402 7.2644 0.7407
-53.5634 55.6647 7.5140 0.7331
-50.9799 49.3081 6.8986 0.7520
-51.2571 46.1324 6.7076 0.7579
-51.2782 42.9219 6.5044 0.7643
-50.6731 39.4103 6.2440 0.7726
-53.0007 35.4263 6.2008 0.7740
-82.7878 32.4716 8.6498 0.6995
-68.4404 24.0469 7.0560 0.7471
-67.9383 18.5157 6.8492 0.7535
-73.2004 14.4021 7.2565 0.7409
-75.8978 12.1209 7.4760 0.7343
-86.4440 10.6391 8.4716 0.7047
-72.7552 -42.0259 8.1724 0.7134
-67.1928 -42.0999 7.7126 0.7271
-39.0837 -33.1430 4.9844 0.8139
-38.2281 -34.8521 5.0317 0.8123
-32.5012 -39.5446 4.9788 0.8141
-21.1720 -32.2989 3.7564 0.8562
-19.7473 -42.3166 4.5422 0.8289
-13.5915 -32.0832 3.3891 0.8693
-12.0653 -31.5923 3.2894 0.8729
-11.5052 -33.7096 3.4646 0.8666
-9.9865 -44.4094 4.4275 0.8328
-3.4555 -44.4521 3.6520 0.8362
-1.7476 -41.9100 3.4358 0.8451
-0.2567 -44.4730 3.6428 0.8365
1.3169 -43.6905 3.5802 0.8391
2.7588 -41.7170 3.4244 0.8455
4.2745 -41.7858 3.4405 0.8449
6.1753 -44.5150 3.6811 0.8350
7.7522 -44.1677 3.6730 0.8353
8.8671 -41.6727 3.4897 0.8428
10.4676 -41.7679 3.5269 0.8413
12.8836 -44.5588 3.7992 0.8301
13.8134 -42.0543 3.6257 0.8372
19.2254 -42.4706 3.8185 0.8294
26.1909 -44.4164 4.2235 0.8131
55.9406 -75.0559 7.6674 0.6868
56.0920 -64.9552 7.0296 0.7086
60.9735 -36.1654 5.8066 0.7524
69.3522 -37.8378 6.4710 0.7283
79.9433 -36.4358 7.1960 0.7029
46.7504 10.3870 3.9226 0.8251
39.7895 10.3522 3.3676 0.8479
35.0095 10.4639 2.9929 0.8636
34.1559 11.5597 2.9535 0.8653
34.1650 12.9474 2.9926 0.8636
26.2909 11.0582 2.3362 0.8918
34.1438 17.3420 3.1367 0.8575
34.1580 20.5573 3.2654 0.8521
32.9981 21.5095 3.2263 0.8538
34.2502 26.0088 3.5226 0.8415
34.2775 30.1415 3.7387 0.8326
34.2421 32.3626 3.8591 0.8277
33.2932 36.3305 4.0363 0.8206
34.3762 40.3277 4.3404 0.8084
33.9571 46.1752 4.6947 0.7945
34.3998 50.4783 5.0034 0.7826
33.3185 57.3406 5.4320 0.7663
34.4019 64.4234 5.9820 0.7459
5.7155 11.6953 1.0662 0.9491
26.2446 58.9802 5.2876 0.7718
5.5889 13.8815 1.2257 0.9417
5.0191 13.8852 1.2093 0.9425
3.7293 11.6041 0.9983 0.9523
2.4223 11.7536 0.9829 0.9530
1.9805 11.7245 0.9739 0.9534
1.1136 11.6211 0.9562 0.9542
0.7039 11.7907 0.9675 0.9537
0.2798 11.7935 0.9663 0.9538
-1.4221 11.8046 0.9739 0.9534
-2.7361 11.8132 0.9932 0.9525
-3.1878 11.8161 1.0024 0.9521
-3.6485 11.8191 1.0132 0.9516
-4.0615 11.6549 1.0109 0.9517
-4.6032 11.8254 1.0394 0.9503
-5.1007 11.8286 1.0551 0.9496
-8.3869 13.6566 1.3127 0.9377
-49.6886 69.2272 6.9797 0.7104
-49.8856 59.9094 6.3855 0.7313
-50.5873 52.5718 5.9759 0.7462
-50.6110 48.9513 5.7672 0.7538
-50.6332 45.5709 5.5796 0.7608
-50.6737 39.4107 5.2581 0.7729
-50.6922 36.5824 5.1204 0.7781
-53.0005 35.4262 5.2216 0.7743
-57.4017 35.4549 5.5262 0.7628
-67.9867 35.5241 6.2830 0.7350
-70.1659 30.4704 6.2657 0.7356
-70.3991 21.9296 6.0395 0.7438
-80.7541 18.9225 6.7936 0.7169
-67.1824 -42.0934 6.4937 0.7275
-61.3520 -41.5799 6.0706 0.7427
-39.1482 -33.1977 4.2043 0.8138
-38.2838 -34.9030 4.2433 0.8123
-32.4598 -31.8005 3.7220 0.8333
-30.2640 -31.8575 3.5991 0.8383
-32.5367 -39.5879 4.1972 0.8141
-30.7119 -40.2288 4.1455 0.8162
-22.5936 -31.9076 3.2023 0.8548
-20.1707 -33.3217 3.1904 0.8553
-19.7477 -42.3175 3.8250 0.8291
-11.5055 -33.7106 2.9176 0.8668
-9.9866 -44.4095 3.7283 0.8330
-0.2567 -44.4731 2.9614 0.8367
2.7592 -41.7220 2.7842 0.8457
4.9002 -14.9184 1.0456 0.9390
5.4512 -14.7834 1.0492 0.9388
6.6948 -14.7894 1.0810 0.9370
20.8564 -41.9925 3.1220 0.8286
22.9824 -42.3825 3.2103 0.8243
28.9870 -41.9552 3.3956 0.8151
53.8793 -54.0178 5.0802 0.7365
53.9035 -50.2948 4.9090 0.7441
54.0659 -46.9313 4.7672 0.7505
53.9466 -43.5326 4.6158 0.7574
53.9667 -40.4383 4.4904 0.7631
56.2189 -36.1344 4.4500 0.7650
72.2536 -36.1176 5.3787 0.7234
87.5850 -36.1804 6.3100 0.6839
40.0911 10.4307 2.7584 0.8470
35.0092 10.4638 2.4331 0.8637
26.2893 11.0576 1.8991 0.8920
34.1335 15.8220 2.5051 0.8600
34.1434 17.3418 2.5499 0.8577
34.1538 18.9190 2.5998 0.8551
34.1645 20.5612 2.6551 0.8523
34.2773 30.1414 3.0393 0.8328
34.2578 34.7889 3.2511 0.8222
33.2680 36.3030 3.2788 0.8209
33.8538 46.0347 3.8049 0.7953
34.3992 50.4774 4.0674 0.7828
34.4291 54.6378 4.3002 0.7719
33.3483 57.3918 4.4199 0.7664
5.7154 11.6951 0.8668 0.9492
5.0306 13.9170 0.9854 0.9424
3.7293 11.6041 0.8116 0.9523
2.8572 11.7188 0.8032 0.9528
2.4223 11.7535 0.7991 0.9530
1.9805 11.7245 0.7918 0.9535
1.5546 11.7592 0.7898 0.9536
0.7039 11.7907 0.7865 0.9538
-0.9936 11.8018 0.7886 0.9536
-1.8546 11.8074 0.7959 0.9532
-2.7361 11.8132 0.8074 0.9526
-3.6485 11.8191 0.8236 0.9516
-4.0614 11.6549 0.8218 0.9517
-5.1007 11.8286 0.8577 0.9497
-49.8243 69.4163 5.6896 0.7100
-49.8850 59.9086 5.1910 0.7316
-49.6007 55.3959 4.9512 0.7422
-51.0441 39.6989 4.3058 0.7716
-51.0628 36.8498 4.1930 0.7769
-57.4014 35.4548 4.4925 0.7630
-62.3548 35.4871 4.7773 0.7500
-67.9864 35.5240 5.1077 0.7353
-75.6224 29.6610 5.4089 0.7221
-76.2186 26.7799 5.3794 0.7234
-85.1023 26.5098 5.9353 0.6995
-32.4554 -31.7962 3.0254 0.8335
-20.3784 -36.5667 2.7874 0.8455
-12.1143 -23.7005 1.7723 0.8988
-11.5058 -33.7115 2.3719 0.8669
-11.9836 -39.7222 2.7627 0.8468
-5.0652 -44.4417 2.9784 0.8358
-3.4555 -44.4523 2.2871 0.8365
2.8541 -43.1573 2.2187 0.8409
4.3200 -42.2304 2.1776 0.8436
6.1753 -44.5152 2.3053 0.8353
7.7515 -44.1634 2.3001 0.8356
9.3013 -43.7136 2.2926 0.8361
4.0967 -16.3469 0.8645 0.9347
6.0323 -16.3595 0.8944 0.9325
6.1708 -15.0476 0.8343 0.9369
6.8078 -15.0390 0.8468 0.9360
20.9156 -42.1117 2.4120 0.8283
22.9782 -42.3746 2.4727 0.8244
26.1900 -44.4149 2.6449 0.8134
27.1050 -42.4096 2.5818 0.8174
28.9676 -41.9271 2.6141 0.8154
53.8246 -62.3296 4.2245 0.7190
53.8527 -58.0147 4.0605 0.7283
53.8787 -54.0171 3.9136 0.7367
54.0653 -46.9308 3.6725 0.7507
53.9852 -37.5037 3.3719 0.7685
56.1351 -36.0806 3.4230 0.7655
61.2133 -36.3076 3.6508 0.7520
65.3890 -35.6755 3.8210 0.7420
90.2721 -33.5501 4.9401 0.6800
40.0908 10.4306 2.1250 0.8471
35.0091 10.4638 1.8743 0.8639
34.1644 12.9471 1.8741 0.8639
34.1332 15.8219 1.9299 0.8601
34.2684 17.4052 1.9716 0.8573
34.1642 20.5610 2.0454 0.8524
34.9011 24.5791 2.1897 0.8428
34.2629 28.0132 2.2702 0.8376
11.7856 10.3635 0.8051 0.9391
34.2573 34.7885 2.5045 0.8224
34.3566 37.4909 2.6085 0.8157
34.3711 43.3844 2.8392 0.8012
34.3989 50.4769 3.1334 0.7830
34.2857 54.4101 3.2990 0.7729
33.0536 56.8847 3.3748 0.7684
5.7153 11.6949 0.6677 0.9492
3.7293 11.6040 0.6252 0.9524
2.8572 11.7187 0.6187 0.9528
1.9805 11.7245 0.6099 0.9535
1.5503 11.7273 0.6068 0.9537
1.1136 11.6211 0.5989 0.9543
0.2791 11.7615 0.6035 0.9540
-0.1433 11.7643 0.6035 0.9540
-0.5663 11.7670 0.6043 0.9539
-0.9909 11.7698 0.6059 0.9538
-2.2860 11.7783 0.6155 0.9531
-4.0614 11.6549 0.6331 0.9518
-4.5908 11.7933 0.6492 0.9506
-5.0869 11.7965 0.6590 0.9498
-5.5989 11.7999 0.6700 0.9490
-6.6795 11.8069 0.6959 0.9471
-8.5500 13.9223 0.8381 0.9367
-49.8494 74.9947 4.6193 0.6972
-49.6005 55.3958 3.8142 0.7424
-50.9818 49.3098 3.6383 0.7527
-51.2589 46.1340 3.5376 0.7587
-51.0447 39.6993 3.3171 0.7718
-75.2528 35.9431 4.2779 0.7160
-68.7518 21.4165 3.6939 0.7494
-70.9911 16.6349 3.7402 0.7467
-73.2016 14.4023 3.8270 0.7417
-28.4537 -15.1005 1.6524 0.8790
-72.7236 -42.0076 4.3080 0.7144
-67.1617 -42.0804 4.0655 0.7280
-61.3712 -41.5928 3.8030 0.7431
-39.8579 -31.4110 2.6032 0.8161
-39.1485 -33.1979 2.6330 0.8142
-30.7128 -40.2299 2.5963 0.8165
-20.3787 -36.5673 2.1474 0.8456
-12.1619 -23.7935 1.3707 0.8985
-19.7485 -42.3193 2.3956 0.8294
-12.0653 -31.5925 1.7348 0.8733
-11.5062 -33.7124 1.8273 0.8670
-9.9866 -44.4097 2.3350 0.8333
-3.0911 -39.7634 1.4370 0.8525
2.6334 -39.8204 1.4379 0.8524
5.5278 -39.8479 1.4495 0.8513
4.0899 -16.3196 0.6062 0.9349
11.5218 -39.8493 1.4946 0.8470
6.0406 -16.3820 0.6291 0.9325
7.3972 -16.3412 0.6463 0.9307
26.9702 -42.1987 1.8044 0.8184
53.7934 -67.0133 3.0962 0.7090
53.8239 -62.3288 2.9672 0.7192
53.8520 -58.0139 2.8520 0.7285
54.0068 -50.3912 2.6614 0.7440
53.9454 -43.5317 2.4976 0.7577
53.9846 -37.5033 2.3684 0.7687
56.2193 -36.1347 2.4079 0.7653
65.5919 -35.7862 2.6922 0.7415
72.4981 -36.2398 2.9203 0.7229
87.5859 -36.1807 3.4144 0.6843
90.2713 -33.5498 3.4699 0.6801
45.2934 10.0633 1.6717 0.8305
34.1028 11.5418 1.2972 0.8658
34.1640 12.9470 1.3164 0.8640
26.2837 11.0552 1.0274 0.8921
34.1329 15.8217 1.3555 0.8602
34.3535 17.4485 1.3883 0.8571
34.3639 19.0353 1.4154 0.8545
34.1638 20.5608 1.4367 0.8525
34.2281 22.3112 1.4721 0.8491
34.2625 28.0129 1.5946 0.8377
11.7834 10.3616 0.5654 0.9391
34.4523 32.5613 1.7080 0.8272
34.2569 34.7880 1.7591 0.8225
34.3561 37.4903 1.8322 0.8158
34.3705 43.3838 1.9942 0.8013
34.3985 50.4763 2.2008 0.7831
34.3358 54.4897 2.3206 0.7728
34.4521 59.2915 2.4707 0.7600
5.0191 13.8851 0.5320 0.9426
3.7293 11.6040 0.4392 0.9524
1.9805 11.7244 0.4284 0.9535
0.7039 11.7907 0.4256 0.9538
0.2798 11.7934 0.4250 0.9539
-0.5678 11.7990 0.4256 0.9538
-0.9936 11.8018 0.4267 0.9537
-2.2860 11.7782 0.4323 0.9531
-2.7361 11.8131 0.4369 0.9526
-3.1878 11.8161 0.4410 0.9522
-3.6485 11.8191 0.4457 0.9517
-4.0614 11.6548 0.4447 0.9518
-5.1007 11.8286 0.4641 0.9497
-5.6141 11.8319 0.4719 0.9489
-6.6795 11.8069 0.4888 0.9472
-8.5041 13.8476 0.5855 0.9370
-56.2595 78.3819 3.4763 0.6796
-50.9493 65.8577 3.0001 0.7166
-50.6350 45.5725 2.4545 0.7613
-50.6938 36.5836 2.2525 0.7786
-52.9999 35.4257 2.2969 0.7748
-62.3543 35.4869 2.5850 0.7504
-68.4428 24.0478 2.6138 0.7480
-68.7524 21.4167 2.5946 0.7496
-28.4508 -15.0990 1.1605 0.8790
-57.5503 -42.0952 2.5689 0.7517
-30.3781 -23.9402 1.3936 0.8566
-32.2903 -31.6344 1.6287 0.8345
-30.2643 -31.8577 1.5832 0.8387
-32.5370 -39.5882 1.8463 0.8146
-30.7132 -40.2305 1.8236 0.8166
-21.1734 -32.3009 1.3916 0.8568
-13.3402 -31.4899 1.2322 0.8721
-12.0294 -31.4984 1.2148 0.8738
-11.4103 -33.4314 1.2728 0.8681
-8.9162 -39.6494 1.4643 0.8499
-4.5239 -39.6926 1.4394 0.8522
-3.1015 -39.8976 0.8316 0.8521
-1.6637 -39.8956 0.8298 0.8524
2.6412 -39.9379 0.8317 0.8520
5.5477 -39.9911 0.8390 0.8508
6.9864 -39.8048 0.8398 0.8507
4.0173 -16.0297 0.3434 0.9360
11.5219 -39.8494 0.8620 0.8471
5.3795 -16.3777 0.3582 0.9334
19.9188 -40.1049 0.9305 0.8360
53.7220 -72.0792 1.8681 0.6979
53.8363 -67.0666 1.7872 0.7089
53.8232 -62.3280 1.7113 0.7193
53.8774 -54.0158 1.5854 0.7370
54.0640 -46.9297 1.4877 0.7509
53.9448 -43.5312 1.4405 0.7578
53.9649 -40.4370 1.4013 0.7635
53.9840 -37.5029 1.3660 0.7688
56.2195 -36.1348 1.3888 0.7654
61.2138 -36.3079 1.4790 0.7522
87.5790 -32.5492 1.9416 0.6881
90.2942 -29.9156 1.9767 0.6835
45.2930 10.0632 0.9642 0.8306
34.1547 11.5593 0.7493 0.8657
34.1325 15.8216 0.7818 0.8603
34.1425 17.3413 0.7958 0.8580
34.1635 20.5606 0.8286 0.8525
34.8578 24.5485 0.8860 0.8432
11.7813 10.3598 0.3260 0.9392
34.2565 34.7876 1.0146 0.8226
34.3701 43.3832 1.1502 0.8014
34.5985 47.0474 1.2136 0.7916
34.4508 64.5150 1.5198 0.7463
5.7152 11.6945 0.2705 0.9493
34.5537 77.6534 1.7662 0.7117
5.6017 13.9132 0.3117 0.9418
3.7293 11.6040 0.2533 0.9524
2.8572 11.7187 0.2507 0.9529
1.9805 11.7244 0.2471 0.9535
-0.1437 11.7962 0.2452 0.9539
-0.9936 11.8017 0.2461 0.9537
-2.7361 11.8131 0.2520 0.9526
-3.1878 11.8160 0.2543 0.9522
-3.6485 11.8190 0.2570 0.9517
-5.1007 11.8285 0.2677 0.9498
-5.6141 11.8319 0.2721 0.9490
-6.1456 11.8354 0.2771 0.9480
-8.5238 13.8796 0.3385 0.9369
-49.7207 74.8010 1.8665 0.6981
-49.7518 69.3152 1.7730 0.7108
-49.6003 55.3955 1.5452 0.7427
-50.5898 52.5745 1.5162 0.7468
-50.6563 42.4014 1.3728 0.7677
-50.6944 36.5840 1.2991 0.7787
-52.9996 35.4256 1.3247 0.7749
-57.4008 35.4543 1.4020 0.7634
-62.3539 35.4867 1.4909 0.7505
-67.9854 35.5235 1.5940 0.7357
-74.4628 35.5658 1.7148 0.7188
-76.2215 26.7809 1.6788 0.7238
-86.1594 23.4816 1.8557 0.6996
-75.8990 12.1211 1.5972 0.7353
-89.3398 -18.1731 1.8946 0.6944
-28.4479 -15.0974 0.6693 0.8791
-68.4867 -39.5602 1.6436 0.7287
-62.7418 -39.3112 1.5386 0.7436
-58.0725 -39.3572 1.4578 0.7553
-53.8634 -39.3985 1.3868 0.7657
-30.4558 -24.0014 0.8058 0.8563
-38.1624 -32.3617 1.0398 0.8186
-38.1783 -34.8068 1.0736 0.8133
-32.0183 -31.3680 0.9315 0.8358
-32.5371 -39.5882 1.0649 0.8146
-30.7136 -40.2311 1.0518 0.8167
-20.6106 -31.4425 0.7813 0.8604
-19.5779 -32.3425 0.7856 0.8596
-20.4013 -39.9132 0.9315 0.8358
-13.3402 -31.4899 0.7107 0.8721
-12.0294 -31.4985 0.7007 0.8738
-11.4106 -33.4323 0.7341 0.8682
-11.9305 -39.5461 0.8584 0.8477
-11.4772 -43.6531 0.9380 0.8348
-8.9162 -39.6495 0.8445 0.8499
-3.7680 -20.1024 0.4250 0.9214
-6.4863 -43.0964 0.9057 0.8400
1.3408 -44.4839 0.2466 0.8369
2.8541 -43.1575 0.2397 0.8411
6.1754 -44.5154 0.2490 0.8355
7.7503 -44.1569 0.2484 0.8358
4.0171 -16.0292 0.0916 0.9360
12.8837 -44.5592 0.2570 0.8307
5.3795 -16.3777 0.0955 0.9334
6.0407 -16.3820 0.0967 0.9325
7.3235 -16.1783 0.0984 0.9314
22.8437 -42.1266 0.2655 0.8256
26.9412 -42.1534 0.2772 0.8186
29.1338 -42.1677 0.2840 0.8146
53.8225 -62.3272 0.4563 0.7194
53.8506 -58.0124 0.4386 0.7286
12.8890 -9.6580 0.0892 0.9376
56.2197 -36.1349 0.3703 0.7654
61.2140 -36.3080 0.3943 0.7522
41.1895 -20.5895 0.2551 0.8318
87.5868 -36.1811 0.5251 0.6845
90.2696 -33.5492 0.5336 0.6803
90.2933 -29.9153 0.5270 0.6835
38.1816 0.1223 0.2116 0.8584
44.1181 9.8021 0.2504 0.8346
35.0083 10.4636 0.2024 0.8640
34.1543 11.5592 0.1998 0.8657
34.1634 12.9468 0.2024 0.8640
34.1322 15.8214 0.2084 0.8603
34.1524 18.9182 0.2163 0.8554
34.1631 20.5604 0.2209 0.8526
34.2451 22.3223 0.2265 0.8492
33.8054 23.8074 0.2291 0.8476
33.2569 25.2544 0.2314 0.8462
34.2618 28.0123 0.2452 0.8378
11.7792 10.3579 0.0869 0.9392
34.2402 32.3608 0.2610 0.8282
34.2560 34.7872 0.2705 0.8226
34.3071 40.2466 0.2930 0.8093
34.3696 43.3826 0.3067 0.8014
34.3347 54.4879 0.3568 0.7729
17.9988 30.9756 0.1985 0.8665
16.6306 31.1437 0.1956 0.8683
5.7151 11.6943 0.0721 0.9493
5.6017 13.9132 0.0831 0.9418
5.0306 13.9169 0.0820 0.9425
3.7293 11.6040 0.0675 0.9524
2.4222 11.7535 0.0665 0.9531
1.9805 11.7244 0.0659 0.9536
1.5545 11.7591 0.0657 0.9537
0.7039 11.7906 0.0654 0.9539
0.2798 11.7934 0.0654 0.9539
-0.9936 11.8017 0.0656 0.9537
-1.4221 11.8045 0.0659 0.9536
-1.8546 11.8073 0.0662 0.9533
-2.7361 11.8131 0.0672 0.9527
-3.6484 11.8190 0.0685 0.9517
-4.0614 11.6548 0.0684 0.9518
-5.1006 11.8285 0.0714 0.9498
-6.6794 11.8069 0.0752 0.9472
-8.5238 13.8796 0.0902 0.9369
-49.7487 69.3109 0.4727 0.7109
-49.6001 55.3954 0.4120 0.7427
-65.2454 54.6130 0.4714 0.7115
-51.0464 39.7006 0.3583 0.7721
-51.0650 36.8514 0.3489 0.7773
-58.0090 35.8300 0.3778 0.7613
-75.8762 36.2409 0.4659 0.7144
-76.2225 26.7812 0.4476 0.7239
-28.4450 -15.0959 0.1784 0.8791
-62.9605 -39.4482 0.4117 0.7429
-34.1834 -31.1646 0.2563 0.8311
-31.8265 -31.1800 0.2469 0.8368
-21.0410 -23.8047 0.1760 0.8807
-23.8436 -31.2321 0.2177 0.8546
-22.1232 -31.2434 0.2121 0.8580
-20.4871 -31.2541 0.2071 0.8612
-18.9252 -31.2643 0.2025 0.8640
-17.4288 -31.2740 0.1984 0.8666
-14.6028 -31.2925 0.1913 0.8710
-11.1944 -37.1063 0.2147 0.8564
-11.4776 -43.6546 0.2501 0.8348
4.0170 -16.0286 -0.1602 0.9360
5.3795 -16.3778 -0.1672 0.9334
6.0407 -16.3821 -0.1693 0.9325
15.7663 -31.7440 -0.3437 0.8678
35.0517 -64.6398 -0.7130 0.7452
35.2684 -59.8106 -0.6733 0.7575
35.2342 -50.9972 -0.6010 0.7804
35.2995 -43.9744 -0.5468 0.7981
29.6080 -31.8963 -0.4220 0.8402
11.8516 -9.5637 -0.1477 0.9409
14.7899 -9.5061 -0.1705 0.9321
15.9983 -9.4891 -0.1804 0.9283
37.4036 -20.4070 -0.4132 0.8433
41.0053 -20.4974 -0.4445 0.8325
87.5873 -36.1813 -0.9189 0.6845
90.2688 -33.5489 -0.9338 0.6803
90.2925 -29.9151 -0.9223 0.6835
35.1314 -10.2555 -0.3549 0.8638
82.0076 -20.7761 -0.8203 0.7129
38.1770 0.1223 -0.3702 0.8584
37.8326 9.8431 -0.3791 0.8552
35.0081 10.4635 -0.3543 0.8640
34.1540 11.5591 -0.3496 0.8657
34.1418 17.3409 -0.3713 0.8580
33.2653 25.2608 -0.4050 0.8461
34.2398 32.3604 -0.4568 0.8282
34.4479 34.9820 -0.4761 0.8217
34.3550 37.4891 -0.4931 0.8159
21.0208 26.5332 -0.3282 0.8734
17.6021 27.9339 -0.3202 0.8763
16.3734 28.1784 -0.3160 0.8778
16.4098 30.7302 -0.3378 0.8699
5.7150 11.6942 -0.1262 0.9493
17.4269 39.1639 -0.4157 0.8424
5.6017 13.9131 -0.1454 0.9418
5.0306 13.9169 -0.1435 0.9425
3.3152 11.7476 -0.1184 0.9523
2.4223 11.7534 -0.1164 0.9531
1.9805 11.7244 -0.1153 0.9535
1.1136 11.6210 -0.1132 0.9544
-0.1437 11.7962 -0.1144 0.9539
-0.5678 11.7989 -0.1145 0.9538
-1.4221 11.8045 -0.1153 0.9536
-2.7361 11.8131 -0.1176 0.9527
-3.1877 11.8160 -0.1187 0.9522
-4.6032 11.8252 -0.1230 0.9505
-5.1006 11.8285 -0.1249 0.9498
-6.1455 11.8353 -0.1293 0.9481
-6.6794 11.8068 -0.1315 0.9472
-8.5238 13.8796 -0.1579 0.9369
-31.2325 40.3716 -0.4949 0.8153
-35.8749 40.0664 -0.5215 0.8064
-61.6362 55.4738 -0.8041 0.7177
-65.1162 54.5048 -0.8234 0.7120
-51.0655 36.8518 -0.6106 0.7773
-62.3535 35.4864 -0.6957 0.7505
-70.1721 30.4731 -0.7418 0.7364
-75.5380 26.5407 -0.7764 0.7259
-69.5861 18.9648 -0.6994 0.7494
-70.9928 16.6352 -0.7070 0.7470
-73.2031 14.4026 -0.7234 0.7420
-75.8994 12.1212 -0.7453 0.7353
-76.8059 -7.1609 -0.7480 0.7345
-77.7983 -10.0817 -0.7607 0.7307
-94.3836 -15.6941 -0.9278 0.6820
-81.5148 -19.6529 -0.8131 0.7150
-62.3964 -19.8764 -0.6350 0.7695
-49.5237 -19.7916 -0.5171 0.8079
-48.5538 -28.0463 -0.5437 0.7991
-38.6574 -26.1991 -0.4528 0.8296
-38.6710 -28.2859 -0.4646 0.8256
-30.1465 -23.7577 -0.3722 0.8577
-30.1584 -25.5743 -0.3834 0.8537
-31.8265 -31.1801 -0.4320 0.8368
-29.6341 -31.1944 -0.4172 0.8419
-20.7743 -23.5030 -0.3042 0.8821
-20.4892 -26.8384 -0.3274 0.8737
-20.4872 -31.2541 -0.3624 0.8611
-13.1259 -23.5529 -0.2615 0.8978
-12.4555 -36.4938 -0.3739 0.8571
-12.4875 -41.3924 -0.4192 0.8412
-3.7767 -20.1484 -0.1988 0.9213
-1.4989 -9.9591 -0.0977 0.9605
-0.7696 -9.9005 -0.2476 0.9610
-0.0571 -9.8944 -0.2468 0.9612
2.0605 -20.1426 -0.5049 0.9222
2.7952 -20.1497 -0.5073 0.9218
3.5379 -20.1568 -0.5104 0.9214
4.2781 -20.1060 -0.5126 0.9210
4.0168 -16.0281 -0.4121 0.9360
5.8338 -20.1767 -0.5238 0.9194
7.3029 -16.1328 -0.4416 0.9316
12.9004 -20.1845 -0.5974 0.9086
13.9914 -20.2508 -0.6138 0.9062
15.2031 -20.3981 -0.6344 0.9032
16.3521 -20.3706 -0.6514 0.9008
10.4487 -11.2562 -0.3830 0.9404
10.5339 -9.8286 -0.3593 0.9440
11.7897 -9.5138 -0.3778 0.9412
14.7567 -9.4848 -0.4375 0.9322
13.6158 -7.4287 -0.3868 0.9398
14.2556 -6.4973 -0.3907 0.9392
65.8904 -24.4885 -1.7530 0.7548
33.8687 -9.8870 -0.8799 0.8683
65.5083 -16.5961 -1.6853 0.7631
62.8915 -8.8892 -1.5840 0.7756
71.1031 -7.4580 -1.7829 0.7512
38.1838 0.1224 -0.9522 0.8583
73.9212 2.8924 -1.8449 0.7438
73.2040 10.8258 -1.8454 0.7437
34.1537 11.5590 -0.8992 0.8657
34.1628 12.9465 -0.9111 0.8640
26.2719 11.0503 -0.7108 0.8922
25.7476 13.0774 -0.7202 0.8909
25.8260 14.3059 -0.7363 0.8886
25.6970 16.7502 -0.7650 0.8845
20.8361 14.6737 -0.6355 0.9031
11.7749 10.3541 -0.3910 0.9392
20.2313 27.5106 -0.8516 0.8723
25.6765 37.6776 -1.1371 0.8332
16.3953 30.7030 -0.8680 0.8700
10.9015 24.4991 -0.6687 0.8983
5.0306 13.9168 -0.3690 0.9425
3.7293 11.6039 -0.3039 0.9524
2.8571 11.7186 -0.3008 0.9529
2.4222 11.7534 -0.2993 0.9531
1.9805 11.7244 -0.2965 0.9535
1.1136 11.6210 -0.2911 0.9544
-0.5678 11.7989 -0.2946 0.9538
-0.9935 11.8017 -0.2954 0.9537
-1.4221 11.8045 -0.2965 0.9535
-1.8546 11.8073 -0.2981 0.9533
-2.2859 11.7782 -0.2992 0.9531
-2.7361 11.8130 -0.3024 0.9526
-3.6484 11.8190 -0.3085 0.9517
-4.6032 11.8252 -0.3165 0.9505
-5.1006 11.8285 -0.3212 0.9498
-6.6794 11.8068 -0.3383 0.9472
-8.5237 13.8795 -0.4062 0.9369
-30.8929 43.0407 -1.3212 0.8090
-26.8806 32.2819 -1.0476 0.8453
-19.9676 19.3128 -0.6928 0.8948
-19.8076 17.8272 -0.6646 0.8989
-21.1151 16.4220 -0.6671 0.8985
-23.6141 17.0413 -0.7262 0.8900
-23.8931 15.9704 -0.7167 0.8914
-56.5137 32.1628 -1.6216 0.7709
-57.6009 30.0974 -1.6207 0.7710
-58.6137 27.9957 -1.6199 0.7711
-59.5518 25.8610 -1.6191 0.7712
-41.1459 16.1385 -1.1022 0.8379
-61.9043 19.2835 -1.6170 0.7715
-62.5322 17.0424 -1.6163 0.7716
-63.5489 12.5031 -1.6152 0.7717
-63.9370 10.2108 -1.6147 0.7718
-64.2440 7.9068 -1.6142 0.7718
-46.8796 0.6914 -1.1692 0.8289
-70.6316 -1.4946 -1.7618 0.7538
-70.3250 -6.5567 -1.7614 0.7538
-69.2012 -14.0766 -1.7611 0.7539
-62.8470 -15.1522 -1.6122 0.7721
-61.6037 -19.6239 -1.6124 0.7721
-55.5205 -19.9081 -1.4709 0.7898
-54.7700 -24.2030 -1.4933 0.7869
-48.6712 -28.1141 -1.4017 0.7986
-38.6448 -24.2131 -1.1373 0.8332
-38.6714 -28.2863 -1.1949 0.8255
-30.1587 -25.5746 -0.9861 0.8537
-30.1714 -27.5069 -1.0182 0.8493
-46.9926 -49.4667 -1.7015 0.7611
-20.4769 -24.9146 -0.8043 0.8789
-20.4895 -26.8388 -0.8421 0.8736
-39.9815 -56.4634 -1.7254 0.7582
-36.0569 -59.5657 -1.7364 0.7568
-13.1259 -23.5529 -0.6724 0.8977
-12.0425 -23.5600 -0.6599 0.8995
-11.8412 -27.9515 -0.7570 0.8856
-25.1904 -65.9599 -1.7608 0.7539
-22.8615 -66.9828 -1.7651 0.7534
-20.4887 -67.9141 -1.7691 0.7529
-18.0761 -68.7520 -1.7728 0.7524
-0.7649 -9.8403 -0.3967 0.9613
-0.4104 -9.8407 -0.3959 0.9613
0.2964 -9.8342 -0.3954 0.9614
1.3445 -20.3302 -0.8189 0.9217
2.8774 -20.7417 -0.8416 0.9196
4.0167 -16.0275 -0.6641 0.9360
5.3796 -16.3778 -0.6929 0.9333
6.7199 -16.3866 -0.7118 0.9316
7.3230 -16.1773 -0.7137 0.9314
10.2499 -20.6373 -0.9261 0.9119
11.2182 -20.6877 -0.9459 0.9101
15.4657 -20.7504 -1.0402 0.9016
16.3518 -20.3704 -1.0499 0.9007
9.9901 -11.5687 -0.6143 0.9406
9.9949 -10.7673 -0.5905 0.9429
9.9993 -10.0250 -0.5691 0.9449
10.1329 -9.4545 -0.5570 0.9460
11.2379 -9.7550 -0.5981 0.9422
11.7386 -9.4726 -0.6063 0.9414
13.6546 -9.4859 -0.6682 0.9356
15.3431 -9.8617 -0.7331 0.9296
15.9984 -9.4891 -0.7476 0.9282
38.4011 -15.8630 -1.6699 0.8468
39.5764 -14.7088 -1.6970 0.8445
33.7933 -11.1961 -1.4308 0.8672
43.6038 -12.7288 -1.8257 0.8337
33.5958 -7.2387 -1.3813 0.8715
45.0158 -6.3626 -1.8272 0.8336
45.4601 -1.4871 -1.8281 0.8335
45.4895 0.1458 -1.8283 0.8335
40.6649 9.0349 -1.6743 0.8464
37.8320 9.8429 -1.5712 0.8551
31.7083 10.7313 -1.3454 0.8746
31.6341 11.9882 -1.3597 0.8733
26.2001 11.0201 -1.1424 0.8924
26.0185 12.0604 -1.1526 0.8915
25.7216 14.2480 -1.1818 0.8890
25.6400 15.4309 -1.2028 0.8871
20.4214 13.3115 -0.9797 0.9070
20.0674 14.1324 -0.9865 0.9064
20.0393 15.2173 -1.0113 0.9042
20.0931 16.4281 -1.0431 0.9013
25.8756 28.2361 -1.5393 0.8579
20.4996 24.0487 -1.2701 0.8812
18.2755 29.0025 -1.3778 0.8718
16.6044 28.5759 -1.3283 0.8761
5.6017 13.9131 -0.6028 0.9417
3.7293 11.6039 -0.4899 0.9524
1.5545 11.7591 -0.4767 0.9536
-0.1437 11.7961 -0.4741 0.9539
-0.5678 11.7988 -0.4748 0.9538
-1.4221 11.8044 -0.4779 0.9535
-1.8546 11.8073 -0.4804 0.9533
-3.1877 11.8159 -0.4919 0.9522
-4.0614 11.6547 -0.4961 0.9518
-5.1006 11.8284 -0.5177 0.9497
-24.6924 37.1479 -1.7928 0.8365
-27.3137 30.5050 -1.6457 0.8488
-19.6817 19.0363 -1.1005 0.8962
-19.7000 16.4897 -1.0325 0.9023
-19.8140 15.4101 -1.0089 0.9044
-26.8564 16.5882 -1.2687 0.8813
-27.6480 14.4465 -1.2538 0.8826
-28.9995 13.8511 -1.2917 0.8793
-40.2499 17.4790 -1.7637 0.8389
-40.2609 15.7913 -1.7382 0.8410
-40.2712 14.1495 -1.7156 0.8429
-40.3514 12.5696 -1.6987 0.8443
-40.6529 11.0794 -1.6935 0.8448
-41.9595 8.2554 -1.7188 0.8427
-43.9050 5.4036 -1.7779 0.8377
-44.2127 0.6521 -1.7772 0.8378
-44.1370 -2.5212 -1.7768 0.8378
-43.8368 -5.6807 -1.7766 0.8378
-43.3144 -8.8108 -1.7765 0.8378
-42.5716 -11.8960 -1.7766 0.8378
-42.1189 -13.4170 -1.7767 0.8378
-41.0338 -14.7136 -1.7520 0.8399
-37.5819 -15.0192 -1.6266 0.8504
-37.0221 -16.3602 -1.6268 0.8504
-36.4152 -17.6806 -1.6270 0.8504
-33.9223 -22.9900 -1.6470 0.8487
-30.1472 -23.7582 -1.5427 0.8576
-30.1717 -27.5072 -1.6410 0.8492
-29.3833 -28.7865 -1.6533 0.8482
-28.3947 -29.8897 -1.6570 0.8479
-20.4772 -24.9149 -1.2962 0.8789
-20.4898 -26.8392 -1.3571 0.8736
-22.8370 -34.8390 -1.6743 0.8464
-21.6134 -35.7032 -1.6774 0.8461
-13.1259 -23.5530 -1.0837 0.8977
-11.8244 -25.3386 -1.1238 0.8941
-11.8415 -27.9521 -1.2201 0.8856
-15.0154 -39.3158 -1.6915 0.8449
-13.6135 -39.8869 -1.6939 0.8447
-12.1895 -40.4045 -1.6962 0.8446
-1.8426 -9.8301 -0.4020 0.9608
-1.1199 -9.8259 -0.3975 0.9612
0.2939 -9.7498 -0.5410 0.9617
2.1106 -20.6319 -1.1503 0.9203
2.8139 -20.2843 -1.1358 0.9212
4.2781 -20.1060 -1.1401 0.9209
4.0166 -16.0269 -0.9164 0.9360
6.0407 -16.3822 -0.9684 0.9324
6.7199 -16.3866 -0.9823 0.9315
10.1072 -20.3501 -1.2602 0.9130
11.0419 -20.3628 -1.2848 0.9114
12.0004 -20.3513 -1.3104 0.9097
14.1500 -20.4805 -1.3807 0.9051
15.4728 -20.7600 -1.4361 0.9015
9.9946 -10.7670 -0.8148 0.9428
9.9990 -10.0247 -0.7853 0.9449
10.1329 -9.4545 -0.7687 0.9460
10.8175 -9.3900 -0.7945 0.9442
13.6475 -9.4810 -0.9217 0.9356
14.6476 -9.4147 -0.9658 0.9326
12.5404 -7.4381 -0.8087 0.9433
30.7328 -11.4220 -1.8185 0.8769
31.4852 -9.1912 -1.8192 0.8769
32.4969 -4.5932 -1.8203 0.8768
32.6449 -3.4241 -1.8205 0.8768
32.8133 -1.0734 -1.8209 0.8768
32.8109 1.2838 -1.8212 0.8767
32.7456 2.4609 -1.8213 0.8767
32.6377 3.6350 -1.8214 0.8767
31.2886 4.6271 -1.7543 0.8810
29.5637 5.4629 -1.6675 0.8865
29.0954 7.5699 -1.6675 0.8865
28.8042 8.6092 -1.6674 0.8865
28.4756 9.6373 -1.6674 0.8865
28.1098 10.6527 -1.6673 0.8865
26.1814 11.0122 -1.5754 0.8924
26.0918 12.0944 -1.5951 0.8912
25.6818 13.0440 -1.5976 0.8910
25.7443 15.4938 -1.6665 0.8866
20.0134 14.0944 -1.3577 0.9066
20.0617 15.2344 -1.3972 0.9040
11.7706 10.3504 -0.8693 0.9391
23.8312 22.5232 -1.8187 0.8769
10.8629 11.0313 -0.8587 0.9399
22.1446 24.1648 -1.8179 0.8769
21.2581 24.9385 -1.8175 0.8770
20.3444 25.6794 -1.8171 0.8770
19.4047 26.3866 -1.8166 0.8770
17.4524 27.6963 -1.8157 0.8771
5.7147 11.6936 -0.7219 0.9492
5.5346 13.7466 -0.8219 0.9424
4.9703 13.7502 -0.8109 0.9431
3.3152 11.7475 -0.6770 0.9523
2.8571 11.7186 -0.6690 0.9528
1.9805 11.7243 -0.6595 0.9535
1.5545 11.7590 -0.6579 0.9536
1.1136 11.6209 -0.6475 0.9543
0.7039 11.7905 -0.6551 0.9538
-0.1437 11.7961 -0.6543 0.9538
-0.5678 11.7988 -0.6552 0.9538
-0.9935 11.8016 -0.6569 0.9537
-1.4221 11.8044 -0.6595 0.9535
-1.8525 11.7945 -0.6622 0.9533
-2.2860 11.7781 -0.6655 0.9531
-2.7287 11.7810 -0.6707 0.9527
-3.6385 11.7869 -0.6842 0.9518
-4.0614 11.6547 -0.6845 0.9518
-5.5988 11.7997 -0.7244 0.9490
-6.6794 11.8068 -0.7524 0.9471
-18.8690 26.2886 -1.7948 0.8784
-15.3122 18.3890 -1.3272 0.9086
-21.5640 24.0835 -1.7930 0.8785
-22.4074 23.2864 -1.7924 0.8786
-19.6779 17.7105 -1.4684 0.8994
-19.6951 16.4856 -1.4245 0.9022
-26.3166 16.2548 -1.7156 0.8835
-26.3278 14.9836 -1.6802 0.8857
-26.7442 12.7739 -1.6439 0.8880
-27.9446 9.8185 -1.6428 0.8881
-31.0617 8.4655 -1.7856 0.8790
-31.5789 6.2131 -1.7851 0.8790
-31.7771 5.0748 -1.7848 0.8790
-31.9347 3.9303 -1.7846 0.8791
-32.0514 2.7812 -1.7844 0.8791
-32.1273 1.6287 -1.7842 0.8791
-32.1621 0.4743 -1.7840 0.8791
-32.1560 -0.6804 -1.7839 0.8791
-32.0206 -2.9854 -1.7837 0.8791
-31.7219 -5.2747 -1.7836 0.8791
-31.2615 -7.5370 -1.7836 0.8791
-29.4196 -13.0006 -1.7839 0.8791
-28.9364 -14.0494 -1.7841 0.8791
-27.7240 -14.7132 -1.7408 0.8818
-25.5147 -14.7381 -1.6343 0.8887
-24.9615 -15.6397 -1.6338 0.8887
-22.4799 -19.0630 -1.6348 0.8886
-21.7851 -19.8612 -1.6351 0.8886
-21.0622 -20.6344 -1.6354 0.8886
-15.6025 -25.7753 -1.6711 0.8863
-13.1260 -23.5531 -1.4955 0.8976
-12.0426 -23.5601 -1.4675 0.8994
-2.5568 -6.6948 -0.3975 0.9717
-2.3749 -6.9583 -0.4078 0.9710
-2.2209 -9.8763 -0.5615 0.9603
-1.8264 -9.7441 -0.5499 0.9611
-0.0558 -9.6766 -0.6847 0.9619
0.6394 -9.6684 -0.6857 0.9619
2.1043 -20.5705 -1.4632 0.9204
3.5585 -20.2745 -1.4566 0.9208
4.2781 -20.1061 -1.4546 0.9209
5.8742 -20.3164 -1.4965 0.9187
6.7277 -20.4822 -1.5255 0.9172
7.3973 -16.3414 -1.2693 0.9306
11.0426 -20.3639 -1.6392 0.9113
11.8743 -20.1373 -1.6542 0.9105
12.5930 -19.7036 -1.6547 0.9105
13.9819 -18.7596 -1.6556 0.9104
14.6502 -18.2505 -1.6561 0.9104
9.9895 -11.5679 -1.0815 0.9406
10.1329 -9.4545 -0.9807 0.9459
10.8290 -9.4000 -1.0147 0.9441
11.7291 -9.4649 -1.0665 0.9414
12.6455 -9.4755 -1.1182 0.9386
14.6565 -9.4204 -1.2329 0.9325
12.0843 -7.1676 -0.9942 0.9452
12.1177 -6.6113 -0.9768 0.9462
24.0421 -8.9354 -1.8150 0.9023
24.3511 -8.0678 -1.8152 0.9022
24.6286 -7.1896 -1.8155 0.9022
25.0876 -5.4055 -1.8160 0.9022
25.4165 -3.5924 -1.8164 0.9022
25.6135 -1.7599 -1.8167 0.9022
25.4055 3.7571 -1.8173 0.9021
25.2546 4.6667 -1.8173 0.9021
24.8546 6.4666 -1.8173 0.9021
23.2959 10.7984 -1.8170 0.9022
22.4577 12.4401 -1.8167 0.9022
21.5031 14.0166 -1.8163 0.9022
20.4373 15.5196 -1.8159 0.9022
19.8644 16.2411 -1.8157 0.9022
11.6949 10.2838 -1.1020 0.9395
10.8628 11.0312 -1.0955 0.9398
11.7671 12.8406 -1.2325 0.9325
15.9179 20.0922 -1.8139 0.9023
9.5255 21.4069 -1.6580 0.9103
4.9703 13.7502 -1.0346 0.9431
3.7292 11.6038 -0.8625 0.9523
2.8571 11.7186 -0.8535 0.9528
2.4222 11.7533 -0.8492 0.9530
1.9804 11.7243 -0.8414 0.9534
1.5545 11.7590 -0.8393 0.9535
1.1135 11.6209 -0.8261 0.9543
-0.9795 11.6346 -0.8262 0.9543
-2.2597 11.6429 -0.8392 0.9536
-3.5968 11.6516 -0.8629 0.9523
-4.0614 11.6547 -0.8733 0.9517
-4.5380 11.6578 -0.8852 0.9511
-5.0284 11.6610 -0.8986 0.9504
-5.5345 11.6643 -0.9136 0.9495
-6.0585 11.6677 -0.9303 0.9486
-8.5237 13.8795 -1.1526 0.9368
-14.2166 18.3766 -1.6441 0.9110
-14.8632 17.8497 -1.6436 0.9111
-17.5841 18.2739 -1.7945 0.9033
-18.8406 16.9569 -1.7937 0.9034
-21.0546 14.0732 -1.7920 0.9034
-22.0011 12.5212 -1.7913 0.9035
-22.4321 11.7211 -1.7910 0.9035
-23.8624 8.3842 -1.7897 0.9036
-24.3954 6.6486 -1.7892 0.9036
-24.6151 5.7679 -1.7890 0.9036
-24.8032 4.8800 -1.7888 0.9036
-24.9597 3.9861 -1.7886 0.9036
-25.0841 3.0872 -1.7884 0.9036
-25.2366 1.2794 -1.7881 0.9036
-25.2645 0.3726 -1.7880 0.9036
-25.2601 -0.5345 -1.7879 0.9036
-25.2233 -1.4408 -1.7878 0.9037
-25.1543 -2.3452 -1.7877 0.9037
-25.0532 -3.2466 -1.7876 0.9037
-24.9200 -4.1437 -1.7876 0.9037
-24.7550 -5.0355 -1.7876 0.9037
-24.5583 -5.9209 -1.7876 0.9037
-24.0711 -7.6679 -1.7877 0.9037
-23.7812 -8.5273 -1.7877 0.9037
-23.1104 -10.2125 -1.7879 0.9036
-22.7304 -11.0362 -1.7880 0.9036
-22.3212 -11.8460 -1.7881 0.9036
-21.8835 -12.6406 -1.7883 0.9036
-21.4177 -13.4193 -1.7885 0.9036
-20.9244 -14.1810 -1.7887 0.9036
-20.1076 -14.7077 -1.7629 0.9049
-18.6812 -14.7222 -1.6831 0.9090
-15.3402 -17.3550 -1.6391 0.9113
-14.7099 -17.8977 -1.6393 0.9113
-12.7080 -19.3867 -1.6403 0.9112
-12.0065 -19.8346 -1.6407 0.9112
-3.2878 -6.4322 -0.5112 0.9714
-2.4676 -6.4613 -0.4894 0.9726
-2.2311 -6.5369 -0.4888 0.9727
-2.0386 -6.7572 -0.4994 0.9721
-2.5493 -9.6962 -0.7094 0.9606
-2.1817 -9.7020 -0.7037 0.9609
-1.8179 -9.6987 -0.6983 0.9612
-1.4580 -9.6871 -0.6932 0.9615
-1.1057 -9.7012 -0.6909 0.9616
-0.4025 -9.6524 -0.8317 0.9620
0.2901 -9.6231 -0.8289 0.9621
0.6386 -9.6568 -0.8332 0.9619
2.6320 -18.9733 -1.6491 0.9260
3.3122 -18.8712 -1.6495 0.9260
4.0900 -16.3199 -1.4485 0.9347
5.3257 -18.4192 -1.6507 0.9259
7.3974 -16.3415 -1.5443 0.9305
10.3452 -16.1865 -1.6539 0.9258
11.4850 -15.4096 -1.6546 0.9257
12.0335 -14.9907 -1.6550 0.9257
12.7097 -14.7180 -1.6742 0.9249
10.1329 -9.4546 -1.1931 0.9459
10.8396 -9.4091 -1.2358 0.9440
11.7280 -9.4640 -1.2974 0.9413
14.6514 -9.4171 -1.4995 0.9325
11.9714 -7.1006 -1.1983 0.9457
12.4191 -6.2080 -1.1953 0.9458
13.5737 -6.1865 -1.2843 0.9419
19.9893 -6.6227 -1.8129 0.9189
20.2165 -5.9016 -1.8132 0.9189
20.4177 -5.1727 -1.8134 0.9189
20.7404 -3.6952 -1.8137 0.9189
20.9556 -2.1980 -1.8140 0.9189
21.0225 -1.4445 -1.8142 0.9189
21.0621 -0.6890 -1.8143 0.9189
21.0744 0.0675 -1.8144 0.9189
20.7267 3.8300 -1.8146 0.9189
20.5759 4.5715 -1.8146 0.9189
20.3984 5.3072 -1.8146 0.9189
20.1945 6.0359 -1.8146 0.9189
19.7083 7.4688 -1.8145 0.9189
18.7883 9.5428 -1.8142 0.9189
18.0527 10.8646 -1.8140 0.9189
17.2236 12.1297 -1.8137 0.9189
15.3034 14.4635 -1.8128 0.9189
10.8627 11.0311 -1.3329 0.9397
10.3524 13.0672 -1.4353 0.9353
11.4119 15.5179 -1.6583 0.9256
10.8457 15.9149 -1.6581 0.9256
10.2656 16.2912 -1.6578 0.9256
9.0671 16.9796 -1.6572 0.9256
7.8224 17.5796 -1.6566 0.9257
5.5346 13.7465 -1.2758 0.9422
4.9703 13.7502 -1.2588 0.9430
3.7292 11.6038 -1.0493 0.9522
2.4222 11.7533 -1.0331 0.9530
1.9804 11.7243 -1.0237 0.9534
0.6939 11.6236 -1.0025 0.9543
0.2759 11.6264 -1.0012 0.9544
-0.5598 11.6318 -1.0026 0.9543
-1.4020 11.6373 -1.0091 0.9540
-1.8283 11.6401 -1.0144 0.9538
-2.6974 11.6457 -1.0292 0.9531
-3.1426 11.6486 -1.0387 0.9527
-3.5968 11.6516 -1.0498 0.9522
-5.5345 11.6643 -1.1115 0.9495
-6.6027 11.6712 -1.1545 0.9476
-10.5826 15.9208 -1.6458 0.9261
-11.6924 15.1137 -1.6451 0.9262
-12.2247 14.6811 -1.6448 0.9262
