ply
format ascii 1.0
element vertex 1571
property float32 x
property float32 y
property float32 z
property float32 I
end_header
-22.9054 19.1727 -1.6567 0.8872
-23.5789 18.3381 -1.6567 0.8872
-20.9335 15.1068 -1.4318 0.9017
-28.7879 15.0421 -1.8015 0.8780
-30.2381 11.8602 -1.8015 0.8780
-30.6444 10.7671 -1.8015 0.8780
-31.3379 8.5407 -1.8015 0.8780
-31.8699 6.2703 -1.8015 0.8780
-32.0745 5.1223 -1.8015 0.8780
-32.3593 2.8079 -1.8015 0.8780
-32.4736 -0.6872 -1.8015 0.8780
-32.0410 -5.3278 -1.8015 0.8780
-31.8291 -6.4745 -1.8015 0.8780
-30.1615 -12.0537 -1.8015 0.8780
-29.7094 -13.1287 -1.8015 0.8780
-29.2190 -14.1866 -1.8015 0.8780
-22.4235 -15.1970 -1.5024 0.8972
-23.9985 -17.5537 -1.6491 0.8877
-21.9723 -20.0319 -1.6491 0.8877
-21.2391 -20.8077 -1.6491 0.8877
-20.6688 -21.7541 -1.6642 0.8867
-19.1762 -23.3319 -1.6751 0.8860
-17.4667 -24.6673 -1.6764 0.8860
-14.5474 -24.0322 -1.5581 0.8936
-14.5617 -26.1293 -1.6591 0.8871
-13.7814 -26.9620 -1.6794 0.8858
-12.8107 -27.4522 -1.6802 0.8857
-5.9071 -26.2686 -1.4933 0.8977
-2.2971 -15.2623 -0.8560 0.9400
-1.8490 -23.7858 -1.6882 0.9088
-0.9944 -23.8460 -1.6889 0.9087
-0.1378 -23.8756 -1.6895 0.9087
1.5768 -23.8422 -1.6908 0.9086
2.0492 -20.0321 -1.4249 0.9224
2.8040 -20.2128 -1.4440 0.9214
4.3856 -20.6108 -1.4911 0.9190
5.8021 -20.0671 -1.4782 0.9196
6.6510 -20.2487 -1.5082 0.9181
9.1873 -20.2956 -1.5764 0.9145
9.9862 -20.1064 -1.5886 0.9139
11.0023 -20.2896 -1.6332 0.9116
12.5505 -19.6371 -1.6491 0.9108
13.2473 -19.1739 -1.6491 0.9108
7.9284 -9.8768 -0.8962 0.9505
8.3047 -9.6170 -0.8991 0.9503
11.0485 -9.5905 -1.0353 0.9430
8.8644 -7.1532 -0.8060 0.9554
9.0467 -6.7789 -0.7999 0.9557
9.1768 -6.3751 -0.7907 0.9562
9.4674 -6.0851 -0.7964 0.9559
11.2939 -6.1618 -0.9104 0.9497
22.7722 -11.3832 -1.8015 0.9029
23.1662 -10.5584 -1.8015 0.9029
23.5303 -9.7201 -1.8015 0.9029
24.1670 -8.0068 -1.8015 0.9029
24.4388 -7.1342 -1.8015 0.9029
24.6792 -6.2523 -1.8015 0.9029
24.8877 -5.3624 -1.8015 0.9029
25.0641 -4.4655 -1.8015 0.9029
25.3873 1.9080 -1.8015 0.9029
25.3024 2.8180 -1.8015 0.9029
25.1849 3.7245 -1.8015 0.9029
23.8067 9.0219 -1.8015 0.9029
22.6988 11.5290 -1.8015 0.9029
17.7135 12.4747 -1.5331 0.9168
17.5012 15.3895 -1.6491 0.9108
15.7454 17.1818 -1.6491 0.9108
9.8880 11.6000 -1.0786 0.9407
8.6405 11.7494 -1.0320 0.9432
8.0099 11.7537 -1.0065 0.9446
7.4090 11.7578 -0.9834 0.9458
6.2078 11.6250 -0.9325 0.9485
5.1760 11.6321 -0.9009 0.9502
3.7415 11.6419 -0.8653 0.9521
2.8400 11.6480 -0.8484 0.9531
1.5410 11.6568 -0.8320 0.9539
1.1173 11.6597 -0.8288 0.9541
0.2768 11.6655 -0.8257 0.9543
-0.5616 11.6712 -0.8268 0.9542
-1.1678 13.8710 -0.9850 0.9457
-1.6715 13.8744 -0.9889 0.9455
-2.1798 13.8779 -0.9941 0.9452
-2.6942 13.8814 -1.0006 0.9449
-5.2587 22.7041 -1.6491 0.9108
-6.0703 22.5007 -1.6491 0.9108
-7.6690 22.0072 -1.6491 0.9108
-8.4540 21.7177 -1.6491 0.9108
-10.9136 23.0010 -1.8015 0.9029
-9.4975 18.2908 -1.4584 0.9207
-12.5357 22.1587 -1.8015 0.9029
-13.3231 21.6944 -1.8015 0.9029
-14.0932 21.2022 -1.8015 0.9029
-14.8452 20.6826 -1.8015 0.9029
-15.5781 20.1364 -1.8015 0.9029
-16.9826 18.9669 -1.8015 0.9029
-17.6525 18.3451 -1.8015 0.9029
-18.9232 17.0313 -1.8015 0.9029
-20.3897 13.6287 -1.7354 0.9063
-24.7874 5.8083 -1.8015 0.9029
-25.3635 2.2008 -1.8015 0.9029
-25.4262 1.2890 -1.8015 0.9029
-25.4561 0.3754 -1.8015 0.9029
-25.4531 -0.5386 -1.8015 0.9029
-25.4174 -1.4519 -1.8015 0.9029
-25.3489 -2.3634 -1.8015 0.9029
-25.2477 -3.2718 -1.8015 0.9029
-24.7497 -5.9671 -1.8015 0.9029
-24.5195 -6.8516 -1.8015 0.9029
-24.2578 -7.7274 -1.8015 0.9029
-23.9648 -8.5931 -1.8015 0.9029
-22.9021 -11.1196 -1.8015 0.9029
-21.0691 -14.2791 -1.8010 0.9030
-20.1044 -14.7054 -1.7626 0.9049
-18.6786 -14.7201 -1.6828 0.9090
-17.7746 -15.0729 -1.6491 0.9108
-16.6474 -16.3093 -1.6491 0.9108
-15.4344 -17.4616 -1.6491 0.9108
-14.7976 -18.0045 -1.6491 0.9108
-13.4677 -19.0197 -1.6491 0.9108
-12.7763 -19.4909 -1.6491 0.9108
-11.3450 -20.3573 -1.6491 0.9108
-10.6069 -20.7514 -1.6491 0.9108
-7.6488 -22.4106 -1.6756 0.9094
-6.8635 -22.7507 -1.6815 0.9091
-4.3903 -23.4224 -1.6863 0.9089
-1.4845 -19.0975 -1.6491 0.9260
-0.7980 -19.1384 -1.6491 0.9260
0.5771 -19.1464 -1.6491 0.9260
5.9776 -18.1985 -1.6491 0.9260
7.2679 -17.7227 -1.6491 0.9260
7.8994 -17.4504 -1.6491 0.9260
9.7296 -16.5001 -1.6491 0.9260
7.9111 -9.8553 -1.0880 0.9505
9.6067 -9.6313 -1.1711 0.9469
8.0942 -7.0261 -0.9228 0.9579
8.4569 -6.3369 -0.9098 0.9585
9.5357 -6.1290 -0.9759 0.9555
10.3030 -6.1110 -1.0313 0.9530
11.1880 -6.1041 -1.0972 0.9501
19.3401 -7.9892 -1.8015 0.9194
19.6144 -7.2898 -1.8015 0.9194
19.8635 -6.5810 -1.8015 0.9194
20.0869 -5.8637 -1.8015 0.9194
20.2844 -5.1389 -1.8015 0.9194
20.4558 -4.4075 -1.8015 0.9194
20.6008 -3.6701 -1.8015 0.9194
20.7193 -2.9285 -1.8015 0.9194
20.8111 -2.1828 -1.8015 0.9194
20.8761 -1.4344 -1.8015 0.9194
20.9141 -0.6841 -1.8015 0.9194
20.8664 1.5682 -1.8015 0.9194
20.7001 3.0612 -1.8015 0.9194
20.4272 4.5385 -1.8015 0.9194
20.0489 5.9924 -1.8015 0.9194
19.8209 6.7082 -1.8015 0.9194
19.5673 7.4154 -1.8015 0.9194
18.9848 8.8001 -1.8015 0.9194
17.0784 8.6743 -1.6491 0.9260
15.6612 11.0293 -1.6491 0.9260
15.2551 11.5844 -1.6491 0.9260
14.8295 12.1245 -1.6491 0.9260
14.3847 12.6490 -1.6491 0.9260
12.9415 14.1221 -1.6491 0.9260
9.8880 11.6000 -1.3123 0.9406
8.6405 11.7494 -1.2556 0.9431
8.0099 11.7537 -1.2245 0.9445
7.4090 11.7578 -1.1965 0.9457
6.7527 11.6213 -1.1572 0.9475
6.2078 11.6250 -1.1346 0.9485
4.6846 11.6354 -1.0799 0.9509
3.7415 11.6419 -1.0528 0.9521
3.2863 11.6450 -1.0417 0.9526
2.4012 11.6510 -1.0241 0.9534
1.9686 11.6539 -1.0175 0.9537
1.1173 11.6597 -1.0084 0.9541
0.6962 11.6626 -1.0059 0.9542
0.2768 11.6655 -1.0046 0.9542
-0.5616 11.6712 -1.0060 0.9542
-1.1678 13.8710 -1.1984 0.9456
-2.6942 13.8814 -1.2174 0.9448
-4.3222 18.6611 -1.6491 0.9260
-5.6500 18.3029 -1.6491 0.9260
-6.3033 18.0883 -1.6491 0.9260
-8.2113 17.3058 -1.6491 0.9260
-9.4318 16.6721 -1.6491 0.9260
-10.9506 17.8312 -1.8015 0.9194
-11.5836 17.4266 -1.8015 0.9194
-13.3899 16.0804 -1.8015 0.9194
-13.9585 15.5894 -1.8015 0.9194
-15.0410 14.5477 -1.8015 0.9194
-15.5535 13.9984 -1.8015 0.9194
-16.0459 13.4311 -1.8015 0.9194
-18.5461 9.6906 -1.8015 0.9194
-19.1936 8.3351 -1.8015 0.9194
-19.4804 7.6407 -1.8015 0.9194
-19.7421 6.9365 -1.8015 0.9194
-19.9784 6.2234 -1.8015 0.9194
-20.1889 5.5022 -1.8015 0.9194
-20.3734 4.7740 -1.8015 0.9194
-20.7686 2.5561 -1.8015 0.9194
-20.8469 1.8089 -1.8015 0.9194
-20.8984 1.0594 -1.8015 0.9194
-20.9230 0.3086 -1.8015 0.9194
-20.8349 -1.9425 -1.8015 0.9194
-20.6418 -3.4323 -1.8015 0.9194
-20.1532 -5.6315 -1.8015 0.9194
-19.9381 -6.3513 -1.8015 0.9194
-19.6973 -7.0629 -1.8015 0.9194
-18.8238 -9.1395 -1.8015 0.9194
-18.1196 -10.4665 -1.8015 0.9194
-17.7322 -11.1102 -1.8015 0.9194
-15.4634 -14.0978 -1.8015 0.9194
-13.0098 -14.7186 -1.6912 0.9242
-11.6235 -15.2254 -1.6491 0.9260
-9.9193 -16.3867 -1.6491 0.9260
-8.1002 -17.3581 -1.6491 0.9260
-7.4719 -17.6377 -1.6491 0.9260
-5.5325 -18.3387 -1.6491 0.9260
-4.8707 -18.5255 -1.6491 0.9260
-2.1691 -19.0319 -1.6491 0.9260
-1.2596 -16.2043 -1.6491 0.9367
-0.0938 -16.2529 -1.6491 0.9367
0.4897 -16.2458 -1.6491 0.9367
1.0725 -16.2178 -1.6491 0.9367
1.6540 -16.1688 -1.6491 0.9367
2.8098 -16.0085 -1.6491 0.9367
3.3826 -15.8973 -1.6491 0.9367
4.5145 -15.6136 -1.6491 0.9367
5.0720 -15.4415 -1.6491 0.9367
5.6231 -15.2495 -1.6491 0.9367
6.7026 -14.8068 -1.6491 0.9367
7.3124 -14.7229 -1.6680 0.9360
7.9806 -14.7172 -1.6987 0.9349
8.6745 -14.7109 -1.7328 0.9336
8.2684 -9.5749 -1.2836 0.9504
7.8054 -7.2829 -1.0832 0.9580
7.9803 -6.4397 -1.0405 0.9596
8.8212 -6.1281 -1.0898 0.9577
9.5073 -6.1108 -1.1467 0.9556
16.4102 -6.7788 -1.8015 0.9311
16.8542 -5.5840 -1.8015 0.9311
17.3569 -3.7398 -1.8015 0.9311
17.4799 -3.1143 -1.8015 0.9311
17.7134 -1.2171 -1.8015 0.9311
17.7551 0.0569 -1.8015 0.9311
17.7416 0.6942 -1.8015 0.9311
17.6461 1.9653 -1.8015 0.9311
17.5642 2.5975 -1.8015 0.9311
17.4596 3.2263 -1.8015 0.9311
17.3325 3.8509 -1.8015 0.9311
17.1831 4.4706 -1.8015 0.9311
14.9819 6.3015 -1.6491 0.9367
14.4912 7.3602 -1.6491 0.9367
14.2176 7.8756 -1.6491 0.9367
13.9257 8.3809 -1.6491 0.9367
13.6159 8.8754 -1.6491 0.9367
13.2886 9.3584 -1.6491 0.9367
12.9441 9.8294 -1.6491 0.9367
12.5829 10.2877 -1.6491 0.9367
11.8124 11.1640 -1.6491 0.9367
11.4040 11.5808 -1.6491 0.9367
10.6256 11.5949 -1.5958 0.9387
9.8880 11.6000 -1.5466 0.9406
7.4090 11.7578 -1.4101 0.9457
6.7527 11.6213 -1.3638 0.9474
5.6830 11.6286 -1.3133 0.9493
5.1760 11.6321 -1.2918 0.9501
4.6846 11.6354 -1.2727 0.9508
4.2071 11.6387 -1.2557 0.9515
3.2863 11.6450 -1.2277 0.9525
2.8400 11.6480 -1.2165 0.9529
1.5410 11.6568 -1.1930 0.9538
0.6962 11.6626 -1.1854 0.9541
0.2768 11.6655 -1.1840 0.9542
-0.1421 11.6683 -1.1840 0.9542
-0.5616 11.6712 -1.1856 0.9541
-1.1678 13.8710 -1.4124 0.9456
-1.6715 13.8744 -1.4179 0.9454
-2.1798 13.8779 -1.4254 0.9451
-2.6942 13.8814 -1.4348 0.9447
-3.6674 15.8340 -1.6491 0.9367
-6.9674 14.6841 -1.6491 0.9367
-7.4900 14.4245 -1.6491 0.9367
-8.0029 14.1463 -1.6491 0.9367
-8.5056 13.8499 -1.6491 0.9367
-9.4773 13.2040 -1.6491 0.9367
-11.8438 13.2276 -1.8015 0.9311
-12.7623 12.3438 -1.8015 0.9311
-13.6150 11.3963 -1.8015 0.9311
-14.0154 10.9003 -1.8015 0.9311
-14.3976 10.3902 -1.8015 0.9311
-14.7613 9.8667 -1.8015 0.9311
-15.4312 8.7821 -1.8015 0.9311
-15.7365 8.2225 -1.8015 0.9311
-16.0215 7.6524 -1.8015 0.9311
-16.7513 5.8857 -1.8015 0.9311
-17.4212 3.4276 -1.8015 0.9311
-17.7324 0.8989 -1.8015 0.9311
-17.7532 0.2618 -1.8015 0.9311
-17.6079 -2.2818 -1.8015 0.9311
-17.1001 -4.7784 -1.8015 0.9311
-16.9176 -5.3891 -1.8015 0.9311
-16.7132 -5.9929 -1.8015 0.9311
-15.6834 -8.3233 -1.8015 0.9311
-15.3745 -8.8809 -1.8015 0.9311
-15.0458 -9.4270 -1.8015 0.9311
-14.6977 -9.9610 -1.8015 0.9311
-14.3307 -10.4822 -1.8015 0.9311
-13.9452 -10.9899 -1.8015 0.9311
-13.5417 -11.4834 -1.8015 0.9311
-13.1208 -11.9621 -1.8015 0.9311
-11.2737 -13.7168 -1.8015 0.9311
-10.2401 -14.4615 -1.7979 0.9312
-9.6369 -14.7015 -1.7836 0.9318
-8.9036 -14.7087 -1.7445 0.9332
-7.5246 -14.7211 -1.6775 0.9357
-6.8748 -14.7322 -1.6495 0.9367
-6.3400 -14.9656 -1.6491 0.9367
-5.7987 -15.1836 -1.6491 0.9367
-5.2499 -15.3819 -1.6491 0.9367
-4.6944 -15.5605 -1.6491 0.9367
-4.1328 -15.7190 -1.6491 0.9367
-3.5659 -15.8572 -1.6491 0.9367
-2.2825 -15.1652 -1.5561 0.9402
-1.8405 -16.1486 -1.6491 0.9367
-1.1437 -14.7124 -1.7248 0.9423
-0.6135 -14.7130 -1.7212 0.9424
0.4435 -14.7132 -1.7205 0.9424
1.5049 -14.7117 -1.7285 0.9422
3.1292 -14.7063 -1.7574 0.9412
4.2505 -14.7005 -1.7886 0.9402
4.7942 -14.5956 -1.7957 0.9400
5.8475 -14.2592 -1.8014 0.9398
7.3472 -13.5491 -1.8015 0.9398
8.3004 -12.9871 -1.8015 0.9398
8.7612 -12.6807 -1.8015 0.9398
8.3241 -11.1685 -1.6281 0.9454
9.6484 -12.0195 -1.8015 0.9398
8.2596 -9.5647 -1.4771 0.9504
8.8644 -9.5495 -1.5229 0.9489
10.8846 -10.9126 -1.8015 0.9398
7.7825 -6.7555 -1.2045 0.9593
8.1945 -6.1403 -1.1969 0.9596
8.8488 -6.1473 -1.2594 0.9575
9.5134 -6.1147 -1.3218 0.9555
11.1993 -6.1102 -1.4912 0.9499
13.7865 -6.8915 -1.8015 0.9398
14.0250 -6.3922 -1.8015 0.9398
14.2454 -5.8846 -1.8015 0.9398
14.4475 -5.3695 -1.8015 0.9398
14.6309 -4.8474 -1.8015 0.9398
14.7955 -4.3191 -1.8015 0.9398
14.9410 -3.7852 -1.8015 0.9398
15.3289 -1.6078 -1.8015 0.9398
15.4047 -0.5039 -1.8015 0.9398
15.4129 0.0494 -1.8015 0.9398
15.4012 0.6026 -1.8015 0.9398
15.3183 1.7061 -1.8015 0.9398
15.2472 2.2548 -1.8015 0.9398
15.1564 2.8007 -1.8015 0.9398
15.0461 3.3429 -1.8015 0.9398
14.9164 3.8809 -1.8015 0.9398
14.7675 4.4138 -1.8015 0.9398
11.5356 8.1239 -1.6491 0.9448
11.2365 8.5328 -1.6491 0.9448
10.9230 8.9306 -1.6491 0.9448
10.5954 9.3169 -1.6491 0.9448
9.1528 10.7375 -1.6491 0.9448
8.7615 11.0591 -1.6491 0.9448
7.9143 11.6134 -1.6426 0.9450
6.7527 11.6213 -1.5710 0.9473
5.6830 11.6286 -1.5128 0.9492
5.1760 11.6321 -1.4881 0.9500
4.2071 11.6387 -1.4465 0.9514
3.7415 11.6419 -1.4293 0.9519
3.2863 11.6450 -1.4143 0.9524
2.8400 11.6480 -1.4013 0.9529
2.4012 11.6510 -1.3904 0.9532
1.9686 11.6539 -1.3814 0.9535
1.1173 11.6597 -1.3691 0.9539
0.6962 11.6626 -1.3656 0.9540
0.2768 11.6655 -1.3639 0.9541
-0.1421 11.6683 -1.3639 0.9541
-0.5616 11.6712 -1.3657 0.9540
-1.1216 13.3223 -1.5627 0.9476
-1.5991 13.2735 -1.5627 0.9476
-3.0167 13.0246 -1.5627 0.9476
-4.1616 13.4814 -1.6491 0.9448
-4.6429 13.3233 -1.6491 0.9448
-5.1181 13.1481 -1.6491 0.9448
-5.5868 12.9559 -1.6491 0.9448
-6.0483 12.7470 -1.6491 0.9448
-8.2271 11.4622 -1.6491 0.9448
-8.6333 11.1595 -1.6491 0.9448
-9.0283 10.8424 -1.6491 0.9448
-9.4117 10.5113 -1.6491 0.9448
-10.6870 11.1062 -1.8015 0.9398
-11.0788 10.7155 -1.8015 0.9398
-11.8190 9.8930 -1.8015 0.9398
-12.8140 8.5651 -1.8015 0.9398
-13.6606 7.1379 -1.8015 0.9398
-13.9080 6.6429 -1.8015 0.9398
-14.1375 6.1394 -1.8015 0.9398
-14.5415 5.1092 -1.8015 0.9398
-14.8706 4.0528 -1.8015 0.9398
-15.0065 3.5164 -1.8015 0.9398
-15.1230 2.9754 -1.8015 0.9398
-15.2201 2.4307 -1.8015 0.9398
-15.2975 1.8828 -1.8015 0.9398
-15.3932 0.7804 -1.8015 0.9398
-15.4095 -0.3261 -1.8015 0.9398
-15.3464 -1.4308 -1.8015 0.9398
-15.1037 -3.0723 -1.8015 0.9398
-14.5084 -5.2023 -1.8015 0.9398
-14.0978 -6.2299 -1.8015 0.9398
-12.7589 -8.6470 -1.8015 0.9398
-11.7553 -9.9685 -1.8015 0.9398
-11.3899 -10.3841 -1.8015 0.9398
-11.0098 -10.7862 -1.8015 0.9398
-10.6156 -11.1745 -1.8015 0.9398
-9.7865 -11.9073 -1.8015 0.9398
-8.4497 -12.8904 -1.8015 0.9398
-7.5031 -13.4634 -1.8015 0.9398
-6.5178 -13.9670 -1.8015 0.9398
-6.0122 -14.1920 -1.8015 0.9398
-4.9646 -14.5461 -1.7965 0.9400
-3.3069 -14.7055 -1.7618 0.9411
-2.7569 -14.7079 -1.7490 0.9415
-1.6767 -14.7113 -1.7306 0.9421
-0.5671 -13.5992 -1.8015 0.9466
0.4101 -13.6049 -1.8015 0.9466
0.8982 -13.5814 -1.8015 0.9466
1.3851 -13.5404 -1.8015 0.9466
1.8703 -13.4819 -1.8015 0.9466
2.8327 -13.3130 -1.8015 0.9466
4.2475 -12.9313 -1.8015 0.9466
4.7090 -12.7705 -1.8015 0.9466
5.1643 -12.5933 -1.8015 0.9466
5.6131 -12.3998 -1.8015 0.9466
6.4882 -11.9651 -1.8015 0.9466
6.9136 -11.7245 -1.8015 0.9466
7.7369 -11.1982 -1.8015 0.9466
8.1339 -10.9133 -1.8015 0.9466
9.2600 -9.9756 -1.8015 0.9466
9.6121 -9.6368 -1.8015 0.9466
7.8950 -6.3709 -1.3428 0.9599
9.5287 -6.1245 -1.4992 0.9553
11.1993 -6.1102 -1.6886 0.9498
12.5800 -5.1966 -1.8015 0.9466
13.0657 -3.8141 -1.8015 0.9466
13.1942 -3.3427 -1.8015 0.9466
13.4771 -1.9049 -1.8015 0.9466
13.5790 -0.9330 -1.8015 0.9466
13.6038 -0.4450 -1.8015 0.9466
13.6110 0.0436 -1.8015 0.9466
13.5728 1.0200 -1.8015 0.9466
13.5274 1.5066 -1.8015 0.9466
13.3845 2.4733 -1.8015 0.9466
13.1725 3.4272 -1.8015 0.9466
13.0410 3.8978 -1.8015 0.9466
11.6510 4.4153 -1.6491 0.9510
11.1088 5.6423 -1.6491 0.9510
10.8992 6.0374 -1.6491 0.9510
10.1869 7.1741 -1.6491 0.9510
9.9229 7.5352 -1.6491 0.9510
9.3567 8.2277 -1.6491 0.9510
8.0828 9.4821 -1.6491 0.9510
7.0166 10.2961 -1.6491 0.9510
6.6425 10.5413 -1.6491 0.9510
6.2598 10.7730 -1.6491 0.9510
5.8690 10.9908 -1.6491 0.9510
5.4707 11.1943 -1.6491 0.9510
5.0654 11.3835 -1.6491 0.9510
4.6535 11.5580 -1.6491 0.9510
3.7415 11.6419 -1.6185 0.9519
3.2863 11.6450 -1.6015 0.9524
2.8400 11.6480 -1.5869 0.9528
1.5410 11.6568 -1.5563 0.9537
0.6962 11.6626 -1.5464 0.9540
0.2768 11.6655 -1.5444 0.9540
-0.5616 11.6712 -1.5466 0.9539
-0.9904 11.7648 -1.5627 0.9535
-1.4121 11.7217 -1.5627 0.9535
-1.8345 11.6799 -1.5649 0.9534
-4.1000 11.7657 -1.6491 0.9510
-4.5198 11.6109 -1.6491 0.9510
-4.9336 11.4412 -1.6491 0.9510
-5.3412 11.2567 -1.6491 0.9510
-5.7418 11.0578 -1.6491 0.9510
-6.1350 10.8445 -1.6491 0.9510
-6.5203 10.6173 -1.6491 0.9510
-6.8973 10.3764 -1.6491 0.9510
-7.2653 10.1221 -1.6491 0.9510
-7.6239 9.8548 -1.6491 0.9510
-8.6392 8.9781 -1.6491 0.9510
-8.9559 8.6622 -1.6491 0.9510
-10.7441 8.3561 -1.8015 0.9466
-11.0371 7.9650 -1.8015 0.9466
-12.0635 6.3034 -1.8015 0.9466
-12.2820 5.8663 -1.8015 0.9466
-12.6712 4.9700 -1.8015 0.9466
-12.8415 4.5119 -1.8015 0.9466
-13.3550 2.6276 -1.8015 0.9466
-13.5091 1.6626 -1.8015 0.9466
-13.5601 1.1766 -1.8015 0.9466
-13.5936 0.6891 -1.8015 0.9466
-13.6096 0.2007 -1.8015 0.9466
-13.6080 -0.2879 -1.8015 0.9466
-13.5889 -0.7762 -1.8015 0.9466
-13.4982 -1.7492 -1.8015 0.9466
-13.4267 -2.2326 -1.8015 0.9466
-13.2319 -3.1902 -1.8015 0.9466
-13.1089 -3.6631 -1.8015 0.9466
-12.9689 -4.1313 -1.8015 0.9466
-12.8123 -4.5941 -1.8015 0.9466
-12.6391 -5.0511 -1.8015 0.9466
-12.4496 -5.5015 -1.8015 0.9466
-12.2441 -5.9449 -1.8015 0.9466
-12.0228 -6.3806 -1.8015 0.9466
-11.7860 -6.8080 -1.8015 0.9466
-11.5341 -7.2267 -1.8015 0.9466
-10.9859 -8.0356 -1.8015 0.9466
-10.0583 -9.1701 -1.8015 0.9466
-9.7227 -9.5252 -1.8015 0.9466
-9.3745 -9.8681 -1.8015 0.9466
-9.0142 -10.1982 -1.8015 0.9466
-8.6423 -10.5152 -1.8015 0.9466
-7.0484 -11.6439 -1.8015 0.9466
-5.3093 -12.5328 -1.8015 0.9466
-4.8560 -12.7153 -1.8015 0.9466
-4.3965 -12.8814 -1.8015 0.9466
-3.9312 -13.0309 -1.8015 0.9466
-3.4609 -13.1637 -1.8015 0.9466
-1.5413 -13.5235 -1.8015 0.9466
-0.5075 -12.1706 -1.8015 0.9519
-0.0703 -12.1810 -1.8015 0.9519
0.3670 -12.1757 -1.8015 0.9519
1.2396 -12.1179 -1.8015 0.9519
2.5351 -11.9145 -1.8015 0.9519
4.6218 -11.2703 -1.8015 0.9519
5.4185 -10.9097 -1.8015 0.9519
6.1873 -10.4928 -1.8015 0.9519
6.9242 -10.0219 -1.8015 0.9519
7.9614 -9.2194 -1.8015 0.9519
8.2872 -8.9277 -1.8015 0.9519
8.2795 -7.7252 -1.6747 0.9552
7.7911 -6.7630 -1.5258 0.9591
7.9022 -6.3767 -1.5017 0.9598
8.7954 -6.1102 -1.5839 0.9576
10.6932 -5.8341 -1.8015 0.9519
11.0842 -5.0519 -1.8015 0.9519
11.4181 -4.2436 -1.8015 0.9519
11.8081 -2.9915 -1.8015 0.9519
12.0613 -1.7048 -1.8015 0.9519
12.1525 -0.8350 -1.8015 0.9519
12.1719 0.4763 -1.8015 0.9519
11.7887 3.0672 -1.8015 0.9519
11.6710 3.4883 -1.8015 0.9519
11.5301 3.9023 -1.8002 0.9520
11.1806 4.2371 -1.7683 0.9528
10.2785 4.3233 -1.6491 0.9559
9.9419 5.0496 -1.6491 0.9559
9.7542 5.4032 -1.6491 0.9559
9.5539 5.7499 -1.6491 0.9559
7.5336 8.2209 -1.6491 0.9559
7.2337 8.4860 -1.6491 0.9559
6.6062 8.9831 -1.6491 0.9559
5.6022 9.6413 -1.6491 0.9559
5.2525 9.8362 -1.6491 0.9559
4.5332 10.1876 -1.6491 0.9559
4.1646 10.3438 -1.6491 0.9559
3.4118 10.6159 -1.6491 0.9559
3.0285 10.7316 -1.6491 0.9559
2.6413 10.8334 -1.6491 0.9559
2.2507 10.9212 -1.6491 0.9559
1.4614 11.0545 -1.6491 0.9559
0.6645 11.1309 -1.6491 0.9559
0.2646 11.1476 -1.6491 0.9559
-0.5360 11.1378 -1.6491 0.9559
-1.3337 11.0707 -1.6491 0.9559
-2.5161 10.8631 -1.6491 0.9559
-2.9044 10.7658 -1.6491 0.9559
-3.2890 10.6546 -1.6491 0.9559
-4.0450 10.3912 -1.6491 0.9559
-4.7800 10.0742 -1.6491 0.9559
-5.8354 9.5019 -1.6491 0.9559
-6.1727 9.2863 -1.6491 0.9559
-6.5020 9.0588 -1.6491 0.9559
-6.8230 8.8196 -1.6491 0.9559
-7.1352 8.5689 -1.6491 0.9559
-7.4382 8.3073 -1.6491 0.9559
-9.0374 8.1339 -1.7982 0.9520
-9.6154 7.4783 -1.8015 0.9519
-10.1272 6.7692 -1.8015 0.9519
-10.5868 6.0251 -1.8015 0.9519
-10.7962 5.6412 -1.8015 0.9519
-11.1731 4.8521 -1.8015 0.9519
-11.4924 4.0379 -1.8015 0.9519
-11.6300 3.6228 -1.8015 0.9519
-11.8599 2.7791 -1.8015 0.9519
-11.9520 2.3516 -1.8015 0.9519
-12.0287 1.9210 -1.8015 0.9519
-12.1356 1.0530 -1.8015 0.9519
-12.1798 0.1796 -1.8015 0.9519
-12.1785 -0.2577 -1.8015 0.9519
-12.1614 -0.6947 -1.8015 0.9519
-12.0802 -1.5654 -1.8015 0.9519
-11.9367 -2.4281 -1.8015 0.9519
-11.7317 -3.2783 -1.8015 0.9519
-11.6065 -3.6973 -1.8015 0.9519
-11.1418 -4.9236 -1.8015 0.9519
-10.7598 -5.7103 -1.8015 0.9519
-10.5479 -6.0928 -1.8015 0.9519
-10.0836 -6.8339 -1.8015 0.9519
-9.8318 -7.1915 -1.8015 0.9519
-9.5673 -7.5398 -1.8015 0.9519
-9.2905 -7.8783 -1.8015 0.9519
-8.3897 -8.8314 -1.8015 0.9519
-7.0393 -9.9413 -1.8015 0.9519
-6.6780 -10.1875 -1.8015 0.9519
-6.3080 -10.4207 -1.8015 0.9519
-4.7516 -11.2162 -1.8015 0.9519
-3.9346 -11.5282 -1.8015 0.9519
-3.5183 -11.6620 -1.8015 0.9519
-2.6725 -11.8844 -1.8015 0.9519
-2.2442 -11.9727 -1.8015 0.9519
-1.8129 -12.0455 -1.8015 0.9519
-1.3794 -12.1028 -1.8015 0.9519
-0.0636 -11.0183 -1.8015 0.9563
0.7271 -10.9944 -1.8015 0.9563
1.5140 -10.9139 -1.8015 0.9563
1.9048 -10.8526 -1.8015 0.9563
3.0605 -10.5849 -1.8015 0.9563
4.5439 -10.0379 -1.8015 0.9563
4.9013 -9.8683 -1.8015 0.9563
5.5967 -9.4912 -1.8015 0.9563
5.9338 -9.2842 -1.8015 0.9563
6.2632 -9.0652 -1.8015 0.9563
6.8975 -8.5925 -1.8015 0.9563
7.2015 -8.3394 -1.8015 0.9563
7.4962 -8.0755 -1.8015 0.9563
8.0562 -7.5169 -1.8015 0.9563
8.3209 -7.2228 -1.8015 0.9563
8.5748 -6.9195 -1.8015 0.9563
8.2925 -6.2137 -1.6942 0.9589
9.0491 -6.2865 -1.8015 0.9563
9.2690 -5.9576 -1.8015 0.9563
9.6725 -5.2772 -1.8015 0.9563
10.0262 -4.5696 -1.8015 0.9563
10.4593 -3.4653 -1.8015 0.9563
10.5770 -3.0876 -1.8015 0.9563
10.8476 -1.9327 -1.8015 0.9563
10.9100 -1.5420 -1.8015 0.9563
11.0126 -0.3602 -1.8015 0.9563
11.0184 0.0353 -1.8015 0.9563
11.0100 0.4308 -1.8015 0.9563
10.8999 1.6119 -1.8015 0.9563
10.6634 2.7744 -1.8015 0.9563
10.4369 3.5323 -1.8015 0.9563
10.2889 3.8992 -1.7990 0.9564
9.1510 4.2418 -1.6491 0.9599
8.4497 5.5079 -1.6491 0.9599
8.2466 5.8076 -1.6491 0.9599
7.5744 6.6605 -1.6491 0.9599
7.3305 6.9281 -1.6491 0.9599
4.1027 4.4769 -0.9928 0.9757
3.9189 4.5974 -0.9877 0.9758
6.2634 7.9059 -1.6491 0.9599
5.9756 8.1257 -1.6491 0.9599
5.3772 8.5335 -1.6491 0.9599
4.1005 9.2152 -1.6491 0.9599
3.4288 9.4857 -1.6491 0.9599
2.7394 9.7072 -1.6491 0.9599
2.3892 9.7993 -1.6491 0.9599
1.3219 9.9993 -1.6491 0.9599
0.6011 10.0684 -1.6491 0.9599
0.2393 10.0835 -1.6491 0.9599
-0.4848 10.0747 -1.6491 0.9599
-0.8461 10.0508 -1.6491 0.9599
-1.9217 9.9016 -1.6491 0.9599
-2.2759 9.8262 -1.6491 0.9599
-2.6272 9.7382 -1.6491 0.9599
-3.3191 9.5246 -1.6491 0.9599
-4.3238 9.1126 -1.6491 0.9599
-5.2784 8.5950 -1.6491 0.9599
-5.5835 8.4000 -1.6491 0.9599
-5.8814 8.1941 -1.6491 0.9599
-6.9936 7.2680 -1.6491 0.9599
-7.2500 7.0123 -1.6491 0.9599
-7.4970 6.7475 -1.6491 0.9599
-8.6976 6.7644 -1.8015 0.9563
-9.3744 5.7902 -1.8015 0.9563
-9.9425 4.7489 -1.8015 0.9563
-10.2576 4.0233 -1.8015 0.9563
-10.6307 2.8973 -1.8015 0.9563
-10.7279 2.5138 -1.8015 0.9563
-10.8806 1.7376 -1.8015 0.9563
-10.9359 1.3459 -1.8015 0.9563
-11.0160 -0.2331 -1.8015 0.9563
-11.0005 -0.6284 -1.8015 0.9563
-10.9709 -1.0228 -1.8015 0.9563
-10.8692 -1.8073 -1.8015 0.9563
-10.7973 -2.1963 -1.8015 0.9563
-9.3371 -5.8502 -1.8015 0.9563
-9.1211 -6.1816 -1.8015 0.9563
-8.8933 -6.5050 -1.8015 0.9563
-8.6541 -6.8200 -1.8015 0.9563
-7.8707 -7.7109 -1.8015 0.9563
-7.5889 -7.9884 -1.8015 0.9563
-6.6861 -8.7580 -1.8015 0.9563
-6.0405 -9.2151 -1.8015 0.9563
-5.0148 -9.8111 -1.8015 0.9563
-3.5590 -10.4278 -1.8015 0.9563
-3.1824 -10.5489 -1.8015 0.9563
-2.8017 -10.6563 -1.8015 0.9563
-2.4174 -10.7500 -1.8015 0.9563
-1.6399 -10.8957 -1.8015 0.9563
-1.2477 -10.9476 -1.8015 0.9563
-0.7792 -10.0237 -1.8015 0.9600
-0.0580 -10.0538 -1.8015 0.9600
1.0231 -10.0018 -1.8015 0.9600
2.0924 -9.8338 -1.8015 0.9600
2.7926 -9.6583 -1.8015 0.9600
3.1375 -9.5519 -1.8015 0.9600
4.7926 -8.8382 -1.8015 0.9600
5.1068 -8.6604 -1.8015 0.9600
5.7150 -8.2717 -1.8015 0.9600
6.5711 -7.6094 -1.8015 0.9600
7.1001 -7.1183 -1.8015 0.9600
7.3510 -6.8589 -1.8015 0.9600
8.0458 -6.0289 -1.8015 0.9600
8.4576 -5.4361 -1.8015 0.9600
8.8258 -4.8153 -1.8015 0.9600
9.1486 -4.1696 -1.8015 0.9600
9.2924 -3.8386 -1.8015 0.9600
9.5438 -3.1620 -1.8015 0.9600
9.7461 -2.4691 -1.8015 0.9600
9.8981 -1.7635 -1.8015 0.9600
9.9550 -1.4070 -1.8015 0.9600
9.9991 -1.0488 -1.8015 0.9600
10.0539 0.0322 -1.8015 0.9600
10.0257 0.7535 -1.8015 0.9600
9.8146 2.1806 -1.8015 0.9600
9.5233 3.2231 -1.8015 0.9600
9.4015 3.5629 -1.8015 0.9600
9.2551 3.8928 -1.7991 0.9600
8.3133 4.2224 -1.6707 0.9628
7.8855 4.7458 -1.6491 0.9633
7.7101 5.0257 -1.6491 0.9633
7.5247 5.2993 -1.6491 0.9633
7.3296 5.5659 -1.6491 0.9633
7.1251 5.8255 -1.6491 0.9633
6.6888 6.3217 -1.6491 0.9633
6.4576 6.5577 -1.6491 0.9633
4.0990 4.4730 -1.0871 0.9756
3.9149 4.5926 -1.0813 0.9758
4.6239 7.9576 -1.6491 0.9633
4.0410 8.2688 -1.6491 0.9633
3.7416 8.4086 -1.6491 0.9633
3.4374 8.5375 -1.6491 0.9633
2.8160 8.7621 -1.6491 0.9633
2.4996 8.8575 -1.6491 0.9633
2.1801 8.9415 -1.6491 0.9633
1.8577 9.0140 -1.6491 0.9633
1.5329 9.0749 -1.6491 0.9633
0.8779 9.1615 -1.6491 0.9633
0.5485 9.1871 -1.6491 0.9633
0.2183 9.2009 -1.6491 0.9633
-0.4424 9.1928 -1.6491 0.9633
-1.1008 9.1374 -1.6491 0.9633
-2.3972 8.8858 -1.6491 0.9633
-3.0285 8.6909 -1.6491 0.9633
-3.3386 8.5766 -1.6491 0.9633
-3.9453 8.3149 -1.6491 0.9633
-4.2412 8.1680 -1.6491 0.9633
-4.8163 7.8426 -1.6491 0.9633
-5.0947 7.6647 -1.6491 0.9633
-5.6315 7.2794 -1.6491 0.9633
-5.8892 7.0725 -1.6491 0.9633
-6.6154 6.3984 -1.6491 0.9633
-6.8408 6.1569 -1.6491 0.9633
-7.6958 6.4417 -1.7983 0.9600
-8.1527 5.8835 -1.8015 0.9600
-8.7380 4.9729 -1.8015 0.9600
-8.9108 4.6561 -1.8015 0.9600
-9.0722 4.3332 -1.8015 0.9600
-9.3597 3.6711 -1.8015 0.9600
-9.4855 3.3328 -1.8015 0.9600
-9.5990 2.9902 -1.8015 0.9600
-9.7002 2.6437 -1.8015 0.9600
-9.8648 1.9409 -1.8015 0.9600
-9.9282 1.5855 -1.8015 0.9600
-2.0428 0.2514 -0.3688 0.9917
-2.0422 0.1035 -0.3664 0.9917
-2.0246 -0.0428 -0.3629 0.9918
-2.0516 -0.1913 -0.3692 0.9917
-2.0396 -0.2643 -0.3685 0.9917
-9.9178 -1.6491 -1.8015 0.9600
-9.8522 -2.0041 -1.8015 0.9600
-9.5796 -3.0516 -1.8015 0.9600
-9.4639 -3.3935 -1.8015 0.9600
-9.3360 -3.7310 -1.8015 0.9600
-9.0443 -4.3913 -1.8015 0.9600
-8.8808 -4.7131 -1.8015 0.9600
-8.7059 -5.0288 -1.8015 0.9600
-8.5198 -5.3381 -1.8015 0.9600
-8.3227 -5.6405 -1.8015 0.9600
-8.1148 -5.9356 -1.8015 0.9600
-7.8965 -6.2231 -1.8015 0.9600
-7.6681 -6.5025 -1.8015 0.9600
-7.4297 -6.7736 -1.8015 0.9600
-7.1818 -7.0359 -1.8015 0.9600
-6.9246 -7.2892 -1.8015 0.9600
-6.6585 -7.5330 -1.8015 0.9600
-6.3838 -7.7672 -1.8015 0.9600
-6.1008 -7.9913 -1.8015 0.9600
-5.2064 -8.6009 -1.8015 0.9600
-4.8943 -8.7823 -1.8015 0.9600
-4.5759 -8.9523 -1.8015 0.9600
-3.5870 -9.3923 -1.8015 0.9600
-3.2475 -9.5150 -1.8015 0.9600
-2.9039 -9.6255 -1.8015 0.9600
-2.2058 -9.8090 -1.8015 0.9600
-1.8523 -9.8819 -1.8015 0.9600
-1.1385 -9.9893 -1.8015 0.9600
-0.3850 -9.2327 -1.8015 0.9630
-0.0533 -9.2405 -1.8015 0.9630
0.2784 -9.2365 -1.8015 0.9630
0.9404 -9.1927 -1.8015 0.9630
1.2698 -9.1530 -1.8015 0.9630
1.5975 -9.1015 -1.8015 0.9630
1.9232 -9.0383 -1.8015 0.9630
3.1970 -8.6700 -1.8015 0.9630
3.5061 -8.5497 -1.8015 0.9630
3.8108 -8.4183 -1.8015 0.9630
4.4049 -8.1232 -1.8015 0.9630
4.9764 -7.7862 -1.8015 0.9630
5.7846 -7.2061 -1.8015 0.9630
6.2867 -6.7725 -1.8015 0.9630
6.7564 -6.3041 -1.8015 0.9630
6.9783 -6.0575 -1.8015 0.9630
7.1913 -5.8031 -1.8015 0.9630
7.9478 -4.7141 -1.8015 0.9630
8.4085 -3.8324 -1.8015 0.9630
8.5407 -3.5280 -1.8015 0.9630
8.9577 -2.2693 -1.8015 0.9630
9.1903 -0.9640 -1.8015 0.9630
9.2189 -0.6334 -1.8015 0.9630
9.2406 0.0296 -1.8015 0.9630
9.2147 0.6925 -1.8015 0.9630
9.1839 1.0229 -1.8015 0.9630
9.1413 1.3518 -1.8015 0.9630
8.9430 2.3267 -1.8015 0.9630
8.8537 2.6463 -1.8015 0.9630
8.7530 2.9624 -1.8015 0.9630
8.5179 3.5827 -1.8015 0.9630
8.3734 3.8814 -1.7993 0.9631
8.2065 4.1682 -1.7944 0.9632
7.6138 4.2175 -1.6969 0.9652
7.2477 4.3618 -1.6491 0.9661
7.0864 4.6192 -1.6491 0.9661
6.7367 5.1157 -1.6491 0.9661
6.5488 5.3542 -1.6491 0.9661
6.1477 5.8103 -1.6491 0.9661
5.9352 6.0272 -1.6491 0.9661
4.0954 4.4690 -1.1817 0.9756
3.9108 4.5879 -1.1753 0.9757
5.2529 6.6303 -1.6491 0.9661
5.0115 6.8146 -1.6491 0.9661
4.7636 6.9901 -1.6491 0.9661
3.4389 7.7284 -1.6491 0.9661
2.5882 8.0533 -1.6491 0.9661
2.2974 8.1410 -1.6491 0.9661
1.7074 8.2849 -1.6491 0.9661
1.4089 8.3408 -1.6491 0.9661
0.5041 8.4439 -1.6491 0.9661
0.2007 8.4566 -1.6491 0.9661
-0.7096 8.4292 -1.6491 0.9661
-1.0117 8.3982 -1.6491 0.9661
-1.3125 8.3565 -1.6491 0.9661
-2.2033 8.1670 -1.6491 0.9661
-2.4950 8.0826 -1.6491 0.9661
-3.3495 7.7676 -1.6491 0.9661
-3.6261 7.6423 -1.6491 0.9661
-3.8981 7.5072 -1.6491 0.9661
-4.1651 7.3625 -1.6491 0.9661
-4.9325 6.8720 -1.6491 0.9661
-5.1760 6.6905 -1.6491 0.9661
-5.4128 6.5004 -1.6491 0.9661
-5.6426 6.3019 -1.6491 0.9661
-5.8652 6.0953 -1.6491 0.9661
-6.0802 5.8808 -1.6491 0.9661
-6.2887 5.6600 -1.6495 0.9661
-7.0715 5.9191 -1.7978 0.9631
-7.2943 5.6730 -1.8015 0.9630
-7.4932 5.4075 -1.8015 0.9630
-7.6825 5.1351 -1.8015 0.9630
-7.8619 4.8560 -1.8015 0.9630
-8.1900 4.2794 -1.8015 0.9630
-8.3384 3.9827 -1.8015 0.9630
-8.4759 3.6808 -1.8015 0.9630
-8.6026 3.3742 -1.8015 0.9630
-1.7744 0.5527 -0.3623 0.9925
-1.7138 0.3372 -0.3405 0.9929
-1.7073 0.1482 -0.3341 0.9930
-1.7084 0.0866 -0.3335 0.9931
-1.7069 -0.1591 -0.3342 0.9930
-1.6971 -0.2822 -0.3354 0.9930
-1.7395 -0.4194 -0.3489 0.9927
-1.7774 -0.5662 -0.3637 0.9924
-8.6984 -3.1190 -1.8015 0.9630
-8.4522 -3.7350 -1.8015 0.9630
-8.3127 -4.0360 -1.8015 0.9630
-8.1624 -4.3318 -1.8015 0.9630
-8.0017 -4.6220 -1.8015 0.9630
-7.8306 -4.9063 -1.8015 0.9630
-7.6494 -5.1842 -1.8015 0.9630
-6.6008 -6.4667 -1.8015 0.9630
-6.3644 -6.6995 -1.8015 0.9630
-6.1198 -6.9237 -1.8015 0.9630
-5.8674 -7.1389 -1.8015 0.9630
-5.6073 -7.3449 -1.8015 0.9630
-5.0659 -7.7283 -1.8015 0.9630
-4.7852 -7.9051 -1.8015 0.9630
-4.2057 -8.2281 -1.8015 0.9630
-3.9077 -8.3738 -1.8015 0.9630
-3.2968 -8.6326 -1.8015 0.9630
-2.9848 -8.7453 -1.8015 0.9630
-1.7024 -9.0825 -1.8015 0.9630
-1.3753 -9.1377 -1.8015 0.9630
-1.0464 -9.1812 -1.8015 0.9630
-0.6623 -8.5196 -1.8015 0.9657
-0.0493 -8.5452 -1.8015 0.9657
2.0773 -8.2890 -1.8015 0.9657
2.3735 -8.2090 -1.8015 0.9657
2.9564 -8.0176 -1.8015 0.9657
3.5240 -7.7848 -1.8015 0.9657
3.8012 -7.6533 -1.8015 0.9657
4.3405 -7.3609 -1.8015 0.9657
5.3493 -6.6639 -1.8015 0.9657
5.8136 -6.2629 -1.8015 0.9657
6.0347 -6.0502 -1.8015 0.9657
6.2480 -5.8297 -1.8015 0.9657
6.4532 -5.6016 -1.8015 0.9657
7.0180 -4.8754 -1.8015 0.9657
7.1885 -4.6204 -1.8015 0.9657
7.5015 -4.0927 -1.8015 0.9657
7.6436 -3.8208 -1.8015 0.9657
7.7758 -3.5440 -1.8015 0.9657
7.8980 -3.2626 -1.8015 0.9657
8.0100 -2.9770 -1.8015 0.9657
8.1117 -2.6875 -1.8015 0.9657
8.2029 -2.3946 -1.8015 0.9657
8.2836 -2.0986 -1.8015 0.9657
8.4128 -1.4989 -1.8015 0.9657
8.4612 -1.1959 -1.8015 0.9657
8.4987 -0.8914 -1.8015 0.9657
8.5252 -0.5858 -1.8015 0.9657
8.5407 -0.2794 -1.8015 0.9657
8.5453 0.0274 -1.8015 0.9657
8.5388 0.3341 -1.8015 0.9657
8.5213 0.6404 -1.8015 0.9657
8.4928 0.9459 -1.8015 0.9657
8.4534 1.2501 -1.8015 0.9657
8.4031 1.5528 -1.8015 0.9657
8.1874 2.4471 -1.8015 0.9657
8.0943 2.7394 -1.8015 0.9657
7.9908 3.0282 -1.8015 0.9657
7.4486 4.1261 -1.7951 0.9658
6.5532 4.2716 -1.6491 0.9685
6.0559 4.9513 -1.6491 0.9685
5.8743 5.1655 -1.6491 0.9685
4.6344 6.3018 -1.6491 0.9685
3.9300 6.7635 -1.6491 0.9685
3.6847 6.9002 -1.6491 0.9685
2.9216 7.2564 -1.6491 0.9685
2.3934 7.4473 -1.6491 0.9685
2.1245 7.5284 -1.6491 0.9685
1.3029 7.7132 -1.6491 0.9685
0.7462 7.7867 -1.6491 0.9685
0.4662 7.8085 -1.6491 0.9685
-0.9356 7.7663 -1.6491 0.9685
-1.2138 7.7277 -1.6491 0.9685
-2.8376 7.2896 -1.6491 0.9685
-3.3533 7.0672 -1.6491 0.9685
-3.6048 6.9423 -1.6491 0.9685
-4.0936 6.6658 -1.6491 0.9685
-5.0055 6.0113 -1.6491 0.9685
-5.6227 5.4383 -1.6491 0.9685
-6.1471 5.5325 -1.7435 0.9668
-6.7454 5.2461 -1.8015 0.9657
-7.1044 4.7487 -1.8015 0.9657
-7.4268 4.2267 -1.8015 0.9657
-7.8381 3.4038 -1.8015 0.9657
-1.6254 0.5711 -0.3632 0.9930
-1.6130 0.5025 -0.3562 0.9931
-1.5642 0.2498 -0.3340 0.9935
-1.5695 0.1932 -0.3334 0.9936
-1.5740 0.0798 -0.3323 0.9936
-1.5731 0.0232 -0.3317 0.9936
-1.5734 -0.0333 -0.3318 0.9936
-1.5688 -0.2033 -0.3335 0.9936
-1.5631 -0.2599 -0.3341 0.9935
-1.5695 -0.3193 -0.3377 0.9935
-1.5865 -0.3825 -0.3441 0.9934
-1.6275 -0.5836 -0.3645 0.9930
-7.8161 -3.4540 -1.8015 0.9657
-7.6871 -3.7323 -1.8015 0.9657
-7.2413 -4.5371 -1.8015 0.9657
-7.0738 -4.7941 -1.8015 0.9657
-6.8972 -5.0449 -1.8015 0.9657
-6.7116 -5.2893 -1.8015 0.9657
-6.3148 -5.7572 -1.8015 0.9657
-5.8855 -6.1954 -1.8015 0.9657
-4.9382 -6.9740 -1.8015 0.9657
-4.6847 -7.1467 -1.8015 0.9657
-3.8892 -7.6089 -1.8015 0.9657
-3.3333 -7.8684 -1.8015 0.9657
-2.7602 -8.0872 -1.8015 0.9657
-1.8748 -8.3371 -1.8015 0.9657
-1.5743 -8.3990 -1.8015 0.9657
-1.2718 -8.4501 -1.8015 0.9657
-0.9677 -8.4903 -1.8015 0.9657
-0.6156 -7.9198 -1.8015 0.9679
-0.3309 -7.9368 -1.8015 0.9679
0.2393 -7.9401 -1.8015 0.9679
0.5242 -7.9264 -1.8015 0.9679
0.8084 -7.9024 -1.8015 0.9679
1.6532 -7.7697 -1.8015 0.9679
1.9311 -7.7054 -1.8015 0.9679
2.4789 -7.5470 -1.8015 0.9679
2.7482 -7.4531 -1.8015 0.9679
3.0140 -7.3497 -1.8015 0.9679
3.2759 -7.2367 -1.8015 0.9679
3.5336 -7.1145 -1.8015 0.9679
4.0349 -6.8426 -1.8015 0.9679
4.5154 -6.5355 -1.8015 0.9679
4.7471 -6.3692 -1.8015 0.9679
4.9727 -6.1947 -1.8015 0.9679
5.6098 -5.6242 -1.8015 0.9679
5.8081 -5.4192 -1.8015 0.9679
5.9989 -5.2073 -1.8015 0.9679
6.1819 -4.9886 -1.8015 0.9679
6.3570 -4.7634 -1.8015 0.9679
6.5239 -4.5322 -1.8015 0.9679
7.1054 -3.5518 -1.8015 0.9679
7.2283 -3.2945 -1.8015 0.9679
7.5406 -2.4983 -1.8015 0.9679
7.7655 -1.6732 -1.8015 0.9679
7.8205 -1.3933 -1.8015 0.9679
7.8655 -1.1117 -1.8015 0.9679
7.9003 -0.8287 -1.8015 0.9679
7.9436 0.0255 -1.8015 0.9679
7.9376 0.3106 -1.8015 0.9679
7.8949 0.8793 -1.8015 0.9679
7.8582 1.1621 -1.8015 0.9679
7.8114 1.4434 -1.8015 0.9679
7.5244 2.5466 -1.8015 0.9679
7.3223 3.0799 -1.8015 0.9679
7.2071 3.3407 -1.8015 0.9679
6.9425 3.8457 -1.7999 0.9680
6.7848 4.0833 -1.7959 0.9680
5.9975 4.2237 -1.6636 0.9704
5.6296 4.6027 -1.6491 0.9706
5.4607 4.8018 -1.6491 0.9706
5.2849 4.9948 -1.6491 0.9706
5.1022 5.1813 -1.6491 0.9706
4.0880 4.4609 -1.3722 0.9755
3.9028 4.5784 -1.3644 0.9756
4.5156 5.6997 -1.6491 0.9706
4.3081 5.8581 -1.6491 0.9706
3.6533 6.2873 -1.6491 0.9706
3.4253 6.4144 -1.6491 0.9706
3.1928 6.5333 -1.6491 0.9706
2.4720 6.8386 -1.6491 0.9706
1.9750 6.9983 -1.6491 0.9706
1.4678 7.1220 -1.6491 0.9706
-0.0886 7.2711 -1.6491 0.9706
-0.6100 7.2460 -1.6491 0.9706
-1.1283 7.1836 -1.6491 0.9706
-2.3929 6.8667 -1.6491 0.9706
-3.3510 6.4535 -1.6491 0.9706
-3.5805 6.3291 -1.6491 0.9706
-3.8054 6.1965 -1.6491 0.9706
-4.4495 5.7515 -1.6491 0.9706
-4.6531 5.5880 -1.6491 0.9706
-4.8507 5.4174 -1.6491 0.9706
-5.0420 5.2398 -1.6491 0.9706
-6.2705 4.8768 -1.8015 0.9679
-6.7584 4.1744 -1.8015 0.9679
-6.9039 3.9291 -1.8015 0.9679
-7.0405 3.6788 -1.8015 0.9679
-7.1680 3.4237 -1.8015 0.9679
-7.2863 3.1642 -1.8015 0.9679
-1.4872 0.5225 -0.3575 0.9936
-1.4783 0.4605 -0.3511 0.9937
-1.4542 0.1790 -0.3323 0.9940
-1.4578 0.0215 -0.3307 0.9940
-1.4584 -0.0833 -0.3313 0.9940
-1.4569 -0.1358 -0.3318 0.9940
-1.4534 -0.1883 -0.3324 0.9940
-1.4440 -0.2937 -0.3342 0.9940
-1.4575 -0.3514 -0.3400 0.9939
-1.4695 -0.4106 -0.3460 0.9938
-1.4952 -0.5975 -0.3652 0.9934
-7.2658 -3.2108 -1.8015 0.9679
-6.7315 -4.2177 -1.8015 0.9679
-6.5758 -4.4566 -1.8015 0.9679
-6.2391 -4.9169 -1.8015 0.9679
-5.8702 -5.3518 -1.8015 0.9679
-5.6743 -5.5591 -1.8015 0.9679
-5.4711 -5.7592 -1.8015 0.9679
-5.2609 -5.9519 -1.8015 0.9679
-5.0438 -6.1369 -1.8015 0.9679
-4.3549 -6.6436 -1.8015 0.9679
-3.8670 -6.9389 -1.8015 0.9679
-3.6154 -7.0732 -1.8015 0.9679
-3.3592 -7.1984 -1.8015 0.9679
-3.0986 -7.3144 -1.8015 0.9679
-2.5659 -7.5179 -1.8015 0.9679
-1.1823 -7.8552 -1.8015 0.9679
-0.3090 -7.4114 -1.8015 0.9699
-0.0428 -7.4177 -1.8015 0.9699
0.2235 -7.4144 -1.8015 0.9699
0.4895 -7.4016 -1.8015 0.9699
0.7549 -7.3793 -1.8015 0.9699
1.0193 -7.3474 -1.8015 0.9699
1.2824 -7.3061 -1.8015 0.9699
1.5438 -7.2554 -1.8015 0.9699
2.3148 -7.0474 -1.8015 0.9699
2.5663 -6.9597 -1.8015 0.9699
3.5360 -6.5208 -1.8015 0.9699
3.7678 -6.3897 -1.8015 0.9699
4.4329 -5.9476 -1.8015 0.9699
4.6435 -5.7846 -1.8015 0.9699
4.8481 -5.6142 -1.8015 0.9699
5.4236 -5.0605 -1.8015 0.9699
5.7727 -4.6583 -1.8015 0.9699
5.9362 -4.4481 -1.8015 0.9699
6.5117 -3.5527 -1.8015 0.9699
6.6350 -3.3167 -1.8015 0.9699
6.7498 -3.0763 -1.8015 0.9699
6.8559 -2.8321 -1.8015 0.9699
6.9531 -2.5842 -1.8015 0.9699
7.0414 -2.3329 -1.8015 0.9699
7.2514 -1.5624 -1.8015 0.9699
7.3028 -1.3011 -1.8015 0.9699
7.3448 -1.0381 -1.8015 0.9699
7.3774 -0.7738 -1.8015 0.9699
7.4004 -0.5085 -1.8015 0.9699
7.4121 0.2900 -1.8015 0.9699
7.3722 0.8211 -1.8015 0.9699
7.3380 1.0852 -1.8015 0.9699
7.2943 1.3479 -1.8015 0.9699
7.2413 1.6089 -1.8015 0.9699
7.1788 1.8678 -1.8015 0.9699
7.1071 2.1242 -1.8015 0.9699
7.0263 2.3780 -1.8015 0.9699
6.7300 3.1196 -1.8015 0.9699
6.4888 3.5944 -1.8015 0.9699
6.1973 4.0396 -1.7966 0.9700
5.2569 4.2980 -1.6491 0.9724
5.0992 4.4840 -1.6491 0.9724
4.0843 4.4569 -1.4682 0.9754
4.0229 5.4704 -1.6491 0.9724
3.6200 5.7449 -1.6491 0.9724
3.4115 5.8711 -1.6491 0.9724
3.1985 5.9898 -1.6491 0.9724
2.9815 6.1008 -1.6491 0.9724
2.7606 6.2038 -1.6491 0.9724
2.5361 6.2989 -1.6491 0.9724
2.3083 6.3859 -1.6491 0.9724
1.6085 6.5971 -1.6491 0.9724
1.3706 6.6506 -1.6491 0.9724
0.8899 6.7317 -1.6491 0.9724
0.4047 6.7782 -1.6491 0.9724
-0.5696 6.7664 -1.6491 0.9724
-1.0536 6.7081 -1.6491 0.9724
-1.5322 6.6152 -1.6491 0.9724
-1.7687 6.5559 -1.6491 0.9724
-2.0028 6.4882 -1.6491 0.9724
-2.9108 6.1348 -1.6491 0.9724
-3.1292 6.0263 -1.6491 0.9724
-3.5535 5.7863 -1.6491 0.9724
-3.7589 5.6550 -1.6491 0.9724
-3.9595 5.5164 -1.6491 0.9724
-4.5296 5.0588 -1.6491 0.9724
-5.4992 4.9494 -1.7968 0.9700
-5.8554 4.5539 -1.8015 0.9699
-6.0151 4.3408 -1.8015 0.9699
-6.1670 4.1221 -1.8015 0.9699
-6.3110 3.8981 -1.8015 0.9699
-6.4469 3.6690 -1.8015 0.9699
-1.3743 0.5391 -0.3585 0.9939
-1.3636 0.4248 -0.3469 0.9941
-1.3491 0.2154 -0.3318 0.9944
-1.3583 0.0689 -0.3303 0.9944
-1.3577 0.0200 -0.3298 0.9944
-1.3579 -0.0287 -0.3299 0.9944
-1.3582 -0.0776 -0.3304 0.9944
-1.3532 -0.1754 -0.3314 0.9944
-1.3475 -0.3249 -0.3366 0.9943
-1.3649 -0.4348 -0.3479 0.9941
-1.3709 -0.4916 -0.3537 0.9940
-1.3749 -0.5495 -0.3596 0.9939
-6.6729 -3.2399 -1.8015 0.9699
-6.4232 -3.7103 -1.8015 0.9699
-6.2859 -3.9384 -1.8015 0.9699
-6.1405 -4.1616 -1.8015 0.9699
-5.9871 -4.3793 -1.8015 0.9699
-5.6575 -4.7975 -1.8015 0.9699
-5.1090 -5.3780 -1.8015 0.9699
-4.9126 -5.5579 -1.8015 0.9699
-4.7099 -5.7307 -1.8015 0.9699
-4.5012 -5.8960 -1.8015 0.9699
-4.2867 -6.0538 -1.8015 0.9699
-3.8413 -6.3457 -1.8015 0.9699
-3.6110 -6.4795 -1.8015 0.9699
-3.3761 -6.6050 -1.8015 0.9699
-3.1368 -6.7219 -1.8015 0.9699
-2.3960 -7.0202 -1.8015 0.9699
-2.1425 -7.1017 -1.8015 0.9699
-1.6274 -7.2371 -1.8015 0.9699
-1.3666 -7.2908 -1.8015 0.9699
-0.5389 -6.9331 -1.8015 0.9717
0.9555 -6.8881 -1.8015 0.9717
1.2022 -6.8493 -1.8015 0.9717
1.4473 -6.8018 -1.8015 0.9717
1.9316 -6.6804 -1.8015 0.9717
2.1701 -6.6067 -1.8015 0.9717
3.3149 -6.1131 -1.8015 0.9717
3.9529 -5.7213 -1.8015 0.9717
4.1557 -5.5757 -1.8015 0.9717
4.5450 -5.2632 -1.8015 0.9717
4.7310 -5.0967 -1.8015 0.9717
5.2515 -4.5585 -1.8015 0.9717
5.4118 -4.3671 -1.8015 0.9717
5.5650 -4.1700 -1.8015 0.9717
5.7112 -3.9675 -1.8015 0.9717
5.9811 -3.5476 -1.8015 0.9717
6.3278 -2.8840 -1.8015 0.9717
6.4272 -2.6550 -1.8015 0.9717
6.5184 -2.4226 -1.8015 0.9717
6.6012 -2.1871 -1.8015 0.9717
6.6754 -1.9487 -1.8015 0.9717
6.7411 -1.7078 -1.8015 0.9717
6.8462 -1.2198 -1.8015 0.9717
6.9540 0.0223 -1.8015 0.9717
6.9345 0.5211 -1.8015 0.9717
6.9113 0.7697 -1.8015 0.9717
6.7885 1.5083 -1.8015 0.9717
6.7300 1.7510 -1.8015 0.9717
6.3092 2.9245 -1.8015 0.9717
6.0831 3.3697 -1.8015 0.9717
5.9582 3.5858 -1.8015 0.9717
5.8232 3.7958 -1.8007 0.9717
5.5154 4.1882 -1.7941 0.9718
5.1523 4.2125 -1.7241 0.9729
4.6361 4.3816 -1.6525 0.9740
3.8946 4.5688 -1.5553 0.9755
3.9530 4.9896 -1.6491 0.9740
3.7714 5.1283 -1.6491 0.9740
3.1982 5.5040 -1.6491 0.9740
2.7951 5.7193 -1.6491 0.9740
1.9477 6.0605 -1.6491 0.9740
0.6072 6.3367 -1.6491 0.9740
0.3794 6.3544 -1.6491 0.9740
0.1510 6.3640 -1.6491 0.9740
-0.0775 6.3653 -1.6491 0.9740
-0.3060 6.3584 -1.6491 0.9740
-0.5340 6.3433 -1.6491 0.9740
-0.7614 6.3201 -1.6491 0.9740
-1.2128 6.2492 -1.6491 0.9740
-1.4364 6.2016 -1.6491 0.9740
-2.0948 6.0112 -1.6491 0.9740
-2.3092 5.9322 -1.6491 0.9740
-2.5206 5.8455 -1.6491 0.9740
-2.9335 5.6495 -1.6491 0.9740
-3.1344 5.5406 -1.6491 0.9740
-3.7119 5.1715 -1.6491 0.9740
-4.2464 4.7425 -1.6491 0.9740
-4.5603 4.7392 -1.7038 0.9732
-5.3325 4.4635 -1.8015 0.9717
-5.4893 4.2692 -1.8015 0.9717
-5.7814 3.8644 -1.8015 0.9717
-5.9164 3.6544 -1.8015 0.9717
-6.0438 3.4396 -1.8015 0.9717
-1.2882 0.6153 -0.3698 0.9941
-1.2844 0.2051 -0.3370 0.9946
-1.2877 0.1585 -0.3361 0.9947
-1.2910 0.0655 -0.3349 0.9947
-1.2909 0.0190 -0.3344 0.9947
-1.2896 -0.1202 -0.3355 0.9947
-1.2872 -0.1668 -0.3363 0.9947
-1.2837 -0.2134 -0.3371 0.9946
-1.2771 -0.3079 -0.3403 0.9946
-1.2852 -0.4094 -0.3494 0.9944
-1.2878 -0.4618 -0.3544 0.9944
-1.2892 -0.5152 -0.3597 0.9943
-1.2892 -0.5697 -0.3651 0.9942
-1.2879 -0.6253 -0.3709 0.9941
-6.1426 -3.2599 -1.8015 0.9717
-6.0216 -3.4783 -1.8015 0.9717
-5.8929 -3.6922 -1.8015 0.9717
-5.7566 -3.9014 -1.8015 0.9717
-5.6128 -4.1055 -1.8015 0.9717
-5.4618 -4.3043 -1.8015 0.9717
-4.9674 -4.8665 -1.8015 0.9717
-4.6055 -5.2104 -1.8015 0.9717
-4.4155 -5.3724 -1.8015 0.9717
-4.0186 -5.6753 -1.8015 0.9717
-3.8123 -5.8159 -1.8015 0.9717
-3.6011 -5.9490 -1.8015 0.9717
-3.3852 -6.0744 -1.8015 0.9717
-2.9407 -6.3017 -1.8015 0.9717
-2.2462 -6.5813 -1.8015 0.9717
-1.7682 -6.7255 -1.8015 0.9717
-1.5257 -6.7846 -1.8015 0.9717
-1.2812 -6.8350 -1.8015 0.9717
-1.0350 -6.8766 -1.8015 0.9717
-0.5070 -6.5221 -1.8015 0.9732
-0.2725 -6.5361 -1.8015 0.9732
-0.0377 -6.5417 -1.8015 0.9732
0.1971 -6.5388 -1.8015 0.9732
0.6657 -6.5078 -1.8015 0.9732
1.5903 -6.3455 -1.8015 0.9732
1.8170 -6.2844 -1.8015 0.9732
2.6978 -5.9596 -1.8015 0.9732
3.3228 -5.6351 -1.8015 0.9732
3.7186 -5.3821 -1.8015 0.9732
3.9094 -5.2452 -1.8015 0.9732
4.2756 -4.9512 -1.8015 0.9732
4.6198 -4.6317 -1.8015 0.9732
5.2351 -3.9228 -1.8015 0.9732
5.3726 -3.7323 -1.8015 0.9732
5.5031 -3.5371 -1.8015 0.9732
5.6265 -3.3373 -1.8015 0.9732
5.8515 -2.9250 -1.8015 0.9732
5.9527 -2.7131 -1.8015 0.9732
6.0462 -2.4976 -1.8015 0.9732
6.2099 -2.0574 -1.8015 0.9732
6.3415 -1.6066 -1.8015 0.9732
6.3950 -1.3779 -1.8015 0.9732
6.4404 -1.1475 -1.8015 0.9732
6.5061 -0.6824 -1.8015 0.9732
6.5418 0.0210 -1.8015 0.9732
6.5368 0.2558 -1.8015 0.9732
6.5234 0.4903 -1.8015 0.9732
6.3310 1.6472 -1.8015 0.9732
6.2678 1.8734 -1.8015 0.9732
6.1173 2.3182 -1.8015 0.9732
6.0301 2.5363 -1.8015 0.9732
5.8326 2.9624 -1.8015 0.9732
5.2002 3.9489 -1.7981 0.9733
5.0466 4.1261 -1.7951 0.9733
3.5478 4.8243 -1.6491 0.9755
3.3723 4.9486 -1.6491 0.9755
2.6294 5.3803 -1.6491 0.9755
2.2366 5.5550 -1.6491 0.9755
1.8323 5.7012 -1.6491 0.9755
1.6264 5.7633 -1.6491 0.9755
1.4185 5.8180 -1.6491 0.9755
0.7848 5.9367 -1.6491 0.9755
0.5712 5.9611 -1.6491 0.9755
0.3569 5.9777 -1.6491 0.9755
-0.2878 5.9815 -1.6491 0.9755
-0.5024 5.9673 -1.6491 0.9755
-0.9292 5.9158 -1.6491 0.9755
-1.3512 5.8340 -1.6491 0.9755
-1.5598 5.7817 -1.6491 0.9755
-1.7663 5.7220 -1.6491 0.9755
-2.3712 5.4989 -1.6491 0.9755
-2.7596 5.3146 -1.6491 0.9755
-3.3150 4.9871 -1.6491 0.9755
-3.4919 4.8649 -1.6491 0.9755
-3.8319 4.6019 -1.6491 0.9755
-4.1051 4.5847 -1.6947 0.9748
-4.6919 4.5380 -1.7976 0.9733
-5.5657 3.4377 -1.8015 0.9732
-5.6855 3.2357 -1.8015 0.9732
-1.2235 0.5844 -0.3734 0.9944
-1.2255 0.5322 -0.3679 0.9945
-1.2254 0.4306 -0.3577 0.9946
-1.2235 0.3811 -0.3529 0.9947
-1.2268 0.2414 -0.3443 0.9948
-1.2312 0.1966 -0.3434 0.9948
-1.2345 0.1519 -0.3425 0.9949
-1.2367 0.1073 -0.3419 0.9949
-1.2377 -0.0707 -0.3414 0.9949
-1.2364 -0.1153 -0.3420 0.9949
-1.2259 -0.2494 -0.3445 0.9948
-1.2206 -0.2943 -0.3458 0.9948
-1.2223 -0.3416 -0.3495 0.9947
-1.2239 -0.3899 -0.3538 0.9947
-1.2257 -0.4395 -0.3586 0.9946
-1.2261 -0.4900 -0.3636 0.9945
-1.2252 -0.5414 -0.3689 0.9945
-1.2229 -0.5938 -0.3744 0.9944
-5.4153 -3.6701 -1.8015 0.9732
-5.2800 -3.8621 -1.8015 0.9732
-4.9894 -4.2310 -1.8015 0.9732
-4.6729 -4.5780 -1.8015 0.9732
-4.1537 -5.0539 -1.8015 0.9732
-3.7804 -5.3389 -1.8015 0.9732
-3.5863 -5.4711 -1.8015 0.9732
-3.3876 -5.5963 -1.8015 0.9732
-3.1845 -5.7143 -1.8015 0.9732
-2.5518 -6.0236 -1.8015 0.9732
-2.3339 -6.1113 -1.8015 0.9732
-2.1130 -6.1911 -1.8015 0.9732
-1.2052 -6.4298 -1.8015 0.9732
-0.7408 -6.4997 -1.8015 0.9732
-0.4784 -6.1542 -1.8015 0.9746
0.1860 -6.1700 -1.8015 0.9746
0.4073 -6.1593 -1.8015 0.9746
0.8482 -6.1142 -1.8015 0.9746
1.0671 -6.0798 -1.8015 0.9746
1.2847 -6.0376 -1.8015 0.9746
1.5006 -5.9876 -1.8015 0.9746
2.3421 -5.7112 -1.8015 0.9746
2.5456 -5.6234 -1.8015 0.9746
2.9425 -5.4263 -1.8015 0.9746
3.8641 -4.8137 -1.8015 0.9746
4.1995 -4.5241 -1.8015 0.9746
4.3592 -4.3704 -1.8015 0.9746
5.0695 -3.5218 -1.8015 0.9746
5.1927 -3.3376 -1.8015 0.9746
5.5214 -2.7600 -1.8015 0.9746
5.6169 -2.5600 -1.8015 0.9746
5.7052 -2.3567 -1.8015 0.9746
5.9255 -1.7298 -1.8015 0.9746
5.9837 -1.5159 -1.8015 0.9746
6.0343 -1.3002 -1.8015 0.9746
6.0771 -1.0827 -1.8015 0.9746
6.1120 -0.8639 -1.8015 0.9746
6.1695 -0.2018 -1.8015 0.9746
6.1681 0.2414 -1.8015 0.9746
6.1554 0.4626 -1.8015 0.9746
6.1349 0.6833 -1.8015 0.9746
6.1064 0.9030 -1.8015 0.9746
6.0258 1.3388 -1.8015 0.9746
5.9739 1.5543 -1.8015 0.9746
5.7722 2.1875 -1.8015 0.9746
5.6900 2.3933 -1.8015 0.9746
5.5036 2.7953 -1.8015 0.9746
5.3997 2.9911 -1.8015 0.9746
5.1712 3.3708 -1.8015 0.9746
5.0469 3.5542 -1.8015 0.9746
4.7720 3.9016 -1.7989 0.9746
4.6218 4.0641 -1.7962 0.9747
4.4452 4.2012 -1.7851 0.9748
4.1480 4.2123 -1.7253 0.9757
3.5089 4.4291 -1.6491 0.9767
3.1821 4.6694 -1.6491 0.9767
3.0124 4.7806 -1.6491 0.9767
2.4810 5.0768 -1.6491 0.9767
2.2972 5.1626 -1.6491 0.9767
2.1104 5.2417 -1.6491 0.9767
1.9209 5.3141 -1.6491 0.9767
1.7289 5.3796 -1.6491 0.9767
1.3385 5.4898 -1.6491 0.9767
0.3367 5.6405 -1.6491 0.9767
-0.2716 5.6441 -1.6491 0.9767
-0.4740 5.6307 -1.6491 0.9767
-0.8768 5.5821 -1.6491 0.9767
-1.4718 5.4556 -1.6491 0.9767
-2.2375 5.1887 -1.6491 0.9767
-2.4223 5.1051 -1.6491 0.9767
-2.7823 4.9181 -1.6491 0.9767
-3.1280 4.7058 -1.6491 0.9767
-3.7277 4.4767 -1.7002 0.9760
-4.0838 4.5610 -1.7867 0.9748
-4.2689 4.4364 -1.7968 0.9747
-4.4335 4.2881 -1.8001 0.9746
-4.5881 4.1294 -1.8015 0.9746
-4.7334 3.9621 -1.8015 0.9746
-4.8726 3.7896 -1.8015 0.9746
-5.0055 3.6123 -1.8015 0.9746
-1.1548 0.6572 -0.3878 0.9945
-1.1644 0.5562 -0.3766 0.9946
-1.1672 0.5069 -0.3714 0.9947
-1.1687 0.4106 -0.3615 0.9949
-1.1695 0.3187 -0.3538 0.9950
-1.1819 0.1888 -0.3493 0.9950
-1.1852 0.1459 -0.3485 0.9950
-1.1884 0.0602 -0.3473 0.9951
-1.1883 -0.0679 -0.3474 0.9951
-1.1871 -0.1107 -0.3480 0.9950
-1.1847 -0.1535 -0.3486 0.9950
-1.1812 -0.1964 -0.3495 0.9950
-1.1766 -0.2393 -0.3504 0.9950
-1.1696 -0.3268 -0.3544 0.9950
-1.1696 -0.3726 -0.3582 0.9949
-1.1688 -0.4191 -0.3624 0.9948
-1.1668 -0.5156 -0.3723 0.9947
-1.1638 -0.5651 -0.3776 0.9946
-1.1595 -0.6153 -0.3831 0.9945
-5.3451 -3.0875 -1.8015 0.9746
-5.2308 -3.2774 -1.8015 0.9746
-4.4093 -4.3198 -1.8015 0.9746
-4.2514 -4.4753 -1.8015 0.9746
-4.0881 -4.6250 -1.8015 0.9746
-3.9194 -4.7688 -1.8015 0.9746
-3.7457 -4.9064 -1.8015 0.9746
-3.3840 -5.1625 -1.8015 0.9746
-3.1965 -5.2806 -1.8015 0.9746
-3.0049 -5.3920 -1.8015 0.9746
-2.8094 -5.4964 -1.8015 0.9746
-2.6103 -5.5937 -1.8015 0.9746
-1.9939 -5.8419 -1.8015 0.9746
-1.7829 -5.9097 -1.8015 0.9746
-1.5696 -5.9699 -1.8015 0.9746
-1.3543 -6.0224 -1.8015 0.9746
-0.9187 -6.1040 -1.8015 0.9746
-0.4526 -5.8228 -1.8015 0.9758
-0.2433 -5.8353 -1.8015 0.9758
-0.0337 -5.8403 -1.8015 0.9758
0.5943 -5.8101 -1.8015 0.9758
0.8025 -5.7850 -1.8015 0.9758
1.2155 -5.7125 -1.8015 0.9758
1.6222 -5.6106 -1.8015 0.9758
1.8226 -5.5487 -1.8015 0.9758
2.0206 -5.4797 -1.8015 0.9758
2.2160 -5.4037 -1.8015 0.9758
2.5980 -5.2307 -1.8015 0.9758
2.7841 -5.1341 -1.8015 0.9758
3.1452 -4.9211 -1.8015 0.9758
3.3199 -4.8051 -1.8015 0.9758
3.4902 -4.6828 -1.8015 0.9758
3.6560 -4.5545 -1.8015 0.9758
3.8172 -4.4203 -1.8015 0.9758
4.2703 -3.9843 -1.8015 0.9758
4.4105 -3.8285 -1.8015 0.9758
4.7965 -3.3322 -1.8015 0.9758
4.9131 -3.1578 -1.8015 0.9758
5.1270 -2.7972 -1.8015 0.9758
5.3144 -2.4221 -1.8015 0.9758
5.3980 -2.2298 -1.8015 0.9758
5.5440 -1.8368 -1.8015 0.9758
5.6064 -1.6366 -1.8015 0.9758
5.7094 -1.2301 -1.8015 0.9758
5.7498 -1.0244 -1.8015 0.9758
5.8267 -0.4004 -1.8015 0.9758
5.8373 -0.1909 -1.8015 0.9758
5.8404 0.0187 -1.8015 0.9758
5.8359 0.2284 -1.8015 0.9758
5.7775 0.8544 -1.8015 0.9758
5.7432 1.0613 -1.8015 0.9758
5.6522 1.4706 -1.8015 0.9758
5.5958 1.6725 -1.8015 0.9758
5.3836 2.2644 -1.8015 0.9758
5.2072 2.6448 -1.8015 0.9758
4.8927 3.1893 -1.8015 0.9758
4.7751 3.3628 -1.8015 0.9758
4.6513 3.5321 -1.8015 0.9758
4.5215 3.6968 -1.8015 0.9758
4.3816 3.8530 -1.7998 0.9759
4.0826 4.1459 -1.7948 0.9759
3.5933 4.2154 -1.7086 0.9771
3.3464 4.2240 -1.6623 0.9777
3.1674 4.3071 -1.6491 0.9779
2.5184 4.7160 -1.6491 0.9779
1.9968 4.9594 -1.6491 0.9779
1.8175 5.0279 -1.6491 0.9779
1.4521 5.1454 -1.6491 0.9779
1.2664 5.1942 -1.6491 0.9779
0.5100 5.3219 -1.6491 0.9779
0.3186 5.3368 -1.6491 0.9779
-0.2570 5.3401 -1.6491 0.9779
-0.4485 5.3275 -1.6491 0.9779
-0.6394 5.3079 -1.6491 0.9779
