ply
format ascii 1.0
element vertex 1548
property float32 x
property float32 y
property float32 z
property float32 I
end_header
33.6163 14.1394 3.5472 0.8637
33.5774 15.5642 3.5998 0.8618
33.5893 17.0603 3.6644 0.8595
32.6983 21.3141 3.7965 0.8548
32.4066 22.8223 3.8553 0.8527
33.9309 32.0685 4.5412 0.8289
33.9499 34.4763 4.7064 0.8233
33.2351 36.2670 4.7848 0.8206
33.8489 42.7254 5.3020 0.8033
32.7172 56.3059 6.3342 0.7697
33.4215 62.5875 6.9014 0.7519
5.1772 11.6348 1.2387 0.9501
5.0131 12.4511 1.3056 0.9475
4.5637 12.6253 1.3058 0.9475
4.1084 12.7835 1.3061 0.9475
3.2724 11.5958 1.1719 0.9527
2.4202 11.7434 1.1663 0.9530
1.9843 11.7469 1.1588 0.9533
1.5534 11.7502 1.1529 0.9535
1.1263 11.7536 1.1485 0.9537
0.7019 11.7569 1.1456 0.9538
-0.9931 11.7962 1.1514 0.9535
-1.8539 11.8029 1.1621 0.9531
-2.2914 11.8063 1.1698 0.9528
-2.7354 11.8098 1.1791 0.9524
-3.6379 11.7850 1.1997 0.9516
-4.1081 11.7887 1.2143 0.9511
-4.5377 11.6570 1.2167 0.9510
-6.1296 11.8045 1.2938 0.9479
-6.6433 11.7429 1.3123 0.9472
-7.1716 11.6777 1.3330 0.9464
-8.3887 11.6873 1.3993 0.9438
-55.9053 67.1386 8.4980 0.7039
-50.4098 56.2995 7.3505 0.7381
-51.7942 43.3538 6.5698 0.7623
-51.1939 39.8153 6.3082 0.7706
-53.0961 35.4900 6.2120 0.7736
-82.7992 32.4759 8.6510 0.6995
-68.9849 24.2383 7.1121 0.7454
-68.6333 18.7051 6.9193 0.7513
-71.5165 16.7579 7.1447 0.7444
-76.4715 12.2125 7.5324 0.7325
-87.0199 10.7099 8.5281 0.7030
-38.8028 -15.5071 4.0645 0.8454
-81.0688 -43.0235 8.9270 0.6915
-62.2603 -42.1954 7.3157 0.7391
-56.8217 -41.5623 6.8476 0.7536
-40.3135 -31.7701 4.9925 0.8136
-32.7185 -32.0540 4.4552 0.8319
-30.3855 -31.9854 4.2912 0.8375
-31.3027 -35.4143 4.5974 0.8270
-22.5778 -31.8853 3.8002 0.8547
-20.8784 -31.8511 3.7044 0.8581
-22.0880 -39.6345 4.4134 0.8333
-12.1398 -35.5690 3.6557 0.8598
-11.6710 -44.3906 4.4645 0.8316
-8.1717 -43.5960 4.3143 0.8367
-6.5855 -43.7553 4.3039 0.8371
-4.9696 -43.6036 4.2687 0.8383
-1.7510 -41.9906 3.4424 0.8448
2.7612 -41.7521 3.4273 0.8454
7.3309 -41.7671 3.4734 0.8435
8.8823 -41.7444 3.4957 0.8426
11.1699 -44.5699 3.7635 0.8316
15.5334 -42.1260 3.6776 0.8351
18.2082 -44.4008 3.9307 0.8248
20.8813 -42.0427 3.8450 0.8283
25.8727 -43.8768 4.1721 0.8151
55.2979 -64.0357 6.9300 0.7121
55.1444 -51.4525 6.1776 0.7388
53.2948 -43.0067 5.6093 0.7597
53.2166 -36.9697 5.3075 0.7710
56.1562 -36.0941 5.4678 0.7650
68.7812 -37.5262 6.4177 0.7302
72.7391 -36.3603 6.6608 0.7215
46.4516 10.3206 3.8975 0.8262
39.6426 10.3140 3.3552 0.8484
33.6051 12.7352 2.9436 0.8657
33.6162 14.1393 2.9871 0.8638
33.5774 15.5642 3.0314 0.8620
33.5892 17.0603 3.0858 0.8597
33.6141 20.2300 3.2134 0.8543
32.7368 21.3392 3.2008 0.8548
33.7216 27.5707 3.5677 0.8396
33.7382 29.6674 3.6799 0.8350
32.5710 47.7947 4.7374 0.7928
33.8277 53.6834 5.1973 0.7752
33.9315 63.5425 5.9002 0.7489
33.9521 69.4738 6.3337 0.7332
5.1771 11.6347 1.0431 0.9502
32.9396 81.8132 7.2239 0.7019
4.4697 13.9078 1.1965 0.9431
3.2724 11.5958 0.9869 0.9528
2.8624 11.7400 0.9898 0.9527
2.4202 11.7434 0.9821 0.9530
1.1263 11.7536 0.9671 0.9537
0.7019 11.7569 0.9647 0.9538
-0.9931 11.7962 0.9696 0.9536
-1.4215 11.7995 0.9735 0.9534
-1.8539 11.8029 0.9786 0.9532
-2.2914 11.8063 0.9851 0.9529
-2.7354 11.8098 0.9929 0.9525
-3.1870 11.8133 1.0022 0.9521
-3.6379 11.7849 1.0102 0.9517
-4.1192 11.8207 1.0253 0.9510
-4.5377 11.6570 1.0246 0.9510
-6.1462 11.8366 1.0924 0.9479
-6.6987 11.8409 1.1143 0.9469
-7.2549 11.8134 1.1355 0.9459
-9.3526 13.0303 1.3138 0.9377
-50.3423 65.0731 6.7388 0.7188
-51.0899 53.0940 6.0352 0.7440
-51.1186 49.4423 5.8251 0.7517
-51.1707 42.8319 5.4658 0.7650
-51.1945 39.8158 5.3121 0.7708
-68.1476 35.6082 6.2979 0.7345
-75.9958 36.2980 6.8983 0.7132
-68.9856 24.2385 5.9891 0.7457
-70.3719 21.9212 6.0372 0.7439
-88.7424 17.4599 7.4081 0.6956
-76.4718 12.2125 6.3430 0.7329
-38.8018 -15.5067 3.4226 0.8456
-80.5048 -42.7243 7.4651 0.6937
-73.3753 -42.3841 6.9406 0.7117
-56.7951 -41.5429 5.7636 0.7540
-40.3713 -31.8156 4.2102 0.8136
-39.0966 -33.1540 4.1987 0.8141
-32.7149 -32.0505 3.7513 0.8321
-31.3031 -35.4147 3.8715 0.8272
-31.3472 -41.0610 4.2313 0.8128
-22.5778 -31.8854 3.2001 0.8549
-22.0880 -39.6345 3.7165 0.8335
-14.9177 -31.9673 2.8894 0.8680
-13.3757 -31.5736 2.8086 0.8714
-12.1100 -31.7096 2.7802 0.8726
-11.6710 -44.3907 3.7595 0.8318
-8.1717 -43.5961 3.6331 0.8369
-6.5859 -43.7580 3.6245 0.8373
-4.9663 -43.5746 3.5922 0.8386
-3.2637 -41.9844 2.8040 0.8447
-0.2567 -44.4803 2.9619 0.8367
1.3411 -44.4929 2.9640 0.8366
2.7605 -41.7422 2.7856 0.8456
6.1775 -44.5308 2.9936 0.8351
7.3311 -41.7680 2.8237 0.8437
3.2699 -15.3675 1.0462 0.9390
3.8182 -15.2354 1.0459 0.9390
4.3613 -15.0839 1.0455 0.9390
6.0667 -14.7936 1.0647 0.9379
20.8684 -42.0168 3.1238 0.8286
24.2316 -44.6860 3.3848 0.8156
25.8728 -43.8768 3.3917 0.8153
53.2668 -49.7006 4.8510 0.7467
53.3420 -39.9702 4.4384 0.7655
56.5688 -36.3593 4.4777 0.7637
61.1239 -36.2546 4.7321 0.7521
66.7237 -36.4036 5.0612 0.7373
72.5138 -36.2476 5.3981 0.7225
87.8961 -36.3089 6.3324 0.6830
33.5941 11.3696 2.3616 0.8675
33.6048 12.7351 2.3929 0.8658
33.6159 14.1392 2.4283 0.8640
33.5771 15.5641 2.4643 0.8621
33.6011 18.6128 2.5577 0.8573
33.7123 23.7418 2.7456 0.8476
33.7380 29.6672 2.9915 0.8352
33.8479 42.7242 3.6295 0.8037
33.6443 45.7498 3.7814 0.7964
32.5705 47.7940 3.8512 0.7931
32.7080 56.2901 4.3350 0.7703
33.9369 63.5527 4.7973 0.7491
33.9862 69.5435 5.1541 0.7332
3.2724 11.5957 0.8023 0.9528
2.4202 11.7434 0.7984 0.9531
1.9843 11.7468 0.7933 0.9534
1.5533 11.7502 0.7892 0.9536
1.1263 11.7535 0.7862 0.9538
0.7019 11.7569 0.7842 0.9539
0.2789 11.7542 0.7829 0.9540
-0.9931 11.7961 0.7882 0.9537
-1.8539 11.8029 0.7956 0.9532
-2.7354 11.8098 0.8072 0.9526
-4.5377 11.6570 0.8329 0.9511
-5.1006 11.8283 0.8577 0.9497
-5.6143 11.8324 0.8721 0.9489
-6.1462 11.8366 0.8881 0.9479
-50.3036 70.0839 5.7443 0.7076
-50.3424 65.0733 5.4783 0.7191
-51.1193 49.4428 4.7355 0.7519
-51.5873 37.2283 4.2361 0.7749
-53.6586 35.8660 4.2976 0.7720
-57.5144 35.5245 4.5013 0.7626
-68.1473 35.6080 5.1198 0.7347
-74.2938 32.2630 5.3933 0.7227
-75.8215 29.7391 5.4232 0.7214
-76.8239 26.9925 5.4220 0.7215
-85.6136 26.6690 5.9709 0.6980
-95.1822 18.7269 6.4594 0.6778
-76.4720 12.2126 5.1566 0.7331
-73.3528 -42.3711 5.6406 0.7121
-67.8836 -42.5327 5.3341 0.7253
-40.3717 -31.8160 3.4227 0.8138
-39.5831 -36.0875 3.5667 0.8068
-32.7113 -32.0469 3.0492 0.8323
-31.3035 -35.4152 3.1473 0.8274
-32.5079 -39.5528 3.4091 0.8144
-31.3477 -41.0616 3.4399 0.8129
-22.5779 -31.8855 2.6015 0.8550
-20.8734 -31.8433 2.5353 0.8584
-14.9145 -31.9605 2.3485 0.8682
-12.1104 -31.7104 2.2602 0.8728
-11.6711 -44.3908 3.0563 0.8319
-9.9853 -44.4040 3.0306 0.8332
-8.1717 -43.5962 2.9535 0.8371
-4.9765 -43.6638 2.9263 0.8385
-3.3519 -43.1199 2.2186 0.8409
-0.2532 -43.8714 2.2505 0.8389
2.8549 -43.1686 2.2192 0.8409
4.4699 -43.6955 2.2531 0.8387
7.4486 -42.4375 2.2102 0.8415
3.3786 -15.8783 0.8327 0.9370
4.1000 -16.3596 0.8651 0.9347
24.2316 -44.6861 2.6076 0.8158
25.8728 -43.8769 2.6129 0.8154
26.8199 -41.9635 2.5547 0.8192
53.3459 -57.4687 4.0223 0.7305
53.2662 -49.7000 3.7370 0.7469
61.1241 -36.2547 3.6455 0.7523
72.7365 -36.3590 4.1713 0.7220
79.1115 -2.5878 4.0603 0.7283
33.5938 11.3695 1.8193 0.8676
33.8263 14.2277 1.8824 0.8633
33.5768 15.5640 1.8984 0.8622
33.7118 23.7415 2.1151 0.8478
33.7237 34.2466 2.4655 0.8249
33.7752 36.8565 2.5644 0.8185
33.8486 39.7088 2.6765 0.8114
33.8478 42.7240 2.7960 0.8039
33.8843 49.7218 3.0865 0.7858
33.8266 53.6817 3.2548 0.7756
32.6976 56.2721 3.3385 0.7705
33.9544 63.5853 3.6976 0.7492
33.1146 82.2478 4.5482 0.7011
2.8546 11.7080 0.6182 0.9529
1.5491 11.7183 0.6063 0.9538
0.2789 11.7542 0.6031 0.9540
-0.9904 11.7641 0.6056 0.9538
-1.4176 11.7675 0.6080 0.9536
-2.2852 11.7743 0.6153 0.9531
-2.7279 11.7778 0.6202 0.9527
-3.1784 11.7813 0.6259 0.9523
-3.6379 11.7849 0.6327 0.9518
-4.5377 11.6570 0.6417 0.9511
-5.0867 11.7963 0.6590 0.9498
-2.4115 4.6442 0.2684 0.9793
-6.6987 11.8409 0.6979 0.9470
-7.2548 11.8133 0.7111 0.9460
-9.2111 13.8574 0.8535 0.9355
-50.8280 70.8145 4.4714 0.7053
-50.8181 65.6881 4.2602 0.7170
-51.5878 37.2287 3.2634 0.7751
-87.6240 45.7849 5.0714 0.6730
-75.9953 36.2977 4.3201 0.7137
-68.9869 24.2389 3.7509 0.7461
-69.2781 21.5805 3.7222 0.7478
-70.1070 19.1067 3.7274 0.7475
-76.4724 12.2126 3.9725 0.7333
-38.7997 -15.5059 2.1433 0.8459
-67.8614 -42.5189 4.1079 0.7256
-62.2309 -42.1756 3.8562 0.7400
-32.7076 -32.0433 2.3487 0.8324
-30.3867 -31.9867 2.2632 0.8380
-32.5080 -39.5529 2.6263 0.8146
-22.5779 -31.8855 2.0041 0.8551
-20.3115 -33.5544 2.0120 0.8546
-13.1365 -23.5720 1.3843 0.8976
-21.0386 -41.1601 2.3712 0.8310
-13.3757 -31.5737 1.7590 0.8717
-12.1783 -40.3677 2.1629 0.8446
-9.9853 -44.4041 2.3347 0.8334
-4.9943 -43.8200 2.2624 0.8381
1.2001 -39.8170 1.4353 0.8526
2.6304 -39.7753 1.4362 0.8525
5.5302 -39.8652 1.4501 0.8512
10.0033 -39.9151 1.4826 0.8481
5.3842 -16.3920 0.6217 0.9333
18.2077 -40.2227 1.5908 0.8380
24.2316 -44.6862 1.8315 0.8159
25.8729 -43.8770 1.8353 0.8156
27.0346 -42.2995 1.8088 0.8180
52.5501 -76.0598 3.3309 0.6907
53.1364 -66.1947 3.0584 0.7119
53.1726 -61.5745 2.9313 0.7221
53.3452 -57.4679 2.8252 0.7306
53.2804 -53.4173 2.7184 0.7394
53.3606 -43.0598 2.4705 0.7600
53.3408 -39.9693 2.4016 0.7658
47.9298 -33.2970 2.1027 0.7917
61.1243 -36.2548 2.5606 0.7524
89.6542 -33.3204 3.4461 0.6819
91.5118 -30.3190 3.4734 0.6799
38.7164 10.0731 1.4414 0.8520
34.4714 10.3031 1.2963 0.8659
33.5935 11.3694 1.2778 0.8677
33.8113 18.7293 1.3927 0.8567
33.7115 23.7412 1.4856 0.8479
33.7052 25.5949 1.5249 0.8442
33.7324 27.5795 1.5699 0.8400
33.7372 29.6665 1.6187 0.8354
33.9160 32.0544 1.6814 0.8296
33.8786 34.4039 1.7397 0.8243
34.0099 37.1126 1.8137 0.8175
34.2632 40.1952 1.9030 0.8094
33.8365 46.0112 2.0578 0.7956
33.7734 53.5972 2.2825 0.7760
5.1770 11.6343 0.4588 0.9503
5.0142 13.8716 0.5314 0.9427
4.4595 13.8759 0.5251 0.9433
2.4202 11.7434 0.4320 0.9531
1.9843 11.7468 0.4292 0.9534
1.5533 11.7502 0.4270 0.9537
1.1263 11.7535 0.4254 0.9538
-0.9931 11.7961 0.4265 0.9537
-1.8539 11.8028 0.4305 0.9533
-2.2914 11.8063 0.4333 0.9530
-3.1870 11.8133 0.4409 0.9522
-3.6379 11.7849 0.4444 0.9518
-5.1006 11.8283 0.4641 0.9497
-5.6143 11.8323 0.4719 0.9489
-2.4099 4.6411 0.1884 0.9793
-9.2111 13.8574 0.5995 0.9356
-56.4481 78.6446 3.4880 0.6788
-51.0016 65.9252 3.0031 0.7163
-50.2287 60.3214 2.8282 0.7304
-50.0725 55.9229 2.7046 0.7405
-51.0918 53.0961 2.6549 0.7446
-51.1962 39.8171 2.3368 0.7714
-51.2186 36.9623 2.2758 0.7766
-57.5141 35.5243 2.4357 0.7629
-68.1469 35.6078 2.7703 0.7351
-70.8302 30.7589 2.7823 0.7341
-68.9875 24.2391 2.6346 0.7463
-69.2787 21.5806 2.6144 0.7479
-81.3066 19.0520 3.0088 0.7159
-76.4726 12.2127 2.7902 0.7335
-73.3216 -42.3531 3.0509 0.7125
-58.2124 -42.5796 2.5986 0.7493
-39.5841 -36.0884 1.9300 0.8070
-32.5711 -31.9096 1.6429 0.8332
-30.3871 -31.9871 1.5896 0.8381
-32.5080 -39.5530 1.8447 0.8147
-31.3486 -41.0629 1.8614 0.8132
-20.7633 -31.6753 1.3646 0.8593
-13.1387 -23.5758 0.9724 0.8976
-21.0390 -41.1609 1.6655 0.8311
-14.6852 -31.4691 1.2512 0.8702
-13.3359 -31.4797 1.2318 0.8721
-12.1787 -40.3689 1.5193 0.8447
-4.4946 -19.9871 0.7381 0.9213
-5.9809 -39.7379 1.4479 0.8514
-3.3519 -43.1200 0.8988 0.8411
-1.6566 -39.7276 0.8263 0.8529
-0.2305 -39.9346 0.8299 0.8523
1.3411 -44.4931 0.9250 0.8369
4.0900 -39.9827 0.8352 0.8515
5.5492 -40.0017 0.8392 0.8508
4.7381 -16.3870 0.3545 0.9340
5.3843 -16.3920 0.3585 0.9333
6.0463 -16.3972 0.3632 0.9325
6.7173 -16.3802 0.3679 0.9316
20.9339 -42.1485 0.9780 0.8284
25.5636 -43.3525 1.0459 0.8176
25.6968 -40.2063 0.9916 0.8262
52.5612 -76.0760 1.9215 0.6908
53.2352 -71.4260 1.8512 0.7002
53.1357 -66.1938 1.7639 0.7121
53.1719 -61.5737 1.6906 0.7222
53.3755 -53.5126 1.5706 0.7390
53.2919 -46.2594 1.4665 0.7540
61.1245 -36.2549 1.4768 0.7525
66.7243 -36.4040 1.5795 0.7378
80.1501 -36.5300 1.8304 0.7030
89.6816 -29.7126 1.9633 0.6852
97.5573 3.8173 2.0289 0.6766
44.9960 9.9972 0.9578 0.8316
34.2739 10.2441 0.7434 0.8667
33.5932 11.3693 0.7370 0.8677
33.6039 12.7347 0.7468 0.8661
33.6149 14.1388 0.7578 0.8642
33.6128 20.2291 0.8152 0.8547
33.7111 23.7410 0.8568 0.8479
33.7204 27.5696 0.9051 0.8401
33.7369 29.6662 0.9336 0.8355
33.6704 34.1925 0.9972 0.8253
34.0204 37.1241 1.0464 0.8175
34.2631 40.1951 1.0976 0.8095
33.8469 42.7228 1.1327 0.8041
33.8539 46.0348 1.1875 0.7956
34.0382 54.0174 1.3268 0.7746
33.9306 58.3941 1.4035 0.7632
34.1665 63.9826 1.5073 0.7481
34.2411 85.0458 1.9052 0.6929
5.0257 13.9034 0.3072 0.9426
4.4697 13.9077 0.3036 0.9432
3.2724 11.5957 0.2504 0.9529
1.9842 11.7468 0.2476 0.9535
0.7019 11.7568 0.2447 0.9540
0.2789 11.7542 0.2443 0.9540
-0.5675 11.7927 0.2453 0.9539
-0.9931 11.7961 0.2460 0.9537
-2.7353 11.8097 0.2519 0.9527
-3.1870 11.8133 0.2543 0.9522
-3.6379 11.7849 0.2563 0.9519
-4.1192 11.8206 0.2601 0.9512
-5.6143 11.8323 0.2722 0.9490
-2.4083 4.6380 0.1086 0.9793
-6.6987 11.8408 0.2827 0.9470
-7.2548 11.8132 0.2881 0.9460
-50.3128 60.4224 1.6339 0.7301
-50.0731 55.9236 1.5599 0.7406
-51.0924 53.0968 1.5313 0.7447
-51.2192 36.9627 1.3126 0.7767
-57.5138 35.5241 1.4048 0.7630
-76.8627 33.3785 1.7414 0.7152
-76.8267 26.9935 1.6922 0.7220
-86.7097 23.6316 1.8676 0.6980
-38.7955 -15.5042 0.8682 0.8461
-81.0700 -43.0242 1.9072 0.6927
-57.9758 -39.2917 1.4554 0.7556
-39.6827 -31.2730 1.0499 0.8170
-38.5307 -35.1280 1.0835 0.8117
-31.9830 -31.3334 0.9304 0.8360
-30.2674 -31.8610 0.9132 0.8388
-31.3491 -41.0634 1.0736 0.8133
-20.5977 -31.4228 0.7808 0.8604
-20.2044 -33.3775 0.8108 0.8555
-22.0882 -39.6348 0.9429 0.8340
-12.0314 -31.5038 0.7008 0.8738
-12.1415 -35.5740 0.7811 0.8604
-12.1791 -40.3701 0.8763 0.8448
-7.4705 -39.8549 0.8426 0.8502
-4.5440 -39.8695 0.8339 0.8517
-1.7986 -43.1323 0.2392 0.8414
-0.2567 -44.4806 0.2465 0.8370
1.3411 -44.4931 0.2466 0.8369
2.8549 -43.1688 0.2397 0.8411
4.2969 -42.0051 0.2340 0.8446
4.7381 -16.3870 0.0945 0.9340
5.3843 -16.3921 0.0956 0.9333
26.9689 -42.1966 0.2775 0.8185
50.3192 -72.8309 0.4905 0.7018
53.1350 -66.1928 0.4703 0.7121
53.1712 -61.5729 0.4508 0.7222
11.1550 -9.6829 0.0818 0.9426
11.9737 -9.6622 0.0853 0.9403
12.8542 -9.6319 0.0890 0.9378
53.5021 -37.1681 0.3610 0.7706
56.5695 -36.3598 0.3726 0.7641
64.6130 -35.2521 0.4078 0.7450
87.8975 -36.3095 0.5269 0.6836
89.6525 -33.3198 0.5299 0.6821
38.0334 0.1219 0.2107 0.8589
37.6206 9.7879 0.2154 0.8560
33.5929 11.3692 0.1965 0.8677
33.6146 14.1387 0.2021 0.8643
33.5875 17.0595 0.2087 0.8601
33.6124 20.2289 0.2174 0.8548
33.6965 21.9647 0.2229 0.8514
33.1993 25.2107 0.2310 0.8464
33.7200 27.5693 0.2413 0.8401
33.7036 31.8537 0.2569 0.8307
33.7224 34.2453 0.2663 0.8251
33.0352 38.7546 0.2822 0.8157
33.8464 42.7222 0.3020 0.8041
33.8249 53.6790 0.3515 0.7759
33.9300 58.3931 0.3742 0.7633
33.9489 69.4671 0.4284 0.7340
4.4697 13.9077 0.0809 0.9432
3.2723 11.5957 0.0668 0.9529
1.5533 11.7501 0.0657 0.9537
0.7019 11.7568 0.0653 0.9540
0.2789 11.7541 0.0651 0.9541
-1.4215 11.7994 0.0659 0.9536
-2.2914 11.8062 0.0666 0.9530
-2.7353 11.8097 0.0672 0.9527
-3.1870 11.8133 0.0678 0.9522
-4.1192 11.8206 0.0694 0.9512
-4.5376 11.6569 0.0693 0.9512
-5.1005 11.8283 0.0714 0.9498
-5.6142 11.8323 0.0726 0.9490
-2.4067 4.6349 0.0289 0.9793
-9.2111 13.8574 0.0922 0.9356
-54.6309 56.7741 0.4366 0.7297
-51.2637 49.5825 0.3952 0.7518
-65.3413 54.6932 0.4721 0.7112
-51.5669 40.1054 0.3620 0.7700
-51.5895 37.2299 0.3525 0.7753
-53.6580 35.8656 0.3576 0.7725
-76.8277 26.9939 0.4512 0.7220
-85.6160 26.6698 0.4969 0.6986
-86.7106 23.6318 0.4980 0.6980
-80.3549 18.8290 0.4573 0.7188
-91.5519 18.0126 0.5170 0.6885
-76.4732 12.2128 0.4291 0.7336
-38.7931 -15.5033 0.2315 0.8461
-73.6057 -39.0629 0.4617 0.7165
-62.9492 -39.4412 0.4116 0.7429
-58.1461 -39.4072 0.3892 0.7551
-42.4661 -31.0619 0.2915 0.8102
-39.4450 -31.0856 0.2783 0.8180
-36.6831 -31.1073 0.2665 0.8250
-34.1424 -31.1272 0.2560 0.8313
-31.7914 -31.1457 0.2466 0.8369
-27.5591 -31.1789 0.2306 0.8467
-25.6379 -31.1940 0.2237 0.8509
-22.1079 -31.2217 0.2120 0.8581
-13.2749 -23.8204 0.1511 0.8967
-13.2560 -31.2912 0.1883 0.8729
-11.4582 -37.9807 0.2198 0.8533
-2.2854 -10.1628 0.0577 0.9592
-4.7541 -31.5871 0.1770 0.8801
-0.7731 -9.9450 -0.0967 0.9609
-0.1822 -31.5654 -0.3061 0.8814
7.9328 -31.6534 -0.3164 0.8776
4.7381 -16.3870 -0.1654 0.9340
6.0463 -16.3973 -0.1695 0.9325
6.7173 -16.3802 -0.1717 0.9316
37.6840 -83.2472 -0.8861 0.6938
19.0608 -32.3246 -0.3639 0.8606
34.6022 -50.0825 -0.5903 0.7839
34.6405 -46.4775 -0.5621 0.7930
10.0620 -10.8396 -0.1434 0.9426
10.0835 -10.1094 -0.1385 0.9445
10.2833 -9.5948 -0.1364 0.9453
12.7406 -9.5468 -0.1544 0.9383
14.7934 -9.5084 -0.1705 0.9321
40.4164 -23.9722 -0.4556 0.8286
37.7524 -20.5973 -0.4170 0.8420
72.7337 -36.3576 -0.7885 0.7223
80.1486 -36.5293 -0.8540 0.7030
87.8979 -36.3096 -0.9222 0.6836
34.0680 -9.9451 -0.3441 0.8677
67.6007 -7.0906 -0.6591 0.7619
79.0718 -2.5865 -0.7670 0.7287
43.8345 9.7391 -0.4354 0.8356
37.6204 9.7879 -0.3769 0.8560
34.2733 10.2439 -0.3469 0.8667
33.7912 18.7182 -0.3746 0.8568
33.6121 20.2287 -0.3804 0.8548
33.6964 21.9647 -0.3900 0.8514
33.7102 23.7403 -0.3998 0.8480
33.0990 25.1346 -0.4030 0.8468
33.7032 31.8533 -0.4497 0.8307
33.8248 36.9105 -0.4855 0.8185
25.5576 37.5032 -0.4401 0.8340
16.3557 28.1478 -0.3157 0.8779
15.8545 29.6902 -0.3264 0.8740
15.9157 32.5672 -0.3515 0.8650
5.1768 11.6339 -0.1235 0.9503
4.4697 13.9077 -0.1416 0.9432
3.2723 11.5957 -0.1168 0.9529
2.4202 11.7433 -0.1163 0.9532
1.5533 11.7501 -0.1149 0.9537
1.1263 11.7534 -0.1145 0.9539
0.7019 11.7568 -0.1142 0.9540
-0.1436 11.7894 -0.1143 0.9539
-0.5675 11.7927 -0.1145 0.9539
-0.9931 11.7960 -0.1148 0.9538
-2.2914 11.8062 -0.1166 0.9530
-3.1870 11.8133 -0.1186 0.9522
-4.5377 11.6569 -0.1213 0.9512
-5.1005 11.8282 -0.1249 0.9498
-5.6142 11.8323 -0.1270 0.9490
-6.6986 11.8408 -0.1319 0.9470
-9.2110 13.8573 -0.1614 0.9356
-31.7363 41.0228 -0.5029 0.8126
-35.1798 42.2487 -0.5331 0.8026
-36.3831 40.6341 -0.5289 0.8040
-51.0937 53.0981 -0.7145 0.7447
-51.1519 49.4744 -0.6900 0.7523
-65.2119 54.5849 -0.8246 0.7116
-51.1979 39.8184 -0.6289 0.7715
-51.4498 37.1291 -0.6152 0.7758
-53.0949 35.4893 -0.6193 0.7746
-57.5135 35.5239 -0.6555 0.7631
-62.4881 35.5630 -0.6972 0.7501
-68.1461 35.6074 -0.7455 0.7352
-74.6569 35.6585 -0.8022 0.7182
-70.8333 30.7602 -0.7488 0.7342
-76.1348 26.7504 -0.7825 0.7241
-75.6208 23.5562 -0.7680 0.7285
-70.1090 19.1072 -0.7046 0.7478
-71.5198 16.7587 -0.7123 0.7454
-76.4735 12.2128 -0.7509 0.7336
-48.5308 0.7157 -0.4706 0.8235
-79.0077 -10.2384 -0.7725 0.7271
-90.7038 -18.4505 -0.8975 0.6906
-61.5662 -19.6120 -0.6265 0.7722
-54.9504 -19.7037 -0.5660 0.7917
-49.1764 -21.7312 -0.5213 0.8065
-39.2553 -24.5956 -0.4492 0.8309
-30.7575 -24.2392 -0.3797 0.8550
-31.7914 -31.1458 -0.4316 0.8369
-22.2969 -23.4709 -0.3139 0.8785
-21.0769 -23.8453 -0.3086 0.8805
-13.1203 -23.5429 -0.2613 0.8978
-13.2560 -31.2912 -0.3295 0.8729
-2.2379 -9.9518 -0.0989 0.9600
-1.8661 -9.9555 -0.0982 0.9603
-1.4986 -9.9571 -0.0976 0.9605
-1.1336 -9.9460 -0.0971 0.9607
-0.8392 -20.1249 -0.5023 0.9226
0.6070 -20.1386 -0.5025 0.9225
2.7970 -20.1625 -0.5076 0.9218
3.5301 -20.1125 -0.5092 0.9215
5.0587 -20.1851 -0.5190 0.9201
4.7381 -16.3871 -0.4254 0.9340
6.7173 -16.3802 -0.4415 0.9316
9.1565 -20.2277 -0.5537 0.9150
12.9531 -20.2670 -0.5998 0.9082
14.0106 -20.2786 -0.6147 0.9061
9.3744 -10.8556 -0.3577 0.9442
9.4196 -10.1475 -0.3453 0.9461
11.7883 -9.5126 -0.3778 0.9412
12.6895 -9.5085 -0.3954 0.9385
35.2619 -20.9150 -1.0224 0.8487
13.0621 -6.5294 -0.3642 0.9432
65.9503 -24.5108 -1.7546 0.7546
32.5424 -10.7817 -0.8549 0.8718
32.8666 -7.0816 -0.8384 0.8741
73.7733 -5.0690 -1.8441 0.7439
38.8161 -1.2697 -0.9685 0.8561
38.0345 0.1219 -0.9485 0.8588
73.9243 2.8926 -1.8450 0.7438
34.2730 10.2438 -0.8921 0.8666
33.5923 11.3690 -0.8844 0.8677
33.6029 12.7344 -0.8962 0.8661
33.8056 14.2190 -0.9146 0.8635
26.7725 12.4099 -0.7359 0.8886
25.0893 12.7431 -0.7018 0.8935
25.1942 13.9559 -0.7183 0.8912
25.2191 15.1776 -0.7340 0.8889
20.2396 14.2537 -0.6173 0.9057
19.6573 14.9273 -0.6155 0.9060
25.2650 22.2165 -0.8390 0.8741
25.1608 23.7797 -0.8634 0.8706
25.1820 27.4793 -0.9295 0.8615
19.7834 24.9714 -0.7945 0.8803
17.7314 28.1392 -0.8294 0.8754
15.8686 32.4708 -0.9013 0.8654
5.1767 11.6338 -0.3176 0.9503
5.0257 13.9033 -0.3687 0.9426
4.4697 13.9077 -0.3643 0.9432
3.2723 11.5956 -0.3005 0.9529
2.8623 11.7398 -0.3013 0.9528
1.9842 11.7467 -0.2971 0.9535
1.1263 11.7534 -0.2945 0.9539
-0.1436 11.7894 -0.2940 0.9539
-0.5675 11.7927 -0.2944 0.9539
-0.9931 11.7960 -0.2952 0.9537
-1.4215 11.7994 -0.2964 0.9536
-1.8538 11.8028 -0.2980 0.9533
-4.5376 11.6569 -0.3120 0.9512
-6.6986 11.8408 -0.3393 0.9470
-9.2111 13.8573 -0.4150 0.9356
-20.3757 18.3385 -0.6836 0.8961
-20.5737 16.0009 -0.6500 0.9010
-24.1394 16.1351 -0.7241 0.8903
-57.5645 30.0783 -1.6197 0.7711
-62.5056 17.0351 -1.6156 0.7717
-63.0562 14.7755 -1.6151 0.7717
-63.9170 10.2075 -1.6142 0.7718
-70.5692 3.5774 -1.7621 0.7537
-46.8637 0.6911 -1.1688 0.8290
-68.2255 -11.3446 -1.7248 0.7583
-69.2066 -14.0776 -1.7613 0.7538
-62.8540 -15.1539 -1.6124 0.7721
-62.2745 -17.4017 -1.6125 0.7720
-38.7227 -15.4751 -1.0399 0.8463
-49.1119 -23.8452 -1.3615 0.8038
-56.1808 -29.8154 -1.5861 0.7753
-39.2557 -24.5959 -1.1553 0.8308
-30.7578 -24.2395 -0.9766 0.8550
-30.7879 -28.0690 -1.0390 0.8465
-22.2970 -23.4710 -0.8073 0.8785
-21.0772 -23.8456 -0.7937 0.8804
-36.0938 -59.6266 -1.7382 0.7566
-12.4251 -24.3086 -0.6808 0.8965
-12.4437 -26.6657 -0.7338 0.8889
-27.5025 -64.9204 -1.7583 0.7542
-25.2191 -66.0351 -1.7628 0.7536
-22.8876 -67.0601 -1.7671 0.7531
-2.6034 -9.9019 -0.2553 0.9599
-1.4906 -9.9035 -0.2498 0.9607
-0.7643 -9.8327 -0.3964 0.9613
-0.4413 -10.5842 -0.4258 0.9585
2.0816 -20.3491 -0.8221 0.9214
3.5301 -20.1126 -0.8207 0.9215
3.4197 -16.0716 -0.6604 0.9363
6.0463 -16.3974 -0.7024 0.9324
6.7173 -16.3803 -0.7116 0.9316
9.3773 -20.7152 -0.9139 0.9130
10.2985 -20.7349 -0.9305 0.9115
11.0435 -20.3657 -0.9311 0.9114
11.9112 -20.1998 -0.9425 0.9104
13.2227 -20.6887 -0.9868 0.9064
8.8345 -11.0056 -0.5672 0.9451
8.9129 -9.6018 -0.5266 0.9489
9.4599 -9.4841 -0.5384 0.9478
10.1572 -9.4772 -0.5583 0.9459
14.7935 -9.5084 -0.7068 0.9320
12.0691 -7.1585 -0.5640 0.9454
14.0451 -6.4013 -0.6204 0.9401
38.4128 -15.8679 -1.6704 0.8467
39.7228 -14.7632 -1.7032 0.8440
32.7746 -9.5675 -1.3723 0.8722
44.0528 -11.1605 -1.8265 0.8337
45.0223 -6.3635 -1.8275 0.8336
45.2284 -4.7440 -1.8278 0.8336
45.4604 1.7788 -1.8285 0.8335
45.3698 3.4097 -1.8286 0.8335
40.9593 7.5687 -1.6741 0.8464
31.1933 10.5571 -1.3236 0.8765
26.9468 12.4907 -1.1937 0.8879
25.1007 12.7489 -1.1315 0.8934
25.0029 13.8499 -1.1488 0.8919
19.8544 12.9419 -0.9525 0.9095
19.5300 13.7540 -0.9601 0.9088
19.4905 14.8006 -0.9836 0.9067
19.5442 17.1860 -1.0460 0.9011
25.2918 25.6839 -1.4488 0.8656
25.1975 27.4962 -1.4990 0.8613
20.1368 23.6230 -1.2476 0.8831
19.5495 24.6762 -1.2653 0.8816
15.7844 29.5589 -1.3468 0.8745
16.0740 32.8910 -1.4714 0.8637
15.9437 39.5999 -1.7157 0.8429
1.9842 11.7467 -0.4788 0.9534
1.1263 11.7534 -0.4746 0.9538
0.2789 11.7541 -0.4726 0.9540
-0.9931 11.7960 -0.4758 0.9537
-1.4215 11.7994 -0.4777 0.9535
-3.6379 11.7848 -0.4957 0.9518
-6.6986 11.8408 -0.5468 0.9470
-7.2548 11.8132 -0.5572 0.9460
-9.2110 13.8573 -0.6687 0.9356
-25.9813 36.1977 -1.7908 0.8366
-27.2977 30.4871 -1.6447 0.8489
-28.0234 29.1227 -1.6244 0.8506
-27.3364 26.4399 -1.5285 0.8588
-20.2583 18.2329 -1.0954 0.8966
-20.2380 16.9400 -1.0607 0.8997
-20.4769 14.7773 -1.0149 0.9039
-24.0245 16.0582 -1.1614 0.8908
-24.4518 15.1030 -1.1551 0.8913
-40.5581 17.6128 -1.7772 0.8378
-40.8229 14.3433 -1.7391 0.8410
-40.8902 12.7375 -1.7213 0.8424
-42.4857 8.3590 -1.7403 0.8409
-43.5237 6.9507 -1.7715 0.8382
-43.8971 5.4026 -1.7776 0.8377
-44.1604 2.2387 -1.7772 0.8378
-44.2080 0.6520 -1.7770 0.8378
-44.1992 -0.9353 -1.7768 0.8378
-44.1344 -2.5211 -1.7767 0.8378
-43.8365 -5.6806 -1.7766 0.8378
-42.9731 -10.3607 -1.7767 0.8378
-42.5755 -11.8971 -1.7767 0.8378
-42.1236 -13.4185 -1.7769 0.8378
-37.5879 -15.0216 -1.6269 0.8504
-36.4228 -17.6843 -1.6273 0.8504
-35.7699 -18.9832 -1.6276 0.8503
-35.0714 -20.2585 -1.6278 0.8503
-34.6354 -21.7010 -1.6427 0.8491
-33.9414 -23.0030 -1.6479 0.8486
-30.7582 -24.2398 -1.5740 0.8549
-29.3975 -28.8005 -1.6541 0.8481
-21.0917 -25.6626 -1.3351 0.8755
-21.1074 -27.6481 -1.3980 0.8700
-12.4439 -26.6662 -1.1827 0.8889
-16.4023 -38.7181 -1.6900 0.8451
-1.8441 -9.8382 -0.4023 0.9607
-1.1210 -9.8361 -0.3979 0.9611
-0.1159 -20.0749 -1.1135 0.9227
0.6203 -20.5787 -1.1419 0.9208
1.3412 -20.2810 -1.1273 0.9218
3.5301 -20.1126 -1.1326 0.9215
3.4196 -16.0709 -0.9113 0.9363
5.1808 -20.6725 -1.1820 0.9182
4.7381 -16.3871 -0.9461 0.9339
5.3843 -16.3922 -0.9570 0.9332
6.0463 -16.3974 -0.9693 0.9324
10.3221 -20.7825 -1.2870 0.9112
11.0435 -20.3657 -1.2849 0.9114
11.9112 -20.1999 -1.3006 0.9103
14.2798 -20.6682 -1.3933 0.9043
8.8399 -10.2368 -0.7502 0.9473
8.8452 -9.5287 -0.7211 0.9492
10.1832 -9.5015 -0.7725 0.9457
11.7717 -9.4993 -0.8390 0.9412
12.6765 -9.4987 -0.8786 0.9385
13.5792 -9.4335 -0.9171 0.9359
11.6800 -6.9278 -0.7532 0.9470
11.7402 -6.4053 -0.7418 0.9478
12.6680 -6.3324 -0.7855 0.9448
30.3030 -12.5178 -1.8185 0.8769
31.1348 -10.3154 -1.8192 0.8769
31.4904 -9.1927 -1.8195 0.8768
32.0785 -6.9117 -1.8200 0.8768
32.7524 -2.2504 -1.8209 0.8768
32.8147 -1.0734 -1.8210 0.8768
32.6367 3.6349 -1.8214 0.8767
29.3461 6.5201 -1.6673 0.8865
28.8007 8.6082 -1.6672 0.8865
28.4716 9.6359 -1.6671 0.8866
28.1054 10.6510 -1.6670 0.8866
25.7994 10.8515 -1.5524 0.8939
26.9010 12.4695 -1.6445 0.8880
25.1360 12.7668 -1.5637 0.8932
25.2414 13.9820 -1.6004 0.8908
25.2239 15.1805 -1.6328 0.8887
19.7264 12.8584 -1.3060 0.9100
19.4629 13.7067 -1.3203 0.9090
19.5008 15.9438 -1.3971 0.9040
19.5415 17.1836 -1.4433 0.9010
19.5490 24.6754 -1.7460 0.8815
19.3969 26.3761 -1.8159 0.8771
18.4327 27.0481 -1.8154 0.8771
17.4449 27.6845 -1.8149 0.8771
11.0678 19.0475 -1.2218 0.9155
9.4397 23.4456 -1.4018 0.9037
4.4161 13.7411 -0.8005 0.9438
3.2723 11.5956 -0.6683 0.9529
1.9842 11.7467 -0.6607 0.9534
1.5533 11.7501 -0.6574 0.9536
0.7019 11.7567 -0.6532 0.9539
0.2789 11.7541 -0.6521 0.9540
-0.1436 11.7893 -0.6539 0.9539
-0.9931 11.7960 -0.6566 0.9537
-1.4215 11.7993 -0.6592 0.9535
-1.8515 11.7877 -0.6618 0.9533
-2.2852 11.7742 -0.6652 0.9531
-3.1783 11.7812 -0.6768 0.9523
-3.6379 11.7848 -0.6841 0.9518
-4.1080 11.7885 -0.6924 0.9512
-5.0867 11.7962 -0.7125 0.9498
-5.5990 11.8002 -0.7244 0.9490
-2.4003 4.6225 -0.2889 0.9793
-7.1775 11.6873 -0.7607 0.9465
-9.2110 13.8573 -0.9229 0.9355
-18.8604 26.2766 -1.7940 0.8785
-20.6834 24.8394 -1.7928 0.8785
-21.5548 24.0732 -1.7922 0.8786
-23.2120 22.4508 -1.7911 0.8786
-20.2357 15.7380 -1.4218 0.9024
-25.0595 16.7500 -1.6718 0.8863
-24.4376 15.0942 -1.5931 0.8913
-26.8756 15.2954 -1.7151 0.8835
-26.8879 14.0494 -1.6826 0.8856
-26.8994 12.8480 -1.6534 0.8874
-27.9379 9.8162 -1.6424 0.8881
-31.0554 8.4637 -1.7853 0.8790
-31.7722 5.0740 -1.7845 0.8791
-31.9303 3.9298 -1.7843 0.8791
-32.1595 0.4743 -1.7839 0.8791
-32.1071 -1.8341 -1.7837 0.8791
-31.7220 -5.2748 -1.7836 0.8791
-31.5125 -6.4101 -1.7836 0.8791
-31.2627 -7.5373 -1.7836 0.8791
-29.8685 -11.9367 -1.7840 0.8791
-29.4233 -13.0023 -1.7842 0.8791
-28.9405 -14.0515 -1.7844 0.8791
-24.3924 -16.5313 -1.6343 0.8887
-23.1512 -18.2449 -1.6349 0.8886
-22.4856 -19.0678 -1.6352 0.8886
-21.7909 -19.8665 -1.6355 0.8886
-19.8752 -22.4857 -1.6645 0.8867
-18.2572 -23.9147 -1.6688 0.8864
-3.6444 -6.5396 -0.4152 0.9705
-3.4752 -6.7989 -0.4235 0.9699
-3.4265 -7.3427 -0.4494 0.9681
-2.9374 -9.7366 -0.5641 0.9601
-1.8267 -9.7454 -0.5499 0.9611
-1.4662 -9.7414 -0.5464 0.9613
-1.1112 -9.7503 -0.5443 0.9614
-0.7532 -9.6894 -0.6877 0.9618
-0.4034 -9.6748 -0.6852 0.9619
0.6221 -20.6397 -1.4612 0.9205
1.3620 -20.5947 -1.4605 0.9206
2.0773 -20.3065 -1.4444 0.9214
3.5301 -20.1126 -1.4450 0.9214
3.4766 -16.3390 -1.1821 0.9352
5.8482 -15.8602 -1.1962 0.9345
6.6140 -16.1283 -1.2335 0.9325
9.3384 -20.6293 -1.6024 0.9132
11.8783 -20.1440 -1.6548 0.9105
12.5972 -19.7100 -1.6552 0.9105
13.3002 -19.2503 -1.6557 0.9104
11.2592 -15.1066 -1.3332 0.9272
8.8340 -11.0050 -0.9986 0.9450
8.8449 -9.5285 -0.9200 0.9492
9.3761 -9.4001 -0.9395 0.9482
10.0816 -9.4066 -0.9757 0.9462
10.9271 -9.4851 -1.0239 0.9436
13.5915 -9.4421 -1.1711 0.9358
11.0051 -7.0734 -0.9257 0.9489
11.0865 -6.5758 -0.9121 0.9496
11.4987 -6.2735 -0.9269 0.9488
12.4567 -6.2268 -0.9855 0.9457
13.6684 -6.2297 -1.0629 0.9415
24.0457 -8.9367 -1.8152 0.9022
24.3544 -8.0689 -1.8155 0.9022
24.8770 -6.3024 -1.8160 0.9022
25.0901 -5.4060 -1.8162 0.9022
25.2706 -4.5023 -1.8164 0.9022
25.4183 -3.5927 -1.8165 0.9022
25.5331 -2.6781 -1.8167 0.9022
25.6077 1.9245 -1.8172 0.9021
25.5226 2.8425 -1.8172 0.9021
25.0691 5.5699 -1.8172 0.9021
24.8525 6.4660 -1.8172 0.9021
24.6036 7.3537 -1.8171 0.9022
24.0103 9.0991 -1.8169 0.9022
19.8596 16.2371 -1.8152 0.9022
18.6376 17.6146 -1.8146 0.9023
17.9903 18.2692 -1.8143 0.9023
10.2036 11.1345 -1.0687 0.9412
16.6270 19.5057 -1.8137 0.9023
15.9130 20.0860 -1.8133 0.9023
10.7870 17.1186 -1.4318 0.9221
11.7757 20.2658 -1.6586 0.9103
10.8233 20.2684 -1.6259 0.9120
10.2865 21.0485 -1.6578 0.9103
4.4161 13.7411 -1.0213 0.9438
3.2723 11.5956 -0.8526 0.9528
2.8623 11.7398 -0.8551 0.9527
1.9842 11.7466 -0.8430 0.9534
0.7019 11.7567 -0.8334 0.9539
-0.5594 11.6256 -0.8236 0.9544
-0.9790 11.6289 -0.8258 0.9543
-2.2589 11.6390 -0.8390 0.9536
-3.5961 11.6494 -0.8627 0.9523
-4.0608 11.6531 -0.8732 0.9517
-4.5376 11.6568 -0.8852 0.9511
-5.5347 11.6646 -0.9136 0.9495
-2.3987 4.6194 -0.3683 0.9793
-6.6037 11.6730 -0.9490 0.9476
-7.1714 11.6775 -0.9697 0.9465
-14.8579 17.8434 -1.6431 0.9111
-16.0918 16.7231 -1.6422 0.9111
-18.8347 16.9516 -1.7931 0.9034
-19.4267 16.2609 -1.7927 0.9034
-19.9935 15.5497 -1.7923 0.9034
-20.5344 14.8188 -1.7919 0.9034
-21.0488 14.0693 -1.7915 0.9035
-21.5361 13.3020 -1.7912 0.9035
-23.2018 10.0757 -1.7899 0.9035
-23.5449 9.2349 -1.7897 0.9036
-23.8577 8.3826 -1.7894 0.9036
-24.1400 7.5197 -1.7892 0.9036
-24.3913 6.6475 -1.7889 0.9036
-24.9565 3.9856 -1.7883 0.9036
-25.0813 3.0869 -1.7882 0.9036
-25.2344 1.2792 -1.7879 0.9036
-25.2627 0.3726 -1.7878 0.9036
-25.2586 -0.5345 -1.7877 0.9037
-25.1536 -2.3452 -1.7876 0.9037
-24.9200 -4.1437 -1.7876 0.9037
-24.7553 -5.0356 -1.7876 0.9037
-24.5590 -5.9211 -1.7876 0.9037
-24.3313 -6.7990 -1.7877 0.9037
-24.0724 -7.6683 -1.7878 0.9037
-23.4627 -9.3766 -1.7879 0.9036
-23.1125 -10.2135 -1.7881 0.9036
-22.7328 -11.0374 -1.7882 0.9036
-21.8864 -12.6424 -1.7885 0.9036
-21.4208 -13.4213 -1.7887 0.9036
-20.9277 -14.1832 -1.7889 0.9036
-20.0764 -14.6849 -1.7601 0.9051
-18.6546 -14.7012 -1.6807 0.9092
-16.5439 -16.2079 -1.6389 0.9113
-15.3438 -17.3592 -1.6394 0.9113
-14.7136 -17.9022 -1.6398 0.9113
-14.0642 -18.4224 -1.6401 0.9112
-4.5342 -6.4035 -0.5552 0.9690
-3.1101 -6.6646 -0.5204 0.9709
-2.9455 -6.9530 -0.5343 0.9702
-3.6967 -9.6796 -0.7332 0.9593
-3.3082 -9.6929 -0.7247 0.9598
-2.9250 -9.6957 -0.7166 0.9602
-2.5461 -9.6840 -0.7085 0.9606
-1.1026 -9.6744 -0.6890 0.9617
-0.7485 -9.6286 -0.8315 0.9620
-0.4028 -9.6605 -0.8324 0.9619
-0.0601 -10.4167 -0.8968 0.9590
0.5769 -19.1381 -1.6484 0.9260
1.2638 -19.1096 -1.6488 0.9260
1.9494 -19.0566 -1.6492 0.9260
2.6328 -18.9789 -1.6496 0.9260
3.3132 -18.8767 -1.6500 0.9259
3.4765 -16.3383 -1.4381 0.9351
5.9866 -18.2258 -1.6516 0.9259
6.6385 -18.0035 -1.6520 0.9259
6.7174 -16.3803 -1.5242 0.9314
7.9169 -17.4891 -1.6528 0.9258
10.9249 -15.8124 -1.6547 0.9257
9.3811 -9.4052 -1.1437 0.9481
10.0861 -9.4108 -1.1876 0.9461
11.0294 -7.6621 -1.1562 0.9475
12.4215 -6.2091 -1.1956 0.9458
13.6260 -6.2103 -1.2892 0.9417
19.7385 -7.3359 -1.8129 0.9189
20.8626 -2.9488 -1.8140 0.9189
20.9564 -2.1981 -1.8141 0.9189
21.0231 -1.4445 -1.8142 0.9189
21.0746 0.0675 -1.8144 0.9189
21.0593 0.8240 -1.8144 0.9189
20.9468 2.3329 -1.8145 0.9189
20.8497 3.0834 -1.8145 0.9189
20.7256 3.8298 -1.8145 0.9189
20.3969 5.3068 -1.8145 0.9189
19.9624 6.7561 -1.8144 0.9189
19.7061 7.4680 -1.8143 0.9189
19.4243 8.1701 -1.8142 0.9189
18.7857 9.5414 -1.8140 0.9189
18.4296 10.2088 -1.8138 0.9189
18.0497 10.8629 -1.8137 0.9189
17.6465 11.5027 -1.8135 0.9189
17.2205 12.1275 -1.8133 0.9189
16.7722 12.7364 -1.8131 0.9189
15.8113 13.9036 -1.8127 0.9189
15.3000 14.4602 -1.8124 0.9190
14.7690 14.9980 -1.8122 0.9190
10.6052 12.4413 -1.4074 0.9365
9.8156 12.3896 -1.3608 0.9385
9.7830 13.3030 -1.4217 0.9359
9.6697 16.6414 -1.6570 0.9256
7.1827 17.8398 -1.6557 0.9257
4.4161 13.7411 -1.2426 0.9437
3.2723 11.5956 -1.0373 0.9528
2.8623 11.7397 -1.0403 0.9526
2.4202 11.7432 -1.0323 0.9530
1.1262 11.7534 -1.0165 0.9537
0.7019 11.7567 -1.0140 0.9538
0.2757 11.6191 -1.0006 0.9544
-0.1416 11.6223 -1.0007 0.9544
-0.9790 11.6289 -1.0047 0.9542
-1.4013 11.6322 -1.0087 0.9541
-1.8276 11.6355 -1.0140 0.9538
-4.0608 11.6531 -1.0624 0.9517
-5.5347 11.6646 -1.1116 0.9495
-6.6037 11.6730 -1.1546 0.9476
-11.1414 15.5223 -1.6450 0.9262
-12.7374 14.2257 -1.6439 0.9262
-13.2372 13.7565 -1.6436 0.9262
-14.1846 12.7664 -1.6430 0.9262
-14.6310 12.2467 -1.6427 0.9263
-15.0585 11.7115 -1.6424 0.9263
-15.8544 10.5973 -1.6418 0.9263
-17.7204 10.9453 -1.7932 0.9198
-18.0991 10.3005 -1.7929 0.9198
-18.4545 9.6428 -1.7926 0.9198
-19.0935 8.2916 -1.7921 0.9198
-19.3763 7.5999 -1.7919 0.9198
-19.6343 6.8986 -1.7917 0.9198
-19.8671 6.1887 -1.7915 0.9199
-20.0743 5.4710 -1.7913 0.9199
-20.2558 4.7464 -1.7911 0.9199
-20.6437 2.5407 -1.7907 0.9199
-20.7202 1.7979 -1.7906 0.9199
-20.7703 1.0529 -1.7905 0.9199
-20.7937 0.3067 -1.7904 0.9199
-20.7043 -1.9303 -1.7902 0.9199
-20.2149 -4.8737 -1.7902 0.9199
-20.0274 -5.5963 -1.7903 0.9199
-19.5756 -7.0193 -1.7904 0.9199
-19.3119 -7.7178 -1.7905 0.9199
-19.0235 -8.4065 -1.7906 0.9199
-18.0134 -10.4052 -1.7910 0.9199
-17.6299 -11.0461 -1.7911 0.9199
-17.2237 -11.6729 -1.7913 0.9199
-16.3454 -12.8814 -1.7917 0.9198
-15.8743 -13.4614 -1.7919 0.9198
-13.9596 -14.6946 -1.7450 0.9218
-12.1067 -14.7304 -1.6415 0.9263
-4.4674 -6.3091 -0.6655 0.9694
-4.1373 -6.3116 -0.6497 0.9702
-3.2708 -6.3990 -0.6187 0.9716
-3.0126 -6.4557 -0.6133 0.9718
-2.8136 -6.6415 -0.6210 0.9715
-2.6387 -6.9094 -0.6368 0.9707
-2.1752 -9.6729 -0.8536 0.9610
-1.0955 -9.6119 -0.8329 0.9619
0.4895 -16.2410 -1.6486 0.9368
1.0724 -16.2163 -1.6490 0.9367
1.6542 -16.1707 -1.6493 0.9367
2.2340 -16.1041 -1.6496 0.9367
3.3851 -15.9089 -1.6503 0.9367
3.9548 -15.7804 -1.6507 0.9367
4.5196 -15.6314 -1.6510 0.9367
5.0788 -15.4623 -1.6513 0.9367
5.6318 -15.2731 -1.6517 0.9366
6.1776 -15.0642 -1.6520 0.9366
7.3173 -14.7328 -1.6691 0.9360
7.9864 -14.7278 -1.6999 0.9349
9.4054 -14.7161 -1.7721 0.9322
10.0892 -14.6029 -1.8009 0.9311
9.2591 -11.5346 -1.5008 0.9423
9.8133 -11.3640 -1.5235 0.9414
10.0857 -9.4104 -1.3996 0.9461
10.9465 -7.6046 -1.3524 0.9478
10.9180 -6.4758 -1.2880 0.9502
11.3481 -6.1914 -1.3117 0.9494
12.3868 -6.1918 -1.4051 0.9458
16.4975 -6.8149 -1.8111 0.9307
16.9474 -5.6149 -1.8115 0.9307
17.4573 -3.7614 -1.8119 0.9307
17.6847 -2.4996 -1.8122 0.9307
17.8204 -1.2245 -1.8124 0.9307
17.8536 -0.5840 -1.8125 0.9307
17.8145 1.3388 -1.8126 0.9307
17.7552 1.9775 -1.8127 0.9307
17.6729 2.6136 -1.8127 0.9307
17.2892 4.4982 -1.8126 0.9307
17.1161 5.1158 -1.8126 0.9307
16.4652 6.9254 -1.8124 0.9307
15.9241 8.0880 -1.8122 0.9307
15.6225 8.6538 -1.8121 0.9307
15.3006 9.2084 -1.8119 0.9307
14.9591 9.7509 -1.8118 0.9307
14.5981 10.2807 -1.8116 0.9307
14.2184 10.7971 -1.8115 0.9307
13.4043 11.7870 -1.8111 0.9307
11.8743 11.2225 -1.6578 0.9364
11.0358 12.0426 -1.6574 0.9364
10.5450 12.3706 -1.6493 0.9367
9.7737 12.3368 -1.5970 0.9387
8.7020 13.8098 -1.6562 0.9365
7.1635 14.6582 -1.6554 0.9365
5.1765 11.6332 -1.2919 0.9501
6.0913 15.1291 -1.6548 0.9365
3.2723 11.5955 -1.2225 0.9527
2.8623 11.7397 -1.2261 0.9526
1.9842 11.7466 -1.2087 0.9532
1.5533 11.7500 -1.2026 0.9535
1.1262 11.7533 -1.1980 0.9536
-0.1416 11.6223 -1.1793 0.9543
-0.5594 11.6256 -1.1809 0.9543
-1.4013 11.6322 -1.1888 0.9540
-1.8276 11.6355 -1.1951 0.9537
-2.2589 11.6389 -1.2030 0.9535
-2.6966 11.6424 -1.2126 0.9531
-4.5376 11.6568 -1.2692 0.9510
-5.0282 11.6606 -1.2885 0.9502
-2.3954 4.6132 -0.5274 0.9793
-7.1714 11.6774 -1.3904 0.9464
-8.5098 12.8023 -1.5598 0.9401
-8.9621 12.4862 -1.5595 0.9401
-9.4029 12.1543 -1.5592 0.9401
-10.3750 12.4597 -1.6451 0.9369
-11.6484 11.2664 -1.6443 0.9369
-12.7860 9.9441 -1.6435 0.9370
-13.4626 8.9985 -1.6430 0.9370
-13.7750 8.5083 -1.6428 0.9370
-14.3463 7.4962 -1.6424 0.9370
-16.2148 7.0415 -1.7937 0.9314
-16.4553 6.4542 -1.7935 0.9314
-16.6747 5.8587 -1.7933 0.9314
-17.2033 4.0311 -1.7928 0.9314
-17.3356 3.4108 -1.7927 0.9314
-17.4457 2.7861 -1.7925 0.9314
-17.5334 2.1579 -1.7924 0.9314
-17.6612 0.2605 -1.7922 0.9314
-17.6586 -0.3737 -1.7921 0.9314
-17.5152 -2.2697 -1.7920 0.9315
-16.4026 -6.5551 -1.7923 0.9314
-15.8916 -7.7158 -1.7924 0.9314
-15.6054 -8.2818 -1.7926 0.9314
-14.2639 -10.4333 -1.7931 0.9314
-13.8815 -10.9397 -1.7933 0.9314
-12.6291 -12.3726 -1.7939 0.9314
-6.1427 -6.4661 -0.9049 0.9648
-5.5694 -6.3009 -0.8533 0.9668
-5.1325 -6.2447 -0.8202 0.9680
-4.0861 -6.2336 -0.7563 0.9705
-2.1445 -7.1085 -0.7534 0.9706
-1.8060 -9.6349 -0.9946 0.9614
-1.4467 -9.6121 -0.9863 0.9617
-0.7529 -9.6851 -1.1354 0.9616
-0.4002 -9.5978 -1.1228 0.9621
-0.0849 -14.7150 -1.7200 0.9425
0.9732 -14.7155 -1.7238 0.9423
1.5053 -14.7151 -1.7289 0.9422
2.0412 -14.7144 -1.7363 0.9419
2.5825 -14.7132 -1.7460 0.9416
4.2524 -14.7070 -1.7894 0.9402
5.3298 -14.4541 -1.8006 0.9398
5.8559 -14.2795 -1.8039 0.9397
6.8690 -13.8302 -1.8049 0.9397
9.2358 -12.3917 -1.8064 0.9397
9.6761 -12.0540 -1.8067 0.9396
9.8046 -11.3538 -1.7534 0.9414
11.6816 -10.1400 -1.8080 0.9396
12.0397 -9.7155 -1.8083 0.9396
11.0070 -7.6466 -1.5665 0.9475
10.8518 -6.9749 -1.5078 0.9494
10.9054 -6.4683 -1.4820 0.9502
11.3523 -6.1937 -1.5115 0.9493
13.9347 -6.3510 -1.7899 0.9402
14.7019 -4.8709 -1.8103 0.9395
14.8685 -4.3404 -1.8104 0.9395
15.2520 -2.7174 -1.8108 0.9395
15.3406 -2.1683 -1.8109 0.9395
15.4093 -1.6162 -1.8110 0.9395
15.4581 -1.0621 -1.8111 0.9395
15.4869 -0.5066 -1.8111 0.9395
15.4842 0.6059 -1.8112 0.9395
15.4528 1.1613 -1.8113 0.9395
15.4013 1.7153 -1.8113 0.9395
15.2387 2.8159 -1.8113 0.9395
15.1276 3.3611 -1.8113 0.9395
14.9971 3.9019 -1.8113 0.9395
14.6778 4.9676 -1.8112 0.9395
14.4896 5.4911 -1.8111 0.9395
14.2825 6.0074 -1.8111 0.9395
14.0571 6.5159 -1.8110 0.9395
13.8134 7.0160 -1.8109 0.9395
12.9767 8.4587 -1.8105 0.9395
12.6637 8.9184 -1.8104 0.9395
12.3344 9.3665 -1.8103 0.9395
10.6452 9.3608 -1.6569 0.9445
10.3013 9.7359 -1.6567 0.9445
9.5743 10.4477 -1.6564 0.9445
8.3927 11.4124 -1.6558 0.9445
7.9766 11.7048 -1.6556 0.9446
7.5503 11.9820 -1.6554 0.9446
7.1143 12.2437 -1.6551 0.9446
6.6693 12.4894 -1.6549 0.9446
5.1764 11.6331 -1.4882 0.9500
5.0087 12.4402 -1.5675 0.9474
4.5582 12.6101 -1.5672 0.9474
0.2757 11.6190 -1.3585 0.9543
-2.2589 11.6389 -1.3858 0.9534
-3.1418 11.6458 -1.4099 0.9526
-3.5961 11.6494 -1.4250 0.9521
-4.5376 11.6568 -1.4621 0.9509
-5.0282 11.6606 -1.4842 0.9501
-5.5347 11.6646 -1.5091 0.9493
-2.3938 4.6101 -0.6072 0.9793
-8.2129 11.4423 -1.6463 0.9449
-8.6169 11.1383 -1.6460 0.9449
-10.4595 9.4138 -1.6448 0.9449
-10.7892 9.0310 -1.6446 0.9449
-11.1050 8.6367 -1.6443 0.9449
-11.4064 8.2315 -1.6441 0.9449
-12.2208 6.9551 -1.6435 0.9449
-12.4612 6.5112 -1.6434 0.9450
-12.6856 6.0591 -1.6432 0.9450
-14.4845 5.0892 -1.7945 0.9400
-14.6567 4.5656 -1.7943 0.9400
-14.8100 4.0363 -1.7942 0.9401
-14.9443 3.5018 -1.7940 0.9401
-15.0594 2.9629 -1.7939 0.9401
-15.2314 1.8746 -1.7937 0.9401
-15.2882 1.3266 -1.7936 0.9401
-15.3406 -0.3246 -1.7935 0.9401
-15.2161 -1.9718 -1.7934 0.9401
-15.0354 -3.0584 -1.7934 0.9401
-14.6202 -4.6573 -1.7935 0.9401
-14.2493 -5.6946 -1.7936 0.9401
-14.0362 -6.2027 -1.7936 0.9401
-13.5564 -7.1945 -1.7938 0.9401
-13.0069 -8.1496 -1.7941 0.9401
-12.3905 -9.0631 -1.7943 0.9400
-11.7104 -9.9304 -1.7946 0.9400
-11.3474 -10.3453 -1.7948 0.9400
-10.9699 -10.7471 -1.7950 0.9400
-5.4571 -6.1739 -0.9631 0.9674
-4.6881 -6.1408 -0.9030 0.9694
-4.3549 -6.1501 -0.8808 0.9701
-4.0418 -6.1660 -0.8617 0.9707
-3.7463 -6.1889 -0.8456 0.9713
-3.4635 -6.2148 -0.8316 0.9718
-2.6768 -6.3187 -0.8021 0.9727
-2.2186 -6.5003 -0.8028 0.9727
-1.8020 -9.6135 -1.1432 0.9614
-1.4428 -9.5861 -1.1331 0.9617
-0.7436 -9.5664 -1.2700 0.9620
-0.4003 -9.6009 -1.2718 0.9620
-0.0785 -13.6065 -1.8010 0.9466
0.4100 -13.6027 -1.8012 0.9466
0.8982 -13.5813 -1.8015 0.9466
4.2522 -12.9455 -1.8035 0.9465
4.7149 -12.7866 -1.8038 0.9465
5.6218 -12.4191 -1.8043 0.9465
6.9275 -11.7481 -1.8051 0.9465
8.1538 -10.9400 -1.8059 0.9464
8.5424 -10.6418 -1.8062 0.9464
8.9201 -10.3296 -1.8064 0.9464
9.6408 -9.6656 -1.8069 0.9464
9.9828 -9.3145 -1.8071 0.9464
10.3121 -8.9513 -1.8074 0.9464
10.6280 -8.5763 -1.8076 0.9464
11.2185 -7.7935 -1.8080 0.9464
11.4922 -7.3866 -1.8082 0.9464
11.7512 -6.9700 -1.8084 0.9464
12.4360 -5.6679 -1.8089 0.9463
12.6325 -5.2183 -1.8090 0.9463
12.9764 -4.2992 -1.8093 0.9463
13.2532 -3.3576 -1.8096 0.9463
13.4615 -2.3984 -1.8098 0.9463
13.5396 -1.9137 -1.8099 0.9463
13.6002 -1.4265 -1.8100 0.9463
13.6431 -0.9374 -1.8100 0.9463
13.6685 -0.4471 -1.8101 0.9463
13.6383 1.0250 -1.8102 0.9463
13.5928 1.5139 -1.8102 0.9463
13.4492 2.4852 -1.8102 0.9463
13.3513 2.9664 -1.8102 0.9463
13.2360 3.4437 -1.8102 0.9463
12.7883 4.8463 -1.8101 0.9463
12.1917 6.1923 -1.8099 0.9463
11.4534 7.4658 -1.8096 0.9463
9.6874 7.9204 -1.6562 0.9508
8.7775 8.9136 -1.6558 0.9508
8.1137 9.5185 -1.6554 0.9508
6.2803 10.8082 -1.6545 0.9508
5.4873 11.2282 -1.6541 0.9508
4.6642 11.5846 -1.6529 0.9509
2.3911 11.6024 -1.5679 0.9533
1.5491 11.7180 -1.5645 0.9534
0.2757 11.6190 -1.5383 0.9542
-0.1416 11.6223 -1.5384 0.9542
-2.2589 11.6389 -1.5692 0.9533
-2.6966 11.6423 -1.5817 0.9529
-4.9307 11.4344 -1.6481 0.9510
-6.1285 10.8332 -1.6474 0.9510
-7.6116 9.8389 -1.6465 0.9510
-7.9588 9.5580 -1.6462 0.9511
-8.6218 8.9600 -1.6458 0.9511
-8.9367 8.6436 -1.6456 0.9511
-9.8106 7.6300 -1.6450 0.9511
-10.7969 6.1447 -1.6443 0.9511
-11.3918 4.9470 -1.6438 0.9511
-12.9499 4.0339 -1.7952 0.9467
-13.0854 3.5662 -1.7951 0.9467
-13.2042 3.0940 -1.7950 0.9467
-13.3060 2.6179 -1.7949 0.9468
-13.4582 1.6564 -1.7947 0.9468
-13.5084 1.1721 -1.7947 0.9468
-13.5412 0.6865 -1.7946 0.9468
-13.5568 0.1999 -1.7945 0.9468
-13.5549 -0.2868 -1.7945 0.9468
-13.5356 -0.7732 -1.7945 0.9468
-13.4449 -1.7423 -1.7944 0.9468
-13.2853 -2.7024 -1.7944 0.9468
-13.1798 -3.1776 -1.7944 0.9468
-12.9183 -4.1151 -1.7945 0.9468
-12.5905 -5.0317 -1.7946 0.9468
-12.1980 -5.9225 -1.7947 0.9468
-11.9781 -6.3568 -1.7948 0.9468
-11.4924 -7.2006 -1.7950 0.9467
-11.2272 -7.6090 -1.7951 0.9467
-10.6539 -8.3961 -1.7954 0.9467
-6.3313 -6.2028 -1.1731 0.9649
-5.8464 -6.1543 -1.1235 0.9663
-5.4307 -6.1440 -1.0853 0.9675
-5.0377 -6.1294 -1.0501 0.9685
-4.6684 -6.1150 -1.0183 0.9694
-4.3288 -6.1134 -0.9915 0.9702
-3.7079 -6.1255 -0.9477 0.9715
-3.4251 -6.1459 -0.9313 0.9720
-2.8880 -6.1888 -0.9039 0.9728
-2.6523 -6.2608 -0.9000 0.9729
-2.2060 -6.4635 -0.9039 0.9728
-2.5272 -9.6124 -1.3155 0.9607
-1.4400 -9.5679 -1.2806 0.9617
2.1068 -12.0034 -1.8024 0.9519
2.5367 -11.9217 -1.8026 0.9519
2.9634 -11.8246 -1.8029 0.9519
3.3864 -11.7123 -1.8031 0.9519
4.2192 -11.4423 -1.8036 0.9519
5.0307 -11.1132 -1.8041 0.9519
6.5729 -10.2843 -1.8051 0.9518
6.9387 -10.0430 -1.8053 0.9518
9.7789 -7.3275 -1.8072 0.9518
10.0366 -6.9725 -1.8074 0.9518
10.2814 -6.6083 -1.8076 0.9518
11.1253 -5.0706 -1.8082 0.9518
11.4621 -4.2599 -1.8085 0.9518
11.6084 -3.8460 -1.8086 0.9518
11.8559 -3.0036 -1.8088 0.9517
12.1119 -1.7119 -1.8091 0.9517
12.1660 -1.2761 -1.8091 0.9517
12.2270 -0.4000 -1.8093 0.9517
12.2338 0.0392 -1.8093 0.9517
12.1592 1.3542 -1.8094 0.9517
12.1029 1.7898 -1.8094 0.9517
12.0308 2.2231 -1.8094 0.9517
11.7217 3.5035 -1.8093 0.9517
11.4396 4.3352 -1.8093 0.9517
11.2763 4.7429 -1.8092 0.9517
10.2402 6.6750 -1.8078 0.9518
8.9156 6.7703 -1.6556 0.9557
8.6662 7.0855 -1.6555 0.9557
8.4057 7.3914 -1.6554 0.9557
7.5605 8.2502 -1.6550 0.9558
7.2588 8.5156 -1.6549 0.9558
5.2675 9.8643 -1.6538 0.9558
4.5452 10.2145 -1.6535 0.9558
3.4195 10.6400 -1.6529 0.9558
3.0350 10.7545 -1.6526 0.9558
1.8605 11.0142 -1.6520 0.9558
1.4637 11.0724 -1.6518 0.9558
0.6654 11.1458 -1.6513 0.9559
0.2648 11.1609 -1.6511 0.9559
-1.3346 11.0777 -1.6502 0.9559
-1.7311 11.0211 -1.6499 0.9559
-3.2888 10.6539 -1.6490 0.9559
-3.6686 10.5275 -1.6488 0.9559
-4.7771 10.0680 -1.6481 0.9559
-2.3907 4.6041 -0.7672 0.9792
-5.8294 9.4923 -1.6474 0.9560
-6.1656 9.2757 -1.6472 0.9560
-7.1244 8.5559 -1.6466 0.9560
-7.7180 8.0208 -1.6462 0.9560
-8.5327 7.1422 -1.6457 0.9560
-8.7827 6.8306 -1.6455 0.9560
-9.0213 6.5103 -1.6453 0.9560
-9.6662 5.5012 -1.6449 0.9560
-10.5156 4.5665 -1.6955 0.9547
-11.2975 4.4312 -1.7948 0.9521
-11.5942 3.6116 -1.7960 0.9521
-11.7157 3.1930 -1.7959 0.9521
-11.8221 2.7702 -1.7958 0.9521
-11.9133 2.3439 -1.7957 0.9521
-12.0497 1.4830 -1.7955 0.9521
-12.0947 1.0495 -1.7954 0.9521
-12.1242 0.6146 -1.7954 0.9521
-12.0864 -1.1269 -1.7952 0.9521
-12.0380 -1.5600 -1.7952 0.9521
-11.8951 -2.4196 -1.7952 0.9521
-11.8007 -2.8451 -1.7952 0.9521
-11.5665 -3.6845 -1.7953 0.9521
-11.4270 -4.0974 -1.7953 0.9521
-11.1043 -4.9070 -1.7955 0.9521
-10.9214 -5.3026 -1.7955 0.9521
-10.7245 -5.6915 -1.7956 0.9521
-10.5137 -6.0731 -1.7957 0.9521
-10.0520 -6.8125 -1.7959 0.9521
-9.8016 -7.1694 -1.7960 0.9521
-5.4084 -6.1188 -1.2078 0.9675
-4.6582 -6.1017 -1.1353 0.9694
-4.3159 -6.0951 -1.1045 0.9703
-2.8638 -6.1370 -1.0016 0.9730
-2.6281 -6.2037 -0.9964 0.9731
-2.3953 -6.2720 -0.9929 0.9732
-2.0567 -6.8174 -1.0531 0.9716
-2.5152 -9.5666 -1.4629 0.9608
-1.4392 -9.5624 -1.4301 0.9617
-0.7436 -9.5664 -1.5688 0.9619
-0.4589 -11.0056 -1.8010 0.9563
0.3320 -11.0129 -1.8014 0.9563
1.1215 -10.9635 -1.8019 0.9563
1.5145 -10.9176 -1.8021 0.9563
1.9057 -10.8576 -1.8024 0.9563
2.2945 -10.7835 -1.8026 0.9563
2.6805 -10.6956 -1.8028 0.9563
3.0631 -10.5938 -1.8030 0.9563
3.4418 -10.4784 -1.8033 0.9563
4.1858 -10.2070 -1.8037 0.9563
5.2607 -9.7014 -1.8044 0.9563
6.2754 -9.0829 -1.8050 0.9562
6.5982 -8.8528 -1.8052 0.9562
7.5141 -8.0948 -1.8058 0.9562
7.8007 -7.8207 -1.8060 0.9562
8.0772 -7.5364 -1.8062 0.9562
8.5988 -6.9389 -1.8066 0.9562
8.8431 -6.6264 -1.8067 0.9562
9.0762 -6.3052 -1.8069 0.9562
9.5068 -5.6388 -1.8072 0.9562
9.7038 -5.2943 -1.8074 0.9562
10.0602 -4.5851 -1.8076 0.9562
10.6155 -3.0989 -1.8081 0.9562
10.7205 -2.7160 -1.8082 0.9562
11.0007 -1.1539 -1.8085 0.9562
11.0619 0.0354 -1.8086 0.9562
10.7991 2.3993 -1.8087 0.9562
10.7059 2.7854 -1.8087 0.9562
10.4781 3.5462 -1.8086 0.9562
10.3439 3.9200 -1.8086 0.9562
10.1962 4.2886 -1.8085 0.9562
10.0354 4.6517 -1.8085 0.9562
9.6750 5.3593 -1.8083 0.9562
9.2387 6.0222 -1.8031 0.9563
8.2769 5.8290 -1.6552 0.9598
7.6009 6.6838 -1.6549 0.9598
7.1008 7.2109 -1.6546 0.9598
6.8368 7.4605 -1.6545 0.9598
6.5641 7.7005 -1.6544 0.9598
6.2829 7.9305 -1.6542 0.9598
5.6967 8.3594 -1.6539 0.9598
4.7636 8.9207 -1.6535 0.9598
4.4399 9.0850 -1.6533 0.9598
4.1105 9.2376 -1.6531 0.9598
3.4364 9.5066 -1.6528 0.9599
3.0925 9.6227 -1.6526 0.9599
2.3937 9.8175 -1.6522 0.9599
1.6827 9.9616 -1.6518 0.9599
0.6018 10.0810 -1.6512 0.9599
0.2395 10.0949 -1.6510 0.9599
-0.1230 10.0957 -1.6508 0.9599
-1.2071 10.0202 -1.6501 0.9599
-2.2765 9.8286 -1.6495 0.9599
-2.9750 9.6375 -1.6491 0.9599
-3.3186 9.5233 -1.6489 0.9599
-3.6579 9.3968 -1.6487 0.9600
-2.3905 4.6037 -0.8481 0.9792
-4.9627 8.7722 -1.6479 0.9600
-5.2737 8.5874 -1.6477 0.9600
-5.5779 8.3916 -1.6475 0.9600
-5.8749 8.1850 -1.6473 0.9600
-6.1642 7.9679 -1.6471 0.9600
-6.4456 7.7407 -1.6469 0.9600
-6.9828 7.2567 -1.6466 0.9600
-7.2381 7.0007 -1.6464 0.9600
-7.4839 6.7357 -1.6462 0.9600
-7.7201 6.4621 -1.6461 0.9600
-7.9464 6.1802 -1.6459 0.9600
-8.1623 5.8904 -1.6458 0.9600
-8.7460 4.9775 -1.6453 0.9600
-10.2300 4.0124 -1.7967 0.9564
-10.3676 3.6427 -1.7967 0.9564
-10.4910 3.2680 -1.7966 0.9564
-10.6010 2.8891 -1.7965 0.9564
-10.7799 2.1209 -1.7963 0.9564
-10.9820 -0.2324 -1.7960 0.9565
-10.9367 -1.0197 -1.7959 0.9565
-10.7637 -2.1895 -1.7959 0.9565
-10.6782 -2.5745 -1.7959 0.9565
-10.5791 -2.9562 -1.7959 0.9565
-10.4663 -3.3341 -1.7960 0.9565
-10.3401 -3.7077 -1.7960 0.9565
-10.2006 -4.0766 -1.7961 0.9565
-10.0479 -4.4402 -1.7961 0.9565
-9.8824 -4.7982 -1.7962 0.9565
-9.0956 -6.1643 -1.7965 0.9564
-8.6309 -6.8018 -1.7967 0.9564
