ply
format ascii 1.0
element vertex 1546
property float32 x
property float32 y
property float32 z
property float32 I
end_header
5.7829 -56.5311 27.2691 0.7772
12.0392 -56.5805 27.7591 0.7736
14.1834 -56.5944 27.9978 0.7719
15.8790 -54.9187 27.4333 0.7760
4.6639 11.5840 5.9924 0.9461
3.2721 11.5950 5.7814 0.9480
2.8346 11.6259 5.7424 0.9483
2.4155 11.7207 5.7426 0.9483
1.5593 11.7951 5.7093 0.9486
1.1306 11.7985 5.6877 0.9488
-0.1416 11.6219 5.5774 0.9497
-0.9790 11.6285 5.5999 0.9495
-1.8569 11.8220 5.7426 0.9483
-2.2811 11.7532 5.7453 0.9483
-3.6165 11.7156 5.8837 0.9471
-4.0839 11.7193 5.9554 0.9464
-5.0282 11.6604 6.0936 0.9452
-5.5346 11.6644 6.1955 0.9443
-6.0590 11.6686 6.3093 0.9433
-7.1478 11.6389 6.5543 0.9412
-3.0329 4.5628 2.6291 0.9760
-9.7404 11.6976 7.3046 0.9347
-35.5198 -30.1208 22.3483 0.8133
-33.7287 -30.7501 21.9022 0.8167
-19.6328 -29.9506 17.1850 0.8531
-16.9825 -30.4731 16.7406 0.8566
-15.6222 -30.5633 16.4713 0.8587
-12.1091 -31.7072 16.2872 0.8602
-11.3207 -33.1690 16.8183 0.8560
-11.8224 -39.1879 19.6422 0.8339
-12.6787 -56.3814 27.7313 0.7738
-8.3103 -55.2148 26.7943 0.7806
-4.3113 -55.4618 25.6594 0.7827
-2.2961 -55.0624 25.4200 0.7845
-0.3218 -55.7521 25.7165 0.7822
1.6604 -55.0861 25.4205 0.7845
3.7115 -56.1215 25.9430 0.7806
9.6294 -54.8625 25.6926 0.7824
15.8790 -54.9187 26.3693 0.7774
3.7851 11.7775 5.7061 0.9470
3.3247 11.7811 5.6464 0.9475
1.9983 11.8303 5.5341 0.9485
1.5593 11.7951 5.4879 0.9489
0.6890 11.5410 5.3329 0.9503
-0.1416 11.6219 5.3611 0.9501
-0.5594 11.6252 5.3684 0.9500
-3.1922 11.8326 5.6530 0.9474
-4.0995 11.7640 5.7463 0.9466
-5.5346 11.6644 5.9553 0.9447
-6.0590 11.6686 6.0646 0.9437
-6.6037 11.6729 6.1861 0.9426
-7.1714 11.6774 6.3209 0.9414
-8.3261 11.6001 6.5863 0.9390
-9.7405 11.6976 7.0213 0.9351
-31.7075 -31.0635 20.4744 0.8224
-29.5261 -31.0807 19.7739 0.8279
-27.4865 -31.0968 19.1437 0.8329
-25.4344 -30.9463 18.4767 0.8382
-23.7627 -31.1262 18.0629 0.8416
-21.2500 -30.0101 16.9613 0.8505
-18.6842 -30.8661 16.6425 0.8531
-14.6089 -31.3056 15.9349 0.8588
-13.2666 -31.3162 15.6876 0.8609
-12.5504 -32.8627 16.2260 0.8565
-11.7163 -34.3280 16.7309 0.8523
-12.6787 -56.3814 26.6558 0.7753
-10.5388 -56.2244 26.3856 0.7773
-8.3060 -55.1865 25.7419 0.7821
-6.3872 -56.0407 26.0166 0.7800
3.7373 -56.5120 25.0842 0.7805
5.7472 -56.1832 25.0138 0.7811
7.6844 -55.3936 24.7690 0.7830
11.9801 -56.3030 25.4953 0.7774
14.0967 -56.2487 25.6834 0.7759
15.8790 -54.9187 25.3202 0.7787
2.8827 11.8233 5.3900 0.9482
2.4374 11.8268 5.3483 0.9485
1.1343 11.8371 5.2667 0.9493
0.6890 11.5410 5.1207 0.9507
-0.9790 11.6285 5.1686 0.9502
-2.3027 11.8642 5.3528 0.9485
-2.7488 11.8677 5.3955 0.9481
-4.1395 11.8787 5.5715 0.9465
-4.5375 11.6566 5.5401 0.9467
-5.0282 11.6604 5.6242 0.9460
-6.0590 11.6686 5.8233 0.9441
-3.0327 4.5624 2.4264 0.9763
-9.7405 11.6976 6.7420 0.9356
-34.0521 -31.0450 20.4090 0.8174
-31.7075 -31.0635 19.6598 0.8235
-24.5926 -29.9222 17.1545 0.8441
-21.7547 -30.7227 16.6732 0.8482
-20.3328 -31.0187 16.4269 0.8502
-15.9961 -31.2947 15.5663 0.8575
-14.6089 -31.3056 15.3009 0.8597
-13.1405 -31.0184 14.9202 0.8630
-11.1812 -37.0625 17.1460 0.8442
-12.6200 -56.1200 25.4766 0.7775
-10.5068 -56.0538 25.2590 0.7792
1.2915 -42.8469 18.2097 0.8300
4.3855 -42.8712 18.3068 0.8292
5.9490 -42.8835 18.3915 0.8285
8.5466 -48.6934 21.0012 0.8067
12.0271 -56.5238 24.5489 0.7779
15.8790 -54.9187 24.2851 0.7800
3.3356 11.8197 5.2171 0.9480
2.8827 11.8233 5.1697 0.9485
1.9983 11.8303 5.0967 0.9492
1.5593 11.7951 5.0542 0.9496
0.2757 11.6186 4.9370 0.9507
-0.5594 11.6252 4.9441 0.9507
-0.9790 11.6285 4.9573 0.9505
-2.3027 11.8642 5.1340 0.9488
-4.5375 11.6566 5.3137 0.9471
-5.0282 11.6605 5.3943 0.9463
-6.1563 11.8559 5.6749 0.9436
-6.6623 11.7765 5.7477 0.9429
-9.0454 11.6921 6.2797 0.9378
-39.3143 -30.9827 21.2636 0.8045
-36.1494 -30.6547 20.1344 0.8138
-34.0521 -31.0450 19.5747 0.8185
-29.5054 -31.0590 18.1983 0.8301
-22.1124 -31.2281 16.2547 0.8468
-20.4905 -31.2592 15.8776 0.8501
-18.9296 -31.2715 15.5285 0.8531
-17.4340 -31.2833 15.2135 0.8559
-13.2560 -31.2910 14.4360 0.8627
-12.3346 -32.2976 14.6866 0.8605
-11.4247 -37.8695 16.8032 0.8421
-6.4396 -42.7858 18.3802 0.8286
-0.2483 -43.0144 17.5041 0.8305
1.2967 -43.0213 17.5146 0.8304
4.3996 -43.0088 17.5929 0.8297
7.5403 -42.9603 17.7491 0.8283
9.1330 -42.9223 17.8574 0.8274
10.7568 -42.9217 18.0062 0.8261
14.1088 -42.9535 18.3978 0.8226
4.1886 11.5877 5.0140 0.9482
3.7975 11.8161 5.0505 0.9478
3.3247 11.7811 4.9813 0.9485
2.8733 11.7847 4.9360 0.9490
1.9984 11.8306 4.8824 0.9495
0.6890 11.5410 4.7048 0.9513
0.2757 11.6186 4.7293 0.9510
-1.8630 11.8611 4.8858 0.9495
-2.7398 11.8290 4.9410 0.9489
-4.1394 11.8787 5.1189 0.9471
-4.5375 11.6566 5.0901 0.9474
-6.1764 11.8948 5.4540 0.9438
-6.7317 11.8992 5.5633 0.9427
-7.2865 11.8649 5.6659 0.9416
-3.0325 4.5621 2.2292 0.9766
-9.0454 11.6921 6.0155 0.9382
-9.7405 11.6976 6.1943 0.9364
-59.4528 61.7851 34.8917 0.6905
-63.6750 61.5868 36.0482 0.6821
-36.1494 -30.6547 19.2873 0.8149
-34.0521 -31.0450 18.7512 0.8196
-26.9209 -30.4570 16.5414 0.8390
-23.8440 -31.2327 15.9899 0.8439
-18.7691 -31.0064 14.7490 0.8551
-17.3808 -31.1879 14.5290 0.8571
-13.3778 -31.5785 13.9558 0.8623
-12.5822 -36.8651 15.8512 0.8452
-8.0311 -42.8462 17.7390 0.8284
-4.8940 -42.9406 17.5869 0.8297
-1.7855 -42.8185 16.6828 0.8320
1.2914 -42.8428 16.6853 0.8320
2.8531 -43.1425 16.8311 0.8306
4.4145 -43.1549 16.8869 0.8301
7.5788 -43.1798 17.0659 0.8285
10.8215 -43.1801 17.3289 0.8261
14.1452 -43.0644 17.6452 0.8232
15.8516 -42.9890 17.8361 0.8215
17.6261 -42.9814 18.0839 0.8192
4.6639 11.5840 4.8612 0.9478
4.1886 11.5877 4.7965 0.9485
3.7976 11.8165 4.8316 0.9481
2.9008 11.8979 4.7673 0.9488
2.4294 11.7882 4.6853 0.9496
1.5742 11.9084 4.6760 0.9497
1.1414 11.9118 4.6582 0.9499
0.6890 11.5411 4.5007 0.9516
-0.1416 11.6219 4.5245 0.9513
-0.9790 11.6285 4.5427 0.9511
-1.4375 11.9321 4.6785 0.9497
-2.3172 11.9391 4.7343 0.9491
-2.7661 11.9426 4.7721 0.9487
-3.2088 11.8939 4.7956 0.9485
-3.6658 11.8753 4.8380 0.9481
-5.5346 11.6645 5.0259 0.9461
-6.1764 11.8948 5.2174 0.9441
-3.0323 4.5619 2.1324 0.9768
-8.5232 11.8746 5.6900 0.9392
-56.7414 63.3709 33.1125 0.6941
-59.4528 61.7851 33.3782 0.6921
-63.6750 61.5868 34.4844 0.6837
-42.4559 -31.0544 20.4764 0.7979
-39.2858 -30.9602 19.4713 0.8068
-32.7226 -29.8328 17.2374 0.8269
-29.0885 -30.6200 16.4408 0.8342
-25.6580 -31.2184 15.7305 0.8408
-9.2148 -12.0703 5.9114 0.9369
-13.3778 -31.5785 13.3504 0.8631
-12.7300 -33.3331 13.8899 0.8580
-12.2897 -36.0082 14.8111 0.8493
-12.1214 -40.1790 16.3371 0.8352
-11.2165 -42.6617 17.1716 0.8275
-8.0705 -43.0563 17.0527 0.8286
-6.4822 -43.0688 16.9546 0.8295
-3.3009 -42.4638 15.8371 0.8338
-0.2452 -42.4879 15.7987 0.8342
1.3000 -43.1303 16.0446 0.8318
2.8114 -42.5121 15.8419 0.8338
5.9883 -43.1673 16.2047 0.8303
7.4508 -42.4503 16.0257 0.8320
9.1583 -43.0415 16.3625 0.8288
14.2021 -43.2376 16.9223 0.8235
15.9484 -43.2514 17.1408 0.8214
17.7238 -43.2196 17.3693 0.8193
23.3316 -43.0264 18.1995 0.8115
10.3752 -12.0146 5.9026 0.9345
4.6639 11.5840 4.6433 0.9481
4.1886 11.5877 4.5816 0.9488
2.9009 11.8979 4.5536 0.9491
2.4294 11.7882 4.4754 0.9499
2.0110 11.9049 4.4894 0.9498
1.5742 11.9084 4.4665 0.9500
1.1414 11.9118 4.4495 0.9502
0.2757 11.6186 4.3214 0.9516
-0.5594 11.6252 4.3276 0.9515
-0.9790 11.6285 4.3392 0.9514
-1.4375 11.9321 4.4688 0.9500
-1.8630 11.8611 4.4644 0.9501
-2.7661 11.9426 4.5582 0.9490
-3.2229 11.9462 4.6008 0.9486
-3.6888 11.9499 4.6503 0.9480
-4.1396 11.8791 4.6775 0.9477
-5.0282 11.6605 4.7217 0.9473
-5.5346 11.6645 4.8007 0.9464
-6.7317 11.8991 5.0835 0.9433
-7.3104 11.9037 5.1942 0.9421
-8.5511 11.9135 5.4528 0.9393
-9.2106 11.9058 5.5971 0.9378
-56.5211 63.1249 31.5059 0.6966
-59.4528 61.7851 31.8825 0.6936
-51.8016 37.3830 23.7534 0.7614
-35.1889 -29.8402 17.1556 0.8213
-23.7566 -31.1183 14.5573 0.8461
-20.9315 -31.9320 14.1969 0.8496
-20.0647 -33.1468 14.4073 0.8476
-18.5689 -33.3199 14.1835 0.8498
-13.0294 -34.1171 13.5795 0.8557
-12.6212 -41.8356 16.2484 0.8299
-9.5158 -42.3164 16.1276 0.8310
-6.4822 -43.0688 16.1948 0.8304
-1.7717 -42.4861 15.0781 0.8349
1.2813 -42.5102 15.0804 0.8349
2.8013 -42.3590 15.0527 0.8351
4.3466 -42.4907 15.1452 0.8342
5.8796 -42.3833 15.1724 0.8339
7.4440 -42.4119 15.2686 0.8330
9.1905 -43.1925 15.6583 0.8291
10.6697 -42.5741 15.5630 0.8300
12.4961 -43.2187 15.9525 0.8262
17.6306 -42.9924 16.4766 0.8210
21.5034 -43.2953 17.1411 0.8145
36.7376 15.4523 14.1321 0.8444
3.8214 11.8906 4.4286 0.9484
3.3566 11.8943 4.3823 0.9489
2.9008 11.8979 4.3424 0.9494
1.5743 11.9084 4.2593 0.9503
1.1414 11.9118 4.2431 0.9505
0.6890 11.5410 4.0996 0.9521
0.2757 11.6186 4.1210 0.9519
-0.1416 11.6219 4.1213 0.9519
-0.5594 11.6252 4.1269 0.9518
-0.9790 11.6285 4.1379 0.9517
-1.8630 11.8611 4.2574 0.9503
-2.3172 11.9391 4.3124 0.9497
-2.7661 11.9426 4.3468 0.9493
-3.6888 11.9499 4.4346 0.9483
-4.1396 11.8791 4.4606 0.9480
-5.5346 11.6645 4.5780 0.9467
-6.2146 11.9683 4.7818 0.9444
-3.0321 4.5616 1.9422 0.9770
-8.5511 11.9135 5.1999 0.9397
-9.2108 11.9059 5.3376 0.9381
-56.6254 63.2414 30.1000 0.6975
-63.6750 61.5868 31.4113 0.6866
-51.7791 40.2704 23.2593 0.7570
-51.8023 37.3835 22.6519 0.7625
-53.0911 35.4867 22.6435 0.7626
-42.8543 -31.3459 18.8267 0.7982
-37.9639 -29.9184 17.1393 0.8145
-33.8902 -30.8974 16.2615 0.8231
-31.8160 -31.1698 15.7933 0.8278
-27.4029 -31.0022 14.6717 0.8389
-25.8047 -31.3970 14.4106 0.8416
-24.3351 -31.8760 14.2201 0.8435
-20.1619 -33.3073 13.8056 0.8477
-17.0373 -33.3319 13.2735 0.8531
-13.3778 -31.5785 12.1606 0.8645
-13.2421 -34.6738 13.1609 0.8543
-11.1482 -42.4019 15.5461 0.8302
-7.9239 -42.2743 15.2509 0.8332
-3.1922 -41.0655 13.9024 0.8404
-0.2375 -41.1440 13.8873 0.8405
4.1966 -41.0242 13.9189 0.8402
5.6772 -40.9244 13.9453 0.8399
7.1655 -40.8247 13.9899 0.8395
10.2551 -40.9198 14.2386 0.8369
15.8076 -42.8698 15.4219 0.8246
22.7083 -41.8770 16.0789 0.8178
40.7954 15.4601 14.7251 0.8318
36.7120 15.4415 13.4427 0.8452
34.4366 15.9625 12.8112 0.8519
34.6743 17.6114 13.1265 0.8486
34.9415 19.3553 13.4821 0.8448
4.6639 11.5840 4.2149 0.9486
4.1886 11.5877 4.1588 0.9493
3.3566 11.8943 4.1714 0.9492
2.9008 11.8979 4.1335 0.9496
1.5742 11.9084 4.0543 0.9506
0.6890 11.5410 3.9023 0.9524
-0.1416 11.6219 3.9230 0.9521
-0.5594 11.6252 3.9283 0.9521
-0.9790 11.6285 3.9388 0.9519
-1.4375 11.9321 4.0565 0.9505
-1.8630 11.8611 4.0525 0.9506
-2.7661 11.9426 4.1376 0.9496
-3.6889 11.9499 4.2212 0.9486
-5.5346 11.6645 4.3577 0.9470
-7.3565 11.9788 4.7447 0.9424
-56.3126 62.8920 28.4934 0.7002
-59.4528 61.7851 28.9407 0.6963
-63.7063 61.6171 29.9146 0.6879
-51.7294 46.5574 23.4901 0.7454
-51.7553 43.3211 22.7806 0.7521
-51.7798 40.2709 22.1404 0.7581
-57.4979 35.5143 22.8104 0.7518
-40.9127 -29.9256 17.1088 0.8074
-36.7113 -31.1312 16.2463 0.8161
-31.5134 -30.8734 14.8904 0.8301
-29.5698 -31.1267 14.4909 0.8342
-27.9757 -31.6503 14.2577 0.8367
-25.9628 -31.5893 13.8012 0.8415
-18.5689 -33.3199 12.8747 0.8513
-17.0373 -33.3319 12.6348 0.8538
-13.5333 -29.0008 10.8018 0.8736
-13.2421 -34.6738 12.5277 0.8550
-13.0357 -38.1938 13.6215 0.8433
-12.2404 -40.5735 14.3042 0.8362
-7.6317 -40.7153 13.9817 0.8396
-3.2611 -41.9518 13.4919 0.8380
-1.7499 -41.9637 13.4668 0.8383
1.2656 -41.9875 13.4689 0.8382
2.7775 -41.9995 13.4960 0.8379
4.2975 -42.0115 13.5407 0.8375
5.7624 -41.5387 13.4464 0.8385
7.2778 -41.4646 13.4983 0.8379
8.8029 -41.3713 13.5622 0.8372
10.3552 -41.3193 13.6582 0.8362
15.0830 -40.9045 13.9787 0.8327
16.8076 -40.9854 14.2035 0.8302
18.4722 -40.8069 14.3623 0.8285
20.7859 -41.8506 14.9828 0.8218
24.8046 -42.0654 15.6580 0.8145
10.5322 -14.1311 5.6510 0.9286
52.7762 -36.6638 20.6047 0.7634
33.8232 15.6782 11.9534 0.8550
34.0417 17.2901 12.2422 0.8518
34.2871 18.9928 12.5677 0.8482
36.0368 25.3788 14.1325 0.8310
4.6639 11.5840 4.0040 0.9489
4.1886 11.5877 3.9507 0.9496
3.8214 11.8906 4.0046 0.9489
2.8828 11.8237 3.9022 0.9502
2.4294 11.7882 3.8592 0.9507
0.6890 11.5410 3.7071 0.9526
-0.1416 11.6219 3.7267 0.9524
-0.5594 11.6252 3.7318 0.9523
-2.7661 11.9426 3.9306 0.9498
-3.2229 11.9462 3.9673 0.9494
-5.0282 11.6605 4.0716 0.9481
-5.5346 11.6645 4.1397 0.9472
-6.2154 11.9698 4.3245 0.9449
-7.3565 11.9788 4.5073 0.9427
-8.6050 11.9887 4.7317 0.9399
-9.7404 11.6976 4.8808 0.9381
-59.4528 61.7851 27.4927 0.6976
-51.7300 46.5580 22.3152 0.7465
-52.1802 43.6769 21.8185 0.7514
-52.1732 37.6511 20.6298 0.7632
-53.6541 35.8630 20.6927 0.7625
-57.9026 35.7643 21.8217 0.7514
-41.9056 -30.6519 16.6473 0.8041
-36.7113 -31.1312 15.4335 0.8169
-33.9148 -30.9198 14.7153 0.8247
-32.1122 -31.4600 14.4142 0.8279
-30.0600 -31.6427 13.9941 0.8325
-28.1487 -31.8459 13.6281 0.8365
-24.3351 -31.8760 12.8586 0.8450
-18.5689 -33.3199 12.2306 0.8519
-17.0373 -33.3319 12.0027 0.8545
-13.5349 -29.0042 10.2626 0.8742
-13.2421 -34.6738 11.9009 0.8556
-13.1304 -38.4715 13.0341 0.8430
-12.4507 -41.2704 13.8219 0.8344
-7.7647 -41.4249 13.5137 0.8377
-6.2409 -41.4657 13.4452 0.8385
-4.7345 -41.5405 13.4057 0.8389
-3.2611 -41.9518 12.7882 0.8387
2.7775 -41.9994 12.7921 0.8386
5.8297 -42.0236 12.8938 0.8375
7.3780 -42.0358 12.9705 0.8366
8.9470 -42.0482 13.0651 0.8355
10.5410 -42.0607 13.1782 0.8342
15.5288 -42.1137 13.6413 0.8289
20.3989 -41.0713 13.9369 0.8255
22.2412 -41.0156 14.1800 0.8228
24.8046 -42.0654 14.8414 0.8153
52.7532 -39.5290 20.0340 0.7591
56.3611 -36.2258 20.3620 0.7557
45.5691 15.4224 14.6207 0.8178
37.1237 15.6146 12.2398 0.8450
33.2457 15.4105 11.1365 0.8580
33.6627 18.6470 11.6953 0.8514
33.9151 20.4111 12.0300 0.8475
38.9518 25.3903 14.1309 0.8233
36.1897 25.4865 13.4523 0.8311
34.9429 26.5348 13.3345 0.8324
35.3475 28.9000 13.8761 0.8262
4.6639 11.5840 3.7952 0.9491
4.1887 11.5877 3.7447 0.9498
3.3566 11.8943 3.7560 0.9496
2.9009 11.8979 3.7219 0.9501
2.4294 11.7882 3.6579 0.9509
1.5743 11.9084 3.6506 0.9510
-0.5594 11.6252 3.5371 0.9525
-0.9790 11.6285 3.5466 0.9524
-3.2229 11.9462 3.7604 0.9496
-3.6888 11.9499 3.8008 0.9491
-4.1396 11.8791 3.8231 0.9488
-6.2154 11.9698 4.0990 0.9452
-6.7741 11.9742 4.1811 0.9441
-7.3565 11.9788 4.2722 0.9429
-3.0316 4.5608 1.6644 0.9774
-8.6050 11.9887 4.4849 0.9402
-51.6735 53.7006 22.6490 0.7323
-52.0998 46.8908 21.3025 0.7460
-51.7810 40.2719 19.9361 0.7601
-53.0911 35.4867 19.4076 0.7657
-63.5474 39.2508 22.6999 0.7318
-62.4844 35.5609 21.8499 0.7404
-76.9910 12.2954 23.6951 0.7218
-42.4983 -31.0855 16.0022 0.8024
-36.5699 -31.0113 14.5722 0.8184
-30.0566 -31.6391 13.2627 0.8332
-28.8946 -32.6898 13.2596 0.8333
-26.0795 -31.7312 12.4827 0.8422
-24.3351 -31.8760 12.1880 0.8456
-22.5810 -31.8899 11.8755 0.8493
-9.4229 -41.9032 13.0530 0.8356
-7.8567 -41.9155 12.9606 0.8367
-6.3105 -41.9277 12.8859 0.8376
-3.2379 -41.6532 12.0049 0.8404
-1.7374 -41.6650 11.9826 0.8407
1.2566 -41.6886 11.9845 0.8406
2.7578 -41.7005 12.0086 0.8404
4.2670 -41.7124 12.0484 0.8399
7.3255 -41.7365 12.1761 0.8383
8.9470 -42.0482 12.3528 0.8362
10.5410 -42.0607 12.4597 0.8349
12.1650 -42.0736 12.5848 0.8334
17.2759 -42.1274 13.0834 0.8274
19.0764 -42.1417 13.2921 0.8249
22.4952 -41.4839 13.5600 0.8217
24.4647 -41.4889 13.8399 0.8184
26.1978 -40.9897 13.9783 0.8167
28.2622 -40.9060 14.2867 0.8131
52.5619 -42.4153 19.4076 0.7550
52.7740 -39.5447 18.9493 0.7600
52.7563 -36.6500 18.4583 0.7654
56.3315 -36.2068 19.2418 0.7568
77.1229 -42.0773 25.2446 0.6938
45.5691 15.4224 13.8236 0.8186
40.7955 15.4601 12.5359 0.8340
37.1233 15.6145 11.5724 0.8457
33.3541 15.4608 10.5637 0.8581
32.3342 16.4228 10.4208 0.8599
33.2972 20.0393 11.1669 0.8507
34.9550 30.7373 13.3751 0.8239
35.4267 33.4822 14.0067 0.8164
4.6639 11.5840 3.5883 0.9494
3.8214 11.8906 3.5888 0.9493
3.3566 11.8943 3.5513 0.9499
2.9008 11.8979 3.5190 0.9503
2.4294 11.7882 3.4585 0.9511
2.0110 11.9049 3.4693 0.9510
1.1414 11.9118 3.4385 0.9514
0.2757 11.6186 3.3395 0.9528
-0.1416 11.6219 3.3397 0.9528
-0.9790 11.6285 3.3532 0.9526
-1.8630 11.8611 3.4500 0.9513
-2.3172 11.9391 3.4947 0.9506
-2.7661 11.9426 3.5225 0.9503
-3.2229 11.9462 3.5554 0.9498
-3.6889 11.9499 3.5936 0.9493
-4.1396 11.8791 3.6147 0.9490
-4.5375 11.6566 3.5943 0.9493
-5.0282 11.6605 3.6488 0.9485
-5.5346 11.6644 3.7099 0.9477
-6.1766 11.8951 3.8513 0.9457
-7.3565 11.9788 4.0393 0.9432
-3.0314 4.5604 1.5735 0.9775
-9.2210 11.9192 4.3302 0.9392
-9.7405 11.6976 4.3740 0.9386
-56.5252 63.1294 24.3489 0.7028
-56.3615 54.5131 22.5310 0.7216
-51.8047 37.3852 18.3572 0.7665
-53.0911 35.4867 18.3496 0.7666
-57.5097 35.5216 19.4232 0.7548
-63.6037 36.1979 21.0287 0.7374
-68.1425 35.6055 22.0922 0.7262
-74.6384 35.6496 23.7678 0.7088
-74.2176 14.6021 21.7349 0.7299
-38.2683 -32.4515 14.4176 0.8115
-36.3931 -33.1792 14.1510 0.8147
-32.4713 -31.8118 13.0620 0.8276
-21.1215 -32.2219 11.0707 0.8518
-18.2088 -32.6736 10.7481 0.8558
-17.0373 -33.3319 10.7564 0.8557
-13.3777 -31.5785 9.8546 0.8670
-12.6339 -41.8778 12.5690 0.8336
-11.0138 -41.8906 12.4461 0.8350
-7.8008 -41.6172 12.1667 0.8384
-6.2655 -41.6292 12.0967 0.8393
-4.7460 -41.6412 12.0429 0.8399
-3.3040 -42.5031 11.5497 0.8381
-1.7760 -42.5911 11.5488 0.8381
1.2841 -42.6023 11.5471 0.8381
8.9323 -41.9793 11.6277 0.8371
12.1044 -41.8642 11.8065 0.8348
19.0760 -42.1408 12.5321 0.8256
20.9374 -42.1556 12.7519 0.8228
24.8764 -42.1872 13.2685 0.8163
26.9736 -42.2040 13.5697 0.8126
52.7557 -36.6496 17.4030 0.7663
56.3315 -36.2068 18.1419 0.7577
77.2024 -45.7912 24.3181 0.6894
71.1262 -29.3814 20.8489 0.7269
35.0295 11.8554 10.0190 0.8579
35.3087 14.8512 10.3776 0.8532
39.0645 25.4638 12.6333 0.8243
33.5717 25.4936 11.4204 0.8397
34.2828 30.1463 12.3681 0.8276
4.6639 11.5840 3.3832 0.9496
4.1887 11.5877 3.3382 0.9502
3.8214 11.8906 3.3837 0.9496
2.9008 11.8979 3.3178 0.9505
2.4294 11.7882 3.2608 0.9513
1.1414 11.9118 3.2419 0.9516
0.6890 11.5410 3.1323 0.9532
0.2757 11.6186 3.1486 0.9530
-0.5594 11.6252 3.1531 0.9529
-0.9790 11.6285 3.1615 0.9528
-1.4375 11.9321 3.2560 0.9514
-1.8630 11.8611 3.2528 0.9515
-3.2229 11.9462 3.3522 0.9500
-3.6888 11.9499 3.3882 0.9495
-5.5346 11.6645 3.4978 0.9479
-6.7741 11.9742 3.7272 0.9446
-7.3565 11.9788 3.8084 0.9434
-9.2210 11.9192 4.0827 0.9395
-9.7404 11.6976 4.1240 0.9389
-56.6294 63.2458 22.9994 0.7034
-51.6748 53.7020 20.1907 0.7343
-51.7320 46.5597 18.8558 0.7494
-51.8465 43.3976 18.3175 0.7556
-52.1750 37.6524 17.4316 0.7659
-57.5338 35.5365 18.3207 0.7556
-62.4844 35.5609 19.4778 0.7423
-74.2816 38.8132 22.7060 0.7066
-74.6537 35.6569 22.4138 0.7097
-70.0059 27.4581 20.3727 0.7322
-69.5861 24.4494 19.9821 0.7366
-70.0491 19.0909 19.6699 0.7402
-73.0428 17.1156 20.3248 0.7328
-76.9925 12.2957 21.1232 0.7239
-40.2217 -31.6977 13.8740 0.8088
-39.1012 -33.1578 13.8894 0.8086
-30.1839 -34.1485 12.3475 0.8279
-24.3351 -31.8760 10.8648 0.8469
-21.1179 -32.2164 10.4361 0.8525
-20.1619 -33.3073 10.5481 0.8510
-18.3054 -32.8469 10.1875 0.8557
-13.3777 -31.5785 9.2913 0.8675
-12.5765 -41.6875 11.7968 0.8349
-10.9829 -41.7733 11.7019 0.8361
-9.4106 -41.8481 11.6206 0.8371
-7.8565 -41.9147 11.5533 0.8380
-3.3523 -43.1252 11.0141 0.8365
-1.7988 -43.1374 10.9937 0.8368
-0.2491 -43.1497 10.9874 0.8369
1.3010 -43.1619 10.9954 0.8367
10.8377 -43.2446 11.3520 0.8319
12.2725 -42.4454 11.2506 0.8333
13.8729 -42.2354 11.3197 0.8324
15.6797 -42.5228 11.5403 0.8294
19.0058 -41.9858 11.7352 0.8268
20.7953 -41.8696 11.9039 0.8245
22.7053 -41.8715 12.1285 0.8215
24.8746 -42.1841 12.4698 0.8170
10.5180 -15.2236 4.7116 0.9265
56.3315 -36.2068 17.0511 0.7585
68.7739 -37.5222 19.9488 0.7237
72.6902 -36.3359 20.6929 0.7150
34.4969 11.6751 9.2734 0.8604
34.7528 14.6174 9.6001 0.8559
33.1037 16.8137 9.4542 0.8579
32.9701 19.8424 9.7983 0.8531
34.6274 22.5715 10.5250 0.8431
33.5891 25.5067 10.7393 0.8402
33.5777 29.5263 11.3854 0.8315
33.8973 32.0367 11.8762 0.8249
34.3361 34.8685 12.4608 0.8171
35.9969 45.4366 14.7604 0.7872
4.6639 11.5840 3.1797 0.9498
4.1887 11.5877 3.1374 0.9504
2.8267 11.5938 3.0386 0.9519
2.3901 11.5973 3.0151 0.9523
1.9596 11.6007 2.9957 0.9526
1.5340 11.6041 2.9805 0.9528
1.1123 11.6074 2.9691 0.9530
0.6931 11.6107 2.9617 0.9531
0.2756 11.6140 2.9581 0.9532
-0.1415 11.6173 2.9583 0.9532
-0.5592 11.6206 2.9624 0.9531
-0.9786 11.6239 2.9703 0.9530
-1.4007 11.6272 2.9821 0.9528
-2.6954 11.6374 3.0417 0.9519
-3.5693 11.5626 3.0813 0.9513
-4.1396 11.8791 3.2032 0.9494
-5.0282 11.6605 3.2334 0.9489
-5.5346 11.6645 3.2875 0.9481
-6.2154 11.9698 3.4343 0.9459
-7.3565 11.9788 3.5794 0.9436
-8.6050 11.9887 3.7576 0.9409
-9.7404 11.6976 3.8760 0.9391
-51.6755 53.7027 18.9770 0.7352
-51.7828 40.2733 16.7039 0.7628
-53.0911 35.4867 16.2605 0.7683
-62.5419 35.5936 18.3235 0.7430
-70.0497 19.0911 18.4874 0.7411
-79.9207 15.7242 20.7405 0.7145
-57.9386 -42.3793 18.2783 0.7436
-39.1011 -33.1578 13.0543 0.8093
-36.3931 -33.1792 12.5399 0.8161
-32.4713 -31.8118 11.5749 0.8289
-22.4783 -31.7449 9.9045 0.8517
-21.1143 -32.2109 9.8070 0.8530
-19.0497 -34.1825 9.9643 0.8508
-13.1320 -38.4761 10.3521 0.8455
-11.3254 -43.0757 11.3412 0.8321
-8.0764 -43.0879 11.1626 0.8345
1.2559 -41.6663 9.9406 0.8425
2.7557 -41.6702 9.9587 0.8422
4.4707 -43.7041 10.4764 0.8347
6.0646 -43.7167 10.5249 0.8340
7.4362 -42.3671 10.2576 0.8379
15.9968 -43.3829 11.0263 0.8268
19.0899 -42.1713 11.0389 0.8267
21.0710 -42.4246 11.2960 0.8230
26.8046 -41.9396 11.8694 0.8149
52.7085 -42.5336 16.1513 0.7569
52.7740 -39.5447 15.7260 0.7625
68.7291 -40.7654 19.0558 0.7199
72.4944 -36.2380 19.3271 0.7166
39.8402 10.3654 9.8169 0.8443
34.0943 12.9206 8.6946 0.8608
34.2183 14.3926 8.8524 0.8584
33.4771 15.5178 8.7992 0.8592
21.6669 11.0048 5.7951 0.9049
33.0025 18.2812 8.9968 0.8563
32.9972 19.8587 9.1839 0.8535
34.0827 22.2165 9.7019 0.8459
33.5892 25.5068 10.0577 0.8408
33.1226 27.0809 10.2026 0.8387
33.0887 29.0963 10.5074 0.8343
35.9969 45.4366 13.8234 0.7879
34.7228 47.2164 13.9764 0.7858
4.6621 11.5794 2.9767 0.9500
4.1870 11.5831 2.9371 0.9506
3.7238 11.5868 2.9023 0.9512
0.6931 11.6107 2.7737 0.9533
-0.1415 11.6173 2.7706 0.9533
-1.4007 11.6272 2.7928 0.9530
-1.8268 11.6306 2.8075 0.9527
-2.6954 11.6374 2.8486 0.9521
-3.1405 11.6409 2.8752 0.9516
-4.0591 11.6482 2.9415 0.9505
-4.5357 11.6519 2.9817 0.9499
-5.0262 11.6558 3.0269 0.9491
-5.4935 11.5778 3.0560 0.9487
-56.4771 63.0757 20.1899 0.7060
-52.0449 54.0866 17.8994 0.7344
-51.7591 43.3244 16.0961 0.7576
-51.7835 40.2738 15.6438 0.7636
-51.8065 37.3865 15.2352 0.7690
-53.0911 35.4867 15.2283 0.7691
-63.6037 36.1979 17.4517 0.7401
-75.9167 29.7764 19.4465 0.7151
-69.5874 24.4500 17.5889 0.7384
-69.8399 21.7555 17.4439 0.7402
-70.0503 19.0913 17.3140 0.7419
-72.0155 16.8749 17.6386 0.7377
-40.3510 -31.7996 12.2514 0.8096
-32.4713 -31.8118 10.8401 0.8295
-24.2245 -31.7311 9.5199 0.8486
-22.4783 -31.7449 9.2758 0.8522
-21.1108 -32.2055 9.1829 0.8536
-20.1802 -33.3375 9.2930 0.8519
-20.4296 -36.6586 10.0077 0.8415
-19.7293 -38.5985 10.3372 0.8367
-13.3777 -31.5785 8.1783 0.8685
-13.1421 -43.5621 10.8506 0.8294
-4.9722 -43.6266 10.4709 0.8348
-1.7513 -41.9972 9.3492 0.8418
-0.2520 -43.6638 9.7119 0.8362
2.7616 -41.7588 9.3083 0.8424
4.4707 -43.7041 9.7714 0.8353
7.3299 -41.7616 9.4306 0.8405
8.8883 -41.7725 9.4991 0.8395
10.9657 -43.7554 10.0331 0.8312
12.1725 -42.0997 9.7474 0.8356
17.9705 -43.8213 10.5345 0.8236
19.0895 -42.1704 10.2959 0.8272
21.1796 -42.6433 10.5902 0.8227
25.2153 -42.7619 11.0416 0.8159
26.9730 -42.2031 11.1403 0.8145
10.5169 -15.2220 4.1152 0.9270
52.7079 -42.5331 15.0643 0.7576
52.7740 -39.5446 14.6678 0.7632
52.6726 -36.5918 14.2651 0.7689
68.7283 -40.7650 17.7734 0.7208
72.6520 -36.3168 18.0658 0.7169
39.8402 10.3654 9.1563 0.8448
34.8125 10.4050 8.0815 0.8617
33.4899 11.3343 7.8639 0.8651
33.5906 12.7297 7.9898 0.8631
33.2143 16.8699 8.2859 0.8584
32.8811 21.4332 8.7299 0.8514
33.2067 23.3857 9.0336 0.8467
33.5893 25.5069 9.3809 0.8413
33.0987 27.0614 9.5093 0.8393
33.1058 31.2887 10.1317 0.8297
41.5976 45.3924 13.6944 0.7770
38.9036 45.6390 13.3386 0.7821
34.1970 46.5014 12.8386 0.7894
33.1966 48.7126 13.1114 0.7854
4.6621 11.5794 2.7764 0.9501
4.1870 11.5831 2.7395 0.9508
2.3901 11.5973 2.6337 0.9526
1.5340 11.6041 2.6034 0.9532
0.2756 11.6140 2.5839 0.9535
-0.1415 11.6173 2.5841 0.9535
-0.9786 11.6239 2.5945 0.9533
-1.8268 11.6306 2.6186 0.9529
-3.5946 11.6445 2.7106 0.9513
-4.0591 11.6482 2.7436 0.9507
-4.5357 11.6519 2.7811 0.9501
-5.0262 11.6558 2.8233 0.9493
-7.1685 11.6727 3.0468 0.9454
-3.0305 4.5591 1.2176 0.9778
-8.6050 11.9887 3.2823 0.9413
-9.7405 11.6976 3.3857 0.9395
-51.7064 50.0106 15.9998 0.7447
-51.7597 43.3249 15.0132 0.7584
-52.5857 40.8978 14.8171 0.7611
-52.1767 37.6537 14.3116 0.7682
-58.6679 39.2143 15.6956 0.7489
-57.5096 35.5216 15.0347 0.7581
-62.4844 35.5608 15.9910 0.7448
-69.3633 36.2434 17.4070 0.7256
-74.6536 35.6569 18.4014 0.7125
-71.6451 31.1127 17.3731 0.7261
-70.0082 27.4590 16.7262 0.7348
-70.9101 22.0888 16.5194 0.7376
-73.7337 17.2775 16.8442 0.7332
-74.9327 14.7428 16.9861 0.7313
-62.8919 -42.6235 16.8984 0.7325
-41.7858 -30.5643 11.5150 0.8088
-40.3205 -31.7756 11.4181 0.8103
-36.0240 -32.8427 10.8426 0.8189
-32.3237 -31.6672 10.0647 0.8308
-29.9964 -31.5758 9.6870 0.8366
-31.8474 -36.0305 10.6958 0.8211
-24.3351 -31.8760 8.9198 0.8485
-22.5810 -31.8899 8.6911 0.8520
-20.4635 -40.0350 10.0004 0.8317
-13.5317 -28.9973 7.1173 0.8771
-13.2422 -34.6742 8.2556 0.8589
-13.1328 -38.4783 9.0431 0.8465
-13.1420 -43.5621 10.1205 0.8299
-11.4575 -43.5783 10.0222 0.8314
-3.2608 -41.9475 8.6876 0.8421
1.2574 -41.7174 8.6179 0.8433
6.0646 -43.7167 9.1132 0.8350
8.8870 -41.7663 8.8171 0.8400
10.9657 -43.7553 9.3142 0.8317
12.1728 -42.1008 9.0492 0.8361
13.8443 -42.1483 9.1604 0.8343
17.9705 -43.8213 9.7796 0.8241
18.9968 -41.9657 9.5117 0.8285
20.8444 -41.9684 9.6758 0.8258
26.9731 -42.2031 10.3420 0.8150
52.7073 -42.5326 13.9847 0.7583
52.7740 -39.5446 13.6168 0.7639
68.8930 -37.5872 16.2047 0.7258
72.6520 -36.3168 16.7713 0.7177
39.8402 10.3655 8.5002 0.8452
34.8125 10.4050 7.5024 0.8621
33.0131 11.1730 7.1965 0.8673
33.2077 13.9675 7.4387 0.8632
32.9899 16.7559 7.6401 0.8597
32.9965 19.8583 7.9520 0.8545
33.2664 23.4278 8.4014 0.8469
33.5893 25.5069 8.7087 0.8418
33.2324 27.1707 8.8635 0.8392
33.3329 29.3110 9.1652 0.8342
38.8987 45.6333 12.3813 0.7828
33.6784 45.7962 11.7379 0.7928
33.3784 48.9795 12.2386 0.7850
34.5338 77.6087 17.5398 0.7068
4.6621 11.5794 2.5775 0.9503
3.7238 11.5868 2.5130 0.9515
3.2708 11.5903 2.4867 0.9520
1.9596 11.6007 2.4293 0.9531
1.5340 11.6041 2.4169 0.9533
1.1122 11.6074 2.4077 0.9535
0.2756 11.6140 2.3988 0.9537
-0.1415 11.6173 2.3990 0.9537
-1.4008 11.6272 2.4182 0.9533
-1.8268 11.6306 2.4310 0.9531
-2.2580 11.6340 2.4470 0.9527
-3.1405 11.6409 2.4896 0.9519
-3.5946 11.6445 2.5164 0.9514
-4.5357 11.6519 2.5818 0.9502
-5.0262 11.6558 2.6210 0.9495
-5.5324 11.6598 2.6648 0.9487
-6.0565 11.6639 2.7137 0.9477
-6.6010 11.6682 2.7681 0.9467
-3.0302 4.5587 1.1303 0.9779
-8.3851 11.6823 2.9692 0.9430
-9.0418 11.6875 3.0511 0.9414
-9.7405 11.6976 3.1431 0.9397
-52.3843 43.8477 14.1056 0.7565
-52.1542 40.5621 13.6425 0.7635
-51.8076 37.3873 13.1921 0.7703
-53.0911 35.4867 13.1858 0.7704
-58.1195 35.8982 14.1053 0.7565
-74.2653 26.0935 16.2535 0.7251
-76.1551 23.7226 16.4700 0.7220
-82.9937 16.3288 17.4654 0.7079
-41.8009 -30.5753 10.6937 0.8093
-40.3107 -31.7679 10.5975 0.8109
-36.3930 -33.1791 10.1688 0.8178
-30.0460 -31.6280 9.0077 0.8368
-31.7739 -35.9474 9.9065 0.8220
-24.3351 -31.8760 8.2807 0.8489
-21.1038 -32.1948 7.9486 0.8545
-20.7893 -34.3437 8.2894 0.8488
-21.1525 -37.9557 8.9721 0.8374
-18.4921 -36.1780 8.3894 0.8471
-13.2423 -34.6743 7.6640 0.8593
-9.4926 -42.2130 8.9340 0.8380
-6.5642 -43.6140 9.1070 0.8352
-4.9723 -43.6266 9.0665 0.8358
-3.2589 -41.9226 8.0165 0.8426
-0.2520 -43.6639 8.3244 0.8371
2.7636 -41.7889 7.9843 0.8432
8.8909 -41.7847 8.1444 0.8403
10.9657 -43.7554 8.5997 0.8322
12.1725 -42.0996 8.3549 0.8366
17.9705 -43.8212 9.0295 0.8246
20.8482 -41.9761 8.9352 0.8263
25.2604 -42.8384 9.4811 0.8167
10.5158 -15.2203 3.5267 0.9274
55.3013 -51.5989 14.4195 0.7349
54.8470 -47.6093 13.8462 0.7440
52.6818 -42.5120 12.9058 0.7591
52.7338 -36.6343 12.2413 0.7699
61.1390 -36.2635 13.5519 0.7487
68.6887 -37.4758 14.9174 0.7271
72.2991 -36.1404 15.4096 0.7195
32.9950 11.1668 6.6408 0.8678
32.3709 15.0050 6.8021 0.8648
32.9892 16.7555 7.0540 0.8601
33.0014 18.2807 7.1923 0.8576
33.0143 19.8690 7.3460 0.8548
33.2661 23.4275 7.7569 0.8473
33.3628 29.3372 8.4698 0.8345
33.1052 31.2881 8.6841 0.8307
33.4289 45.4569 10.7572 0.7947
41.1597 65.3190 14.7189 0.7302
40.2105 75.3010 16.2744 0.7064
36.8130 75.3278 15.9841 0.7108
33.9100 76.2069 15.9019 0.7120
1.0931 11.4075 2.1848 0.9544
0.6812 11.4108 2.1793 0.9545
0.2708 11.4140 2.1766 0.9546
-0.1391 11.4172 2.1768 0.9546
-0.5496 11.4205 2.1798 0.9545
-0.9617 11.4237 2.1856 0.9544
-1.3766 11.4270 2.1943 0.9542
-1.7954 11.4303 2.2059 0.9540
-2.2191 11.4337 2.2204 0.9537
-3.0864 11.4405 2.2591 0.9529
-5.5324 11.6598 2.4604 0.9488
-6.0565 11.6639 2.5056 0.9479
-9.7366 11.6930 2.9009 0.9399
-56.6332 63.2501 16.1857 0.7077
-52.3012 54.3530 14.3803 0.7355
-51.7351 46.5625 13.2695 0.7532
-51.7609 43.3259 12.8687 0.7597
-57.5096 35.5216 12.8868 0.7594
-63.6037 36.1979 13.9520 0.7423
-68.9272 36.0155 14.8264 0.7286
-77.3659 30.3448 15.8434 0.7129
-69.5895 24.4507 14.0620 0.7406
-69.8418 21.7560 13.9461 0.7424
-70.0521 19.0917 13.8422 0.7440
-72.0172 16.8753 14.1016 0.7399
-80.0597 -42.4880 17.2792 0.6914
-64.0633 -40.1392 14.4127 0.7350
-38.0747 -34.7123 9.8226 0.8107
-32.4713 -31.8118 8.6662 0.8310
-30.9899 -32.6216 8.5781 0.8326
-31.9074 -36.0984 9.1850 0.8219
-24.3351 -31.8760 7.6455 0.8493
-21.1003 -32.1895 7.3377 0.8549
-20.9013 -34.5288 7.6948 0.8484
-18.2363 -35.6776 7.6388 0.8495
-12.7221 -33.3123 6.7982 0.8648
-11.4575 -43.5783 8.5904 0.8324
-8.0764 -43.0879 8.3576 0.8365
-6.5643 -43.6140 8.4085 0.8356
-3.2611 -41.9511 7.3593 0.8429
2.7615 -41.7580 7.3194 0.8437
6.0099 -43.3229 7.6497 0.8373
7.3269 -41.7445 7.4127 0.8419
8.8913 -41.7864 7.4720 0.8407
10.7825 -43.0241 7.7576 0.8352
12.1725 -42.0994 7.6647 0.8370
13.8529 -42.1746 7.7640 0.8351
20.8455 -41.9707 8.1962 0.8267
26.8437 -42.0007 8.7181 0.8168
55.3279 -59.6039 14.2237 0.7188
54.8464 -47.6088 12.7024 0.7446
56.3607 -36.2256 11.7180 0.7618
68.1355 -37.1740 13.5751 0.7297
72.6520 -36.3168 14.2059 0.7190
46.4196 10.3135 8.3167 0.8244
39.8403 10.3654 7.2000 0.8461
33.0054 12.5079 6.1732 0.8665
32.9891 16.7555 6.4713 0.8605
33.0139 19.8687 6.7391 0.8552
32.9839 23.2289 7.0559 0.8489
33.1315 25.1592 7.2761 0.8446
33.1212 27.0798 7.4826 0.8405
33.3624 29.3369 7.7701 0.8349
33.2272 38.9799 8.9583 0.8122
35.2244 44.4616 9.9209 0.7943
33.4292 45.4573 9.8688 0.7952
31.9175 46.8357 9.9128 0.7944
37.9691 65.3442 13.2179 0.7357
34.8782 65.3157 12.9502 0.7403
36.8130 75.3278 14.6639 0.7114
33.4861 75.2541 14.4063 0.7157
4.5818 11.3800 2.1456 0.9514
4.1184 11.3935 2.1189 0.9520
3.6774 11.4426 2.1021 0.9524
3.2414 11.4862 2.0874 0.9527
1.9569 11.5852 2.0549 0.9534
1.1122 11.6074 2.0394 0.9538
0.6931 11.6107 2.0343 0.9539
-0.1415 11.6173 2.0320 0.9539
-1.4007 11.6272 2.0483 0.9536
-2.2505 11.5954 2.0659 0.9532
-3.1129 11.5384 2.0902 0.9526
-3.5506 11.5019 2.1053 0.9523
-4.4576 11.4513 2.1492 0.9513
-5.4372 11.4590 2.2183 0.9498
-5.9523 11.4631 2.2591 0.9489
-8.3851 11.6823 2.5151 0.9433
-9.0418 11.6875 2.5844 0.9418
-9.7366 11.6930 2.6613 0.9401
-56.6340 63.2509 14.8490 0.7084
-51.6789 53.7062 13.0356 0.7389
-51.7615 43.3264 11.8059 0.7603
-52.1785 37.6549 11.2542 0.7701
-62.4844 35.5608 12.5743 0.7468
-71.6479 31.1140 13.6617 0.7282
-69.5901 24.4509 12.9007 0.7412
-75.9092 14.9350 13.5310 0.7304
-76.9970 12.2964 13.6373 0.7286
-61.2256 -41.4942 12.9358 0.7406
-40.2912 -31.7525 8.9722 0.8120
-39.1011 -33.1578 8.9666 0.8121
-39.5950 -36.0984 9.3712 0.8045
-32.4713 -31.8118 7.9505 0.8314
-30.9903 -32.6220 7.8697 0.8330
-31.9079 -36.0989 8.4265 0.8223
-22.5810 -31.8899 6.8342 0.8533
-20.8070 -34.3730 7.0275 0.8495
-21.4926 -38.5661 7.7219 0.8359
-18.2794 -35.7619 7.0244 0.8495
-13.3777 -31.5785 5.9982 0.8700
-11.2660 -42.8501 7.7491 0.8353
-9.4894 -42.1988 7.5649 0.8389
-8.0764 -43.0879 7.6673 0.8369
-6.5061 -43.2274 7.6456 0.8374
-4.9295 -43.2515 7.6136 0.8380
-1.7515 -42.0024 6.6941 0.8434
1.2573 -41.7131 6.6453 0.8445
2.7585 -41.7112 6.6565 0.8442
13.8399 -42.1349 7.0621 0.8356
17.8332 -43.4864 7.4843 0.8267
25.2475 -42.8166 7.9150 0.8176
26.8358 -41.9883 7.9350 0.8172
10.5147 -15.2187 2.9456 0.9278
54.7567 -58.9884 12.8163 0.7218
52.6440 -52.7792 11.8704 0.7394
54.9666 -47.7131 11.5903 0.7447
52.7243 -42.5463 10.7882 0.7600
52.6948 -39.4853 10.4853 0.7659
56.1101 -36.0645 10.6212 0.7633
33.0050 12.5078 5.6203 0.8668
32.9790 16.7503 5.8900 0.8609
33.0008 18.2803 6.0073 0.8583
32.9625 19.8378 6.1261 0.8557
33.1206 27.0793 6.8124 0.8409
33.0460 29.0587 7.0072 0.8367
33.1041 31.2871 7.2532 0.8315
33.1230 33.6366 7.5172 0.8260
34.4403 43.4719 8.8314 0.7988
33.4292 45.4573 8.9851 0.7957
35.1564 60.5040 11.1426 0.7532
34.9065 65.3682 11.8001 0.7407
36.8132 75.3282 13.3508 0.7121
4.1870 11.5831 1.9613 0.9513
3.7238 11.5868 1.9380 0.9519
2.8267 11.5939 1.9002 0.9528
2.3901 11.5973 1.8855 0.9532
1.5340 11.6041 1.8639 0.9537
0.6931 11.6107 1.8521 0.9540
-0.1415 11.6173 1.8500 0.9540
-1.8268 11.6306 1.8747 0.9534
-2.2580 11.6340 1.8871 0.9531
-2.6954 11.6374 1.9022 0.9528
-3.1405 11.6409 1.9199 0.9523
-4.0591 11.6482 1.9642 0.9513
-5.0262 11.6558 2.0212 0.9499
-5.5309 11.6567 2.0545 0.9491
-6.5186 11.5226 2.1081 0.9478
-3.0296 4.5578 0.8715 0.9781
-8.2407 11.4811 2.2504 0.9444
-9.0418 11.6875 2.3530 0.9419
-9.7366 11.6930 2.4229 0.9402
-51.7089 50.0131 11.4552 0.7472
-29.4041 22.8686 5.9316 0.8600
-68.1425 35.6055 12.2427 0.7324
-74.6536 35.6569 13.1739 0.7153
-72.1403 31.3278 12.5238 0.7272
-73.6385 28.8828 12.5956 0.7259
-75.3413 26.4716 12.7161 0.7236
-86.1173 26.8259 14.3629 0.6940
-84.0026 -40.7857 14.8696 0.6851
-66.1638 -41.4552 12.4329 0.7289
-40.2815 -31.7449 8.1668 0.8124
-39.9833 -36.4523 8.6156 0.8032
-32.4713 -31.8118 7.2385 0.8318
-24.3351 -31.8760 6.3859 0.8501
-22.5810 -31.8899 6.2222 0.8536
-21.0935 -32.1791 6.1268 0.8557
-20.9187 -34.5575 6.4325 0.8491
-21.5104 -38.5979 7.0362 0.8361
-21.1741 -41.4251 7.4081 0.8283
-11.2743 -42.8817 7.0604 0.8356
-9.4878 -42.1917 6.8862 0.8393
-6.5124 -43.2697 6.9677 0.8376
-3.2683 -42.0444 6.0579 0.8433
-0.2496 -43.2519 6.2132 0.8396
2.7560 -41.6741 5.9995 0.8447
7.3352 -41.7916 6.0951 0.8424
8.8877 -41.7699 6.1346 0.8415
10.8404 -43.2556 6.4058 0.8351
12.1725 -42.0996 6.2953 0.8377
15.9448 -43.2419 6.6205 0.8301
17.9705 -43.8212 6.8037 0.8258
18.9917 -41.9546 6.6155 0.8302
25.2412 -42.8057 7.1385 0.8181
26.8385 -41.9926 7.1590 0.8176
54.1542 -67.4626 12.4270 0.7050
54.8684 -59.1088 11.5853 0.7219
54.8264 -47.5914 10.4291 0.7457
52.7237 -42.5458 9.7321 0.7605
52.7991 -39.5634 9.4776 0.7660
61.1386 -36.2633 10.2112 0.7503
68.1771 -37.1966 11.1564 0.7306
46.4179 10.3131 6.8305 0.8252
39.8392 10.3652 5.9134 0.8467
35.4211 10.5869 5.3106 0.8612
32.9762 11.1605 5.0010 0.8688
33.2096 13.9683 5.1754 0.8645
33.0271 15.3092 5.2292 0.8632
33.1825 16.8537 5.3462 0.8604
33.0004 18.2801 5.4192 0.8586
33.1259 25.1550 5.9750 0.8453
33.1367 29.1385 6.3387 0.8367
33.1224 33.6359 6.7812 0.8263
33.1158 36.1369 7.0411 0.8203
33.3989 39.1813 7.3957 0.8122
33.6939 42.5297 7.7943 0.8031
32.1937 47.2410 8.2121 0.7937
34.8179 55.2548 9.3817 0.7680
33.1095 56.9808 9.4667 0.7662
33.5306 75.3541 11.8479 0.7166
3.2708 11.5904 1.7300 0.9525
2.8267 11.5939 1.7142 0.9529
2.3901 11.5973 1.7010 0.9533
1.9596 11.6007 1.6900 0.9536
1.5340 11.6041 1.6814 0.9538
0.6931 11.6107 1.6708 0.9541
-0.1415 11.6173 1.6689 0.9541
-0.5592 11.6206 1.6712 0.9541
-2.6954 11.6374 1.7160 0.9529
-4.0591 11.6482 1.7719 0.9514
-3.0294 4.5574 0.7861 0.9781
-8.9475 11.5656 2.1005 0.9426
-9.5685 11.4912 2.1480 0.9414
-52.3032 54.3550 10.8359 0.7373
-52.0785 50.3706 10.4078 0.7462
-52.1061 46.8965 10.0702 0.7533
-51.8099 37.3890 9.1781 0.7724
-53.0910 35.4866 9.1733 0.7726
-57.5096 35.5215 9.7101 0.7610
-63.6037 36.1978 10.5127 0.7440
-69.3631 36.2433 11.2422 0.7289
-74.6536 35.6569 11.8844 0.7158
-70.0538 19.0922 10.4303 0.7457
-72.0189 16.8757 10.6257 0.7416
-74.2226 14.6031 10.8665 0.7366
-76.9985 12.2967 11.2010 0.7297
-68.1729 -42.7141 11.5565 0.7225
-30.9911 -32.6228 6.4638 0.8337
-31.9087 -36.0998 6.9211 0.8231
-24.3351 -31.8760 5.7608 0.8504
-22.5810 -31.8899 5.6131 0.8539
-20.9191 -34.5581 5.8029 0.8494
-21.6198 -38.7943 6.3798 0.8357
-14.9262 -31.9854 5.0703 0.8671
-13.3537 -31.5217 4.9176 0.8708
-12.7231 -33.3149 5.1228 0.8658
-11.3282 -43.0864 6.3997 0.8352
-9.4862 -42.1847 6.2112 0.8397
-8.0764 -43.0879 6.2974 0.8377
-6.5643 -43.6140 6.3357 0.8367
-4.9722 -43.6266 6.3075 0.8374
-1.7512 -41.9950 5.3855 0.8441
1.2575 -41.7188 5.3479 0.8451
2.7558 -41.6705 5.3509 0.8450
8.8856 -41.7599 5.4705 0.8418
11.1714 -44.5760 5.8882 0.8308
12.1727 -42.1001 5.6153 0.8380
13.8142 -42.0567 5.6720 0.8365
16.4571 -44.6313 6.0950 0.8254
18.9995 -41.9717 5.9032 0.8304
26.8704 -42.0426 6.3932 0.8177
10.5136 -15.2172 2.3700 0.9281
54.6244 -73.2899 11.7121 0.6917
54.8415 -63.5072 10.7514 0.7129
52.6427 -52.7779 9.5514 0.7404
52.7231 -42.5453 8.6807 0.7609
52.7468 -39.5242 8.4454 0.7666
56.3607 -36.2256 8.5846 0.7632
61.1386 -36.2633 9.1081 0.7508
68.1764 -37.1963 9.9511 0.7311
46.2894 10.2846 6.0757 0.8259
39.8395 10.3653 5.2746 0.8470
32.9940 11.1665 4.4631 0.8690
33.0044 12.5076 4.5224 0.8673
33.2394 13.9809 4.6204 0.8647
33.0268 15.3090 4.6643 0.8635
32.5745 21.2334 4.9822 0.8549
32.0098 22.5429 5.0165 0.8539
33.2073 27.1502 5.4960 0.8412
33.1036 31.2865 5.8362 0.8322
33.1150 33.6284 6.0473 0.8267
32.8350 35.8305 6.2272 0.8220
31.8841 37.4042 6.2976 0.8202
33.3918 57.4669 8.5161 0.7649
4.6621 11.5794 1.5994 0.9509
4.1870 11.5831 1.5781 0.9515
2.3901 11.5973 1.5172 0.9534
1.9596 11.6007 1.5075 0.9537
0.2756 11.6140 1.4885 0.9542
-0.5592 11.6206 1.4907 0.9542
-0.9786 11.6239 1.4946 0.9540
-1.8268 11.6306 1.5085 0.9536
-3.5946 11.6445 1.5615 0.9520
-4.5357 11.6519 1.6021 0.9508
-5.0262 11.6558 1.6264 0.9501
-5.5324 11.6598 1.6536 0.9493
-7.1685 11.6727 1.7552 0.9463
-8.3851 11.6823 1.8425 0.9437
-56.5327 63.1379 10.8589 0.7105
-51.6808 53.7082 9.5503 0.7404
-51.7102 50.0144 9.2178 0.7482
-51.7376 46.5648 8.9187 0.7553
-51.7875 40.2770 8.4062 0.7675
-51.8105 37.3894 8.1867 0.7729
-68.1425 35.6055 9.8512 0.7334
-70.9835 22.1117 9.5262 0.7410
-87.6776 10.7909 11.3190 0.7003
-84.4685 -41.0119 12.0313 0.6848
-40.2623 -31.7297 6.5683 0.8132
-40.0879 -36.5477 6.9508 0.8035
-32.4713 -31.8118 5.8245 0.8325
-31.9307 -38.8505 6.4435 0.8164
-24.3351 -31.8760 5.1385 0.8507
-22.5810 -31.8899 5.0067 0.8542
-21.2021 -41.4798 5.9689 0.8287
-12.7234 -33.3157 4.5695 0.8660
-13.5417 -39.6765 5.3717 0.8445
-11.6724 -44.3957 5.8818 0.8310
-9.4847 -42.1777 5.5392 0.8400
-1.7515 -42.0037 4.7368 0.8443
-0.2513 -43.5340 4.9052 0.8393
1.2573 -41.7121 4.7020 0.8454
2.7558 -41.6716 4.7055 0.8453
6.1783 -44.5366 5.0661 0.8344
7.3300 -41.7618 4.7774 0.8431
8.8905 -41.7829 4.8132 0.8420
13.8166 -42.0641 4.9886 0.8368
16.4572 -44.6313 5.3597 0.8257
19.0007 -41.9744 5.1914 0.8307
20.8464 -41.9725 5.2803 0.8281
24.2352 -44.6927 5.7284 0.8149
26.8859 -42.0667 5.6251 0.8179
10.5130 -15.2164 2.0837 0.9283
54.6236 -73.2889 10.2989 0.6922
54.2451 -67.5758 9.7636 0.7055
54.8683 -59.1088 9.0870 0.7228
54.8252 -47.5903 8.1800 0.7466
52.7687 -36.6586 7.2395 0.7721
61.1386 -36.2633 8.0093 0.7512
68.1758 -37.1959 8.7505 0.7315
72.7281 -36.3548 9.1613 0.7209
47.1286 10.4710 5.4396 0.8234
32.9936 11.1664 3.9246 0.8692
33.0152 13.8866 4.0356 0.8657
33.2120 16.8687 4.1971 0.8608
32.9998 18.2798 4.2505 0.8591
32.5743 21.2333 4.3811 0.8551
32.0098 22.5429 4.4113 0.8542
33.1251 25.1544 4.6865 0.8458
33.2073 27.1502 4.8329 0.8414
33.3004 29.2824 4.9963 0.8365
33.1032 31.2862 5.1321 0.8325
33.1218 33.6353 5.3188 0.8269
33.1940 41.8988 6.0228 0.8064
32.6916 51.8804 6.9093 0.7813
33.4832 57.6241 7.5092 0.7647
34.0545 63.7728 8.1458 0.7475
4.6621 11.5794 1.4065 0.9510
4.1870 11.5831 1.3878 0.9516
3.7238 11.5868 1.3713 0.9522
3.2708 11.5904 1.3569 0.9527
2.3901 11.5973 1.3342 0.9535
0.6931 11.6107 1.3105 0.9543
-0.1415 11.6173 1.3090 0.9543
-0.5592 11.6206 1.3108 0.9542
-0.9786 11.6239 1.3143 0.9541
-1.4007 11.6272 1.3195 0.9540
-1.8268 11.6306 1.3265 0.9537
-4.0591 11.6482 1.3898 0.9516
-5.0262 11.6558 1.4302 0.9502
-5.5324 11.6598 1.4541 0.9494
-6.0566 11.6639 1.4808 0.9485
-7.1685 11.6727 1.5434 0.9464
-3.0289 4.5568 0.6165 0.9782
-9.0418 11.6875 1.6649 0.9423
-9.7366 11.6930 1.7144 0.9406
-51.7382 46.5653 7.8429 0.7556
-74.6536 35.6569 9.3216 0.7168
-74.4013 29.1821 9.0048 0.7249
-76.5104 26.8824 9.1373 0.7215
-70.0550 19.0925 8.1812 0.7466
-81.9013 19.1913 9.4780 0.7128
-87.6329 10.7853 9.9483 0.7009
-29.0761 -15.4308 3.7089 0.8759
-63.6881 -43.1631 8.6687 0.7337
-58.3646 -42.6909 8.1475 0.7475
-40.2527 -31.7222 5.7745 0.8136
-39.4956 -33.4923 5.8347 0.8118
-32.4713 -31.8118 5.1218 0.8328
-32.3738 -39.3897 5.7448 0.8145
-24.3351 -31.8760 4.5186 0.8509
-22.5810 -31.8898 4.4027 0.8545
-20.9198 -34.5593 4.5517 0.8499
-22.0822 -39.6240 5.1110 0.8331
-21.2020 -41.4798 5.2488 0.8290
-12.7364 -42.2174 4.9685 0.8374
-11.6724 -44.3957 5.1722 0.8313
-8.0764 -43.0879 4.9394 0.8382
-6.6878 -44.4351 5.0630 0.8345
-5.0658 -44.4479 5.0405 0.8352
-3.2620 -41.9624 4.0939 0.8444
-1.7518 -42.0095 4.0897 0.8445
-0.2512 -43.5127 4.2325 0.8396
1.2571 -41.7075 4.0586 0.8456
4.5546 -44.5238 4.3533 0.8354
6.1783 -44.5366 4.3735 0.8347
7.3182 -41.6950 4.1176 0.8436
8.8969 -41.8130 4.1581 0.8421
11.1714 -44.5760 4.4699 0.8314
12.1722 -42.0987 4.2626 0.8385
13.8317 -42.1100 4.3112 0.8368
16.4572 -44.6313 4.6269 0.8260
17.9470 -43.7639 4.6009 0.8269
20.8676 -42.0150 4.5630 0.8282
24.2352 -44.6927 4.9452 0.8152
25.2222 -42.7735 4.8299 0.8191
26.8679 -42.0386 4.8528 0.8183
10.5125 -15.2156 1.7989 0.9284
54.6229 -73.2878 8.8907 0.6926
54.8057 -51.1365 7.2909 0.7399
52.7682 -36.6582 6.2496 0.7724
56.3607 -36.2256 6.5168 0.7639
68.1824 -37.1996 7.5548 0.7319
72.7070 -36.3443 7.9064 0.7213
50.5288 -14.7504 5.1200 0.8093
47.1500 10.4758 4.6980 0.8236
39.8400 10.3654 4.0042 0.8475
32.9035 11.1359 3.3788 0.8697
33.0147 13.8863 3.4838 0.8659
32.9994 18.2796 3.6693 0.8593
33.0122 19.8678 3.7477 0.8565
33.1247 25.1541 4.0457 0.8461
33.2073 27.1502 4.1722 0.8417
33.3604 29.3352 4.3210 0.8365
33.1028 31.2858 4.4303 0.8327
33.1213 33.6349 4.5916 0.8272
33.3753 42.1275 5.2277 0.8057
32.6856 61.2093 6.7494 0.7566
33.5305 75.3541 8.0224 0.7179
4.6608 11.5762 1.2138 0.9511
4.1127 12.7970 1.3074 0.9474
1.5526 11.7449 1.1523 0.9535
1.1258 11.7483 1.1480 0.9537
0.7016 11.7516 1.1451 0.9538
0.2789 11.7549 1.1437 0.9538
-1.8531 11.7977 1.1616 0.9531
-2.2904 11.8012 1.1693 0.9528
-2.7342 11.8047 1.1786 0.9525
-3.1857 11.8082 1.1896 0.9520
-3.6463 11.8119 1.2024 0.9515
-4.1063 11.7835 1.2138 0.9511
-4.5884 11.7874 1.2303 0.9504
-5.5967 11.7953 1.2699 0.9489
-6.6494 11.7537 1.3135 0.9472
-3.0287 4.5565 0.5322 0.9783
-8.3851 11.6823 1.3987 0.9438
-9.7366 11.6930 1.4800 0.9407
-57.6479 55.7574 7.8009 0.7245
-52.1080 46.8981 6.8189 0.7545
-52.1338 43.6380 6.6129 0.7609
-51.7887 40.2779 6.3815 0.7682
-63.1468 35.9379 7.0672 0.7468
-68.8650 35.9830 7.5576 0.7318
-82.8266 32.4867 8.6539 0.6994
-70.0556 19.0927 7.0627 0.7469
-74.2243 14.6034 7.3580 0.7378
-77.0007 12.2970 7.5846 0.7310
-87.5916 10.7803 8.5841 0.7014
-59.2958 -12.0617 5.8857 0.7841
-81.0731 -43.0258 8.9275 0.6915
-74.5750 -43.0771 8.3769 0.7074
-68.2095 -42.7370 7.8293 0.7236
-63.2547 -42.8693 7.4325 0.7356
-30.9923 -32.6241 4.3769 0.8346
-24.3351 -31.8760 3.9008 0.8511
-22.5810 -31.8899 3.8008 0.8547
-21.0800 -32.1585 3.7401 0.8568
-20.9201 -34.5599 3.9295 0.8501
-22.0906 -39.6391 4.4139 0.8333
-13.3777 -31.5785 3.3358 0.8712
-13.5520 -39.7065 4.0809 0.8448
-6.5617 -43.5967 4.2883 0.8376
-4.9338 -43.2897 4.2379 0.8394
-3.2571 -41.8996 3.4423 0.8448
-0.2510 -43.4920 3.5624 0.8398
2.7654 -41.8158 3.4325 0.8452
7.3229 -41.7214 3.4696 0.8437
8.8934 -41.7963 3.5001 0.8424
12.1713 -42.0954 3.5892 0.8387
17.9705 -43.8212 3.8794 0.8269
18.9798 -41.9283 3.7697 0.8313
20.8755 -42.0311 3.8439 0.8283
25.2159 -42.7629 4.0662 0.8194
10.5115 -15.2141 1.5146 0.9285
54.6221 -73.2868 7.4867 0.6929
54.8684 -59.1088 6.6059 0.7235
52.5202 -52.6551 6.0915 0.7419
54.7191 -51.0557 6.1299 0.7406
54.8425 -47.6054 5.9483 0.7472
52.6964 -42.5238 5.5463 0.7620
61.0957 -36.2378 5.8183 0.7519
79.5543 -36.2585 7.1610 0.7041
50.5256 -14.7494 4.3112 0.8096
39.6299 10.3107 3.3541 0.8484
34.8129 10.4052 2.9761 0.8643
33.0146 13.8863 2.9336 0.8661
32.9994 18.2795 3.0899 0.8595
32.4873 21.1765 3.1764 0.8559
33.0335 25.0849 3.3974 0.8466
33.1187 27.0777 3.5040 0.8422
33.1022 31.2853 3.7307 0.8329
33.1209 33.6345 3.8664 0.8274
33.3590 42.1069 4.4001 0.8061
33.2702 45.2411 4.5997 0.7982
32.1917 47.2381 4.6822 0.7950
33.2221 52.7223 5.1042 0.7787
32.6205 56.1394 5.3182 0.7706
33.3494 62.4524 5.7990 0.7527
4.6608 11.5762 1.0221 0.9511
4.4679 13.9024 1.1961 0.9431
3.9245 13.9066 1.1836 0.9437
1.9834 11.7415 0.9753 0.9533
1.1257 11.7482 0.9667 0.9537
0.2789 11.7549 0.9631 0.9539
-0.1415 11.6173 0.9516 0.9544
-0.5673 11.7876 0.9666 0.9537
-1.4209 11.7943 0.9730 0.9534
-2.2904 11.8012 0.9846 0.9529
-2.7342 11.8047 0.9925 0.9525
-3.1857 11.8082 1.0018 0.9521
-3.6462 11.8119 1.0125 0.9516
-5.0451 11.6996 1.0436 0.9502
-6.1291 11.8036 1.0894 0.9480
-9.3621 13.0434 1.3151 0.9376
-9.8262 12.7015 1.3153 0.9376
-51.6828 53.7102 6.1053 0.7414
-51.7121 50.0162 5.8927 0.7492
-51.7394 46.5664 5.7015 0.7563
-51.8121 37.3905 5.2335 0.7738
-57.5096 35.5215 5.5366 0.7624
-68.1424 35.6055 6.2974 0.7345
-71.6536 31.1164 6.3985 0.7309
-70.0148 27.4616 6.1601 0.7395
-69.5941 24.4523 6.0419 0.7438
-87.4280 17.2013 7.2984 0.6993
-77.0014 12.2971 6.3870 0.7313
-87.7020 10.7939 7.2377 0.7014
-84.6981 -41.1234 7.7119 0.6853
-79.7237 -42.3097 7.3926 0.6961
-68.8248 -43.1225 6.6524 0.7218
-63.6880 -43.1630 6.3017 0.7343
-58.3646 -42.6909 5.9229 0.7481
-40.2338 -31.7073 4.1958 0.8142
-32.4713 -31.8118 3.7233 0.8332
-32.5112 -39.5568 4.1939 0.8142
-22.5810 -31.8898 3.2006 0.8549
-21.0774 -32.1546 3.1491 0.8570
-20.9205 -34.5605 3.3090 0.8503
-22.0906 -39.6391 3.7169 0.8335
-14.9194 -31.9709 2.8897 0.8680
-13.5519 -39.7065 3.4365 0.8450
-11.6724 -44.3957 3.7600 0.8317
-8.0764 -43.0879 3.5907 0.8387
-5.0658 -44.4479 3.6642 0.8357
-0.2567 -44.4858 2.9622 0.8367
1.2576 -41.7231 2.7795 0.8459
4.5546 -44.5238 2.9802 0.8358
6.1783 -44.5366 2.9940 0.8351
2.7130 -15.4569 1.0450 0.9390
3.2651 -15.3450 1.0446 0.9390
3.8127 -15.2133 1.0443 0.9391
4.8915 -14.8919 1.0437 0.9391
6.0689 -14.7992 1.0651 0.9379
19.0051 -41.9841 3.0687 0.8313
20.8449 -41.9694 3.1203 0.8287
25.2096 -42.7522 3.3048 0.8196
10.5105 -15.2127 1.2312 0.9286
54.5196 -73.1493 6.0748 0.6937
54.2248 -67.5505 5.7679 0.7066
52.4283 -60.7127 5.3414 0.7250
52.6401 -52.7753 4.9634 0.7417
52.7123 -49.1832 4.8005 0.7490
52.7196 -42.5425 4.5108 0.7622
52.7659 -36.6566 4.2782 0.7729
56.3606 -36.2255 4.4612 0.7645
79.5535 -36.2581 5.8215 0.7043
87.9255 -36.3210 6.3345 0.6829
32.9928 11.1661 2.3193 0.8697
33.0034 12.5072 2.3501 0.8681
33.0143 13.8862 2.3849 0.8663
33.0255 15.3084 2.4238 0.8642
32.9870 16.7544 2.4636 0.8622
32.9990 18.2793 2.5119 0.8597
33.1243 25.1538 2.7695 0.8464
33.1020 31.2851 3.0328 0.8331
32.8941 35.8950 3.2419 0.8227
31.9162 37.4418 3.2760 0.8210
33.2697 45.2405 3.7393 0.7984
32.0160 46.9804 3.7856 0.7962
33.2215 52.7214 4.1494 0.7789
33.5007 75.2870 5.4870 0.7187
4.6608 11.5761 0.8309 0.9512
33.5905 92.9271 6.5796 0.6729
4.4679 13.9024 0.9723 0.9431
3.9245 13.9066 0.9622 0.9437
2.4191 11.7380 0.7980 0.9531
1.9833 11.7415 0.7929 0.9534
1.5526 11.7449 0.7889 0.9536
1.1257 11.7482 0.7859 0.9538
0.7015 11.7516 0.7839 0.9539
-0.1415 11.6173 0.7736 0.9545
-0.5673 11.7876 0.7858 0.9538
-1.4209 11.7943 0.7910 0.9535
-2.2904 11.8012 0.8005 0.9530
-2.7342 11.8047 0.8068 0.9526
-3.1857 11.8082 0.8144 0.9522
-4.1174 11.8156 0.8332 0.9511
-5.0452 11.6998 0.8484 0.9502
-5.6119 11.8274 0.8717 0.9489
-6.6959 11.8359 0.9055 0.9469
-3.0283 4.5558 0.3643 0.9783
-50.9341 65.8380 5.5427 0.7163
-51.7127 50.0168 4.7905 0.7495
-51.7400 46.5670 4.6351 0.7565
-29.3672 22.8399 2.4776 0.8614
-52.1824 37.6578 4.2850 0.7726
-57.5095 35.5215 4.5009 0.7626
