ply
format ascii 1.0
element vertex 1577
property float32 x
property float32 y
property float32 z
property float32 I
end_header
-6.5946 11.6569 -0.9477 0.9477
-7.1610 11.6605 -0.9683 0.9466
-8.3751 11.6684 -1.0163 0.9440
-10.6076 13.7116 -1.2267 0.9328
-14.8259 17.8050 -1.6395 0.9113
-16.0598 16.6898 -1.6390 0.9113
-16.6460 16.1001 -1.6387 0.9113
-17.2106 15.4899 -1.6385 0.9113
-19.3931 16.2328 -1.7896 0.9036
-19.9608 15.5242 -1.7894 0.9036
-21.0183 14.0489 -1.7889 0.9036
-21.5069 13.2840 -1.7888 0.9036
-21.9679 12.5023 -1.7886 0.9036
-22.4007 11.7047 -1.7885 0.9036
-22.8048 10.8923 -1.7883 0.9036
-23.1796 10.0661 -1.7882 0.9036
-23.5249 9.2271 -1.7881 0.9036
-23.8400 8.3763 -1.7881 0.9036
-24.1246 7.5149 -1.7880 0.9036
-24.3782 6.6440 -1.7880 0.9036
-24.6008 5.7645 -1.7880 0.9036
-24.7918 4.8778 -1.7880 0.9036
-25.2373 1.2794 -1.7881 0.9036
-25.2669 -0.5346 -1.7883 0.9036
-25.2332 -1.4414 -1.7885 0.9036
-24.7765 -5.0399 -1.7891 0.9036
-24.5825 -5.9267 -1.7894 0.9036
-21.4596 -13.4456 -1.7920 0.9034
-20.9674 -14.2101 -1.7923 0.9034
-17.6962 -15.0063 -1.6418 0.9112
-6.4550 -6.3239 -0.6394 0.9644
-5.6545 -6.3972 -0.6042 0.9663
-5.1244 -6.7123 -0.5976 0.9667
-4.9967 -7.0566 -0.6118 0.9659
-6.3236 -9.6469 -0.8162 0.9548
-5.8462 -9.6579 -0.7989 0.9557
-5.4023 -9.6937 -0.7853 0.9565
-4.9465 -9.6773 -0.7691 0.9574
-4.1071 -9.6949 -0.7451 0.9587
-3.6956 -9.6768 -0.7330 0.9593
-3.2966 -9.6589 -0.7222 0.9599
-2.5443 -9.6774 -0.7081 0.9607
-3.8484 -20.5315 -1.4782 0.9196
-0.7993 -19.1680 -1.6517 0.9259
0.5783 -19.1848 -1.6524 0.9258
3.3211 -18.9215 -1.6539 0.9258
3.9990 -18.7942 -1.6543 0.9258
6.6532 -18.0434 -1.6556 0.9257
7.9337 -17.5263 -1.6563 0.9257
9.1741 -16.9182 -1.6569 0.9256
6.4758 -10.9821 -1.0976 0.9501
6.4811 -10.1405 -1.0361 0.9528
6.5246 -9.4435 -0.9882 0.9550
6.9900 -9.3785 -1.0070 0.9541
7.5376 -9.3900 -1.0367 0.9528
8.1638 -9.4538 -1.0754 0.9511
8.7826 -9.4614 -1.1114 0.9495
8.5765 -6.9208 -0.9488 0.9567
11.3501 -6.1925 -1.1131 0.9494
19.4735 -8.0442 -1.8139 0.9189
19.7504 -7.3403 -1.8140 0.9189
20.2272 -5.9047 -1.8141 0.9189
20.4264 -5.1749 -1.8141 0.9189
20.8641 -2.9489 -1.8141 0.9189
21.0208 -1.4443 -1.8140 0.9189
20.8363 3.0814 -1.8134 0.9189
20.7105 3.8270 -1.8132 0.9189
19.6835 7.4594 -1.8122 0.9190
19.0924 8.8500 -1.8117 0.9190
18.4027 10.1939 -1.8112 0.9190
16.7430 12.7143 -1.8100 0.9191
15.7818 13.8776 -1.8093 0.9191
15.2706 14.4324 -1.8089 0.9191
14.1901 15.4847 -1.8082 0.9191
13.6223 15.9808 -1.8079 0.9191
9.0826 11.4644 -1.2592 0.9430
9.1541 12.4478 -1.3303 0.9399
8.5306 13.5378 -1.3776 0.9378
9.6474 16.6030 -1.6532 0.9258
7.8012 17.5319 -1.6521 0.9259
7.1652 17.7965 -1.6517 0.9259
5.8672 18.2561 -1.6509 0.9259
3.3518 13.7473 -1.2182 0.9448
2.8339 13.7506 -1.2087 0.9452
1.9598 11.6017 -1.0130 0.9539
1.5527 11.7453 -1.0200 0.9535
0.7015 11.7508 -1.0135 0.9538
0.2789 11.7536 -1.0122 0.9539
-3.1388 11.6346 -1.0375 0.9528
-4.0564 11.6405 -1.0613 0.9517
-4.5325 11.6436 -1.0757 0.9511
-5.5278 11.6500 -1.1102 0.9495
-6.0511 11.6534 -1.1305 0.9486
-7.1610 11.6606 -1.1781 0.9465
-7.7534 11.6644 -1.2058 0.9453
-10.6076 13.7116 -1.4925 0.9328
-12.1994 14.6507 -1.6413 0.9263
-10.5305 11.7609 -1.3591 0.9386
-13.2154 13.7339 -1.6409 0.9263
-13.6982 13.2490 -1.6407 0.9263
-14.1632 12.7472 -1.6405 0.9264
-15.0380 11.6956 -1.6401 0.9264
-15.8354 10.5846 -1.6398 0.9264
-16.5514 9.4197 -1.6396 0.9264
-18.4367 9.6335 -1.7909 0.9199
-18.7696 8.9650 -1.7908 0.9199
-19.3626 7.5945 -1.7906 0.9199
-20.4058 4.0148 -1.7905 0.9199
-20.6418 2.5405 -1.7905 0.9199
-20.7202 1.7979 -1.7906 0.9199
-20.7721 1.0530 -1.7906 0.9199
-20.7960 -0.4400 -1.7908 0.9199
-20.7680 -1.1863 -1.7909 0.9199
-20.7134 -1.9312 -1.7910 0.9199
-20.3908 -4.1478 -1.7915 0.9199
-20.2307 -4.8775 -1.7916 0.9198
-19.8330 -6.3178 -1.7920 0.9198
-19.5958 -7.0265 -1.7922 0.9198
-19.3334 -7.7264 -1.7925 0.9198
-19.0461 -8.4165 -1.7927 0.9198
-18.7344 -9.0960 -1.7930 0.9198
-18.3985 -9.7642 -1.7932 0.9198
-18.0389 -10.4199 -1.7935 0.9198
-17.6561 -11.0625 -1.7938 0.9198
-16.8226 -12.3049 -1.7944 0.9197
-7.9932 -6.2992 -0.8762 0.9600
-5.9561 -6.2697 -0.7445 0.9659
-5.5731 -6.3051 -0.7245 0.9668
-4.7250 -6.6729 -0.7039 0.9677
-4.5669 -6.9670 -0.7172 0.9671
-6.0155 -9.9375 -1.0001 0.9544
-5.3795 -9.6529 -0.9514 0.9566
-4.5068 -9.6577 -0.9175 0.9581
-4.0930 -9.6617 -0.9034 0.9587
-2.9017 -9.6183 -0.8649 0.9605
-2.3445 -10.4258 -0.9200 0.9580
-3.5311 -18.8386 -1.6501 0.9259
-2.8533 -18.9576 -1.6505 0.9259
-1.2611 -16.2233 -1.6511 0.9367
-0.6781 -16.2614 -1.6514 0.9367
-0.0939 -16.2785 -1.6517 0.9366
2.2386 -16.1367 -1.6530 0.9366
3.3918 -15.9404 -1.6536 0.9366
7.9798 -14.7157 -1.6985 0.9349
6.5858 -10.3044 -1.2408 0.9520
7.5417 -9.3951 -1.2224 0.9527
12.1395 -13.0777 -1.8105 0.9308
11.3314 -11.3605 -1.6281 0.9375
8.5174 -7.3934 -1.1444 0.9557
8.4983 -6.8577 -1.1080 0.9570
8.5873 -6.4346 -1.0888 0.9578
10.4222 -6.1817 -1.2295 0.9524
16.2510 -7.4067 -1.8121 0.9307
16.5071 -6.8188 -1.8122 0.9307
16.7417 -6.2221 -1.8122 0.9307
16.9548 -5.6173 -1.8123 0.9307
17.5847 -3.1330 -1.8123 0.9307
17.6856 -2.4997 -1.8123 0.9307
17.7636 -1.8632 -1.8123 0.9307
17.8186 -1.2243 -1.8122 0.9307
17.8449 0.6983 -1.8120 0.9307
17.7468 1.9765 -1.8118 0.9307
17.6632 2.6121 -1.8117 0.9307
17.5567 3.2442 -1.8115 0.9307
17.4276 3.8721 -1.8114 0.9307
17.1018 5.1115 -1.8111 0.9308
16.9056 5.7215 -1.8109 0.9308
16.6875 6.3240 -1.8107 0.9308
16.4479 6.9182 -1.8105 0.9308
16.1871 7.5033 -1.8103 0.9308
15.9053 8.0785 -1.8101 0.9308
15.2807 9.1964 -1.8096 0.9308
14.9387 9.7376 -1.8093 0.9308
14.1973 10.7811 -1.8088 0.9308
13.7991 11.2821 -1.8085 0.9308
13.3831 11.7683 -1.8082 0.9309
10.0220 10.1774 -1.4493 0.9442
12.0343 13.1322 -1.8073 0.9309
10.5762 12.4072 -1.6542 0.9366
9.0826 11.4644 -1.4840 0.9429
9.1024 12.3775 -1.5589 0.9401
8.4670 13.4369 -1.6115 0.9381
6.6180 14.8728 -1.6517 0.9366
6.0787 15.0978 -1.6514 0.9367
5.5317 15.3033 -1.6511 0.9367
4.9778 15.4889 -1.6507 0.9367
1.9598 11.6018 -1.1938 0.9538
1.5527 11.7454 -1.2021 0.9535
1.1258 11.7481 -1.1975 0.9537
-0.5658 11.7590 -1.1945 0.9538
-1.4003 11.6234 -1.1879 0.9540
-2.6941 11.6318 -1.2115 0.9531
-4.0564 11.6406 -1.2508 0.9516
-5.5278 11.6500 -1.3084 0.9495
-6.0511 11.6534 -1.3323 0.9486
-6.5946 11.6569 -1.3589 0.9476
-7.1610 11.6606 -1.3884 0.9465
-7.7534 11.6644 -1.4211 0.9452
-8.3751 11.6684 -1.4573 0.9439
-9.8164 11.7889 -1.5565 0.9402
-11.2226 11.6628 -1.6422 0.9370
-11.6327 11.2513 -1.6421 0.9370
-12.0279 10.8253 -1.6419 0.9370
-12.4076 10.3856 -1.6417 0.9370
-13.1184 9.4670 -1.6415 0.9370
-13.4487 8.9893 -1.6413 0.9370
-14.0571 8.0002 -1.6411 0.9370
-14.3345 7.4900 -1.6410 0.9370
-14.5934 6.9703 -1.6409 0.9370
-14.8335 6.4417 -1.6409 0.9370
-16.4453 6.4503 -1.7924 0.9314
-17.3315 3.4099 -1.7922 0.9314
-17.4429 2.7857 -1.7923 0.9314
-17.5319 2.1577 -1.7923 0.9314
-17.5984 1.5271 -1.7923 0.9314
-17.6424 0.8944 -1.7924 0.9314
-17.4313 -2.8985 -1.7929 0.9314
-16.6411 -5.9671 -1.7937 0.9314
-16.1737 -7.1472 -1.7941 0.9314
-15.9086 -7.7241 -1.7944 0.9314
-15.3174 -8.8478 -1.7948 0.9314
-14.6471 -9.9267 -1.7953 0.9313
-7.8436 -6.1813 -1.0133 0.9606
-7.2395 -6.1391 -0.9631 0.9626
-6.7256 -6.1317 -0.9234 0.9641
-5.4985 -6.2208 -0.8424 0.9672
-4.8387 -6.3381 -0.8091 0.9684
-4.5668 -6.4495 -0.8018 0.9687
-4.3997 -7.2682 -0.8621 0.9664
-4.5016 -9.6465 -1.0801 0.9581
-3.6680 -9.6045 -1.0432 0.9595
-3.3802 -9.9037 -1.0618 0.9588
-2.9884 -9.9057 -1.0498 0.9593
-2.5360 -9.6455 -1.0119 0.9607
-2.3716 -10.5465 -1.0968 0.9575
-2.4209 -16.0847 -1.6504 0.9367
-1.8423 -16.1644 -1.6507 0.9367
-0.6135 -14.7138 -1.7213 0.9424
0.9730 -14.7130 -1.7235 0.9423
3.6849 -14.7033 -1.7717 0.9408
4.8061 -14.6319 -1.8001 0.9399
5.8636 -14.2984 -1.8063 0.9397
6.3770 -14.0874 -1.8074 0.9396
6.8795 -13.8513 -1.8077 0.9396
7.8576 -13.3255 -1.8082 0.9396
7.2461 -11.3375 -1.5727 0.9473
8.7956 -12.7306 -1.8086 0.9396
6.9925 -9.3818 -1.3676 0.9540
7.5403 -9.3933 -1.4079 0.9526
10.1166 -11.7152 -1.8092 0.9396
11.3207 -10.5628 -1.8097 0.9395
8.5504 -6.4070 -1.2488 0.9579
8.8699 -6.1620 -1.2624 0.9574
11.3307 -6.1819 -1.5087 0.9493
13.8568 -6.9266 -1.8107 0.9395
14.7073 -4.8727 -1.8109 0.9395
14.8730 -4.3417 -1.8110 0.9395
15.1464 -3.2635 -1.8110 0.9395
15.2537 -2.7176 -1.8110 0.9395
15.3412 -2.1683 -1.8110 0.9395
15.4567 -1.0620 -1.8109 0.9395
15.4845 -0.5065 -1.8108 0.9395
15.4798 0.6057 -1.8107 0.9395
15.4473 1.1609 -1.8106 0.9395
14.9870 3.8993 -1.8100 0.9395
14.4772 5.4864 -1.8096 0.9396
14.2695 6.0019 -1.8094 0.9396
13.7992 7.0088 -1.8090 0.9396
12.9612 8.4487 -1.8084 0.9396
12.6480 8.9074 -1.8082 0.9396
11.6125 10.2113 -1.8074 0.9396
10.2867 9.7220 -1.6544 0.9446
9.1778 10.7668 -1.6536 0.9446
8.3791 11.3939 -1.6531 0.9446
7.9634 11.6855 -1.6528 0.9446
7.5376 11.9619 -1.6526 0.9447
7.1022 12.2227 -1.6523 0.9447
6.2049 12.6965 -1.6517 0.9447
5.7441 12.9089 -1.6515 0.9447
5.2761 13.1045 -1.6512 0.9447
4.0945 12.7401 -1.5641 0.9475
1.9598 11.6018 -1.3753 0.9537
0.2789 11.7536 -1.3742 0.9538
-0.5659 11.7590 -1.3760 0.9537
-0.9783 11.6207 -1.3631 0.9541
-1.4003 11.6235 -1.3684 0.9539
-1.8261 11.6262 -1.3756 0.9537
-2.2570 11.6290 -1.3846 0.9534
-3.1388 11.6347 -1.4085 0.9526
-4.0565 11.6406 -1.4408 0.9516
-4.5325 11.6436 -1.4604 0.9509
-5.5278 11.6501 -1.5072 0.9494
-6.0511 11.6534 -1.5348 0.9485
-6.5946 11.6570 -1.5654 0.9475
-7.7534 11.6644 -1.6371 0.9452
-9.3790 10.4749 -1.6434 0.9449
-10.1044 9.7731 -1.6431 0.9450
-10.4478 9.4032 -1.6429 0.9450
-11.0938 8.6280 -1.6427 0.9450
-11.3955 8.2237 -1.6426 0.9450
-11.6825 7.8088 -1.6424 0.9450
-11.9546 7.3839 -1.6423 0.9450
-13.0781 5.1296 -1.6420 0.9450
-15.0562 2.9623 -1.7936 0.9401
-15.2302 1.8745 -1.7936 0.9401
-15.3446 0.2263 -1.7937 0.9401
-15.3434 -0.3247 -1.7938 0.9401
-15.3225 -0.8753 -1.7939 0.9401
-15.2820 -1.4248 -1.7940 0.9401
-15.2218 -1.9725 -1.7941 0.9401
-14.7869 -4.1319 -1.7946 0.9400
-14.4548 -5.1831 -1.7949 0.9400
-14.2608 -5.6992 -1.7950 0.9400
-14.0484 -6.2080 -1.7952 0.9400
-13.5697 -7.2015 -1.7956 0.9400
-13.0211 -8.1584 -1.7960 0.9400
-12.7214 -8.6216 -1.7962 0.9400
-6.7003 -6.1086 -1.0598 0.9641
-5.8208 -6.1273 -0.9878 0.9665
-5.4240 -6.1364 -0.9573 0.9676
-5.0821 -6.1835 -0.9355 0.9683
-4.7900 -6.2743 -0.9226 0.9687
-4.3879 -6.6939 -0.9355 0.9683
-4.3583 -7.1999 -0.9837 0.9667
-4.9226 -9.6306 -1.2642 0.9574
-4.4948 -9.6319 -1.2424 0.9581
-4.0727 -9.6137 -1.2204 0.9588
-2.9084 -9.6406 -1.1770 0.9603
-2.3752 -10.5622 -1.2654 0.9573
-2.7571 -14.7092 -1.7492 0.9415
-1.0559 -13.5832 -1.8033 0.9465
-0.0786 -13.6281 -1.8038 0.9465
0.4107 -13.6241 -1.8041 0.9465
0.8996 -13.6026 -1.8043 0.9465
1.8737 -13.5070 -1.8049 0.9465
2.3577 -13.4329 -1.8051 0.9465
3.7898 -13.1071 -1.8059 0.9464
4.2584 -12.9644 -1.8061 0.9464
4.7216 -12.8048 -1.8064 0.9464
6.0731 -12.2276 -1.8070 0.9464
6.5089 -12.0032 -1.8073 0.9464
6.9363 -11.7631 -1.8075 0.9464
7.3550 -11.5078 -1.8077 0.9464
7.7641 -11.2376 -1.8079 0.9464
7.5350 -9.3868 -1.5932 0.9526
8.9299 -10.3409 -1.8084 0.9464
8.4789 -7.3600 -1.4861 0.9557
8.4608 -6.8275 -1.4390 0.9571
8.5387 -6.3982 -1.4122 0.9579
11.7589 -6.9746 -1.8096 0.9463
12.2301 -6.1134 -1.8097 0.9463
12.4421 -5.6707 -1.8098 0.9463
12.6380 -5.2206 -1.8098 0.9463
12.9806 -4.3006 -1.8099 0.9463
13.2559 -3.3583 -1.8099 0.9463
13.4627 -2.3986 -1.8100 0.9463
13.6734 0.0438 -1.8098 0.9463
13.6625 0.5346 -1.8097 0.9463
13.6339 1.0246 -1.8096 0.9463
13.5877 1.5133 -1.8096 0.9463
13.4427 2.4840 -1.8094 0.9463
13.3440 2.9648 -1.8092 0.9463
13.0951 3.9140 -1.8090 0.9463
12.9452 4.3812 -1.8089 0.9464
12.7786 4.8427 -1.8087 0.9464
12.5954 5.2978 -1.8086 0.9464
12.3960 5.7460 -1.8084 0.9464
12.1806 6.1867 -1.8082 0.9464
11.9495 6.6193 -1.8080 0.9464
11.7030 7.0432 -1.8079 0.9464
10.8744 8.2577 -1.8073 0.9464
10.5697 8.6417 -1.8070 0.9464
9.0811 8.5827 -1.6538 0.9508
7.7552 9.7888 -1.6529 0.9509
7.3978 10.0595 -1.6527 0.9509
7.0309 10.3171 -1.6525 0.9509
6.2708 10.7919 -1.6520 0.9509
3.7250 11.5904 -1.6114 0.9521
3.2717 11.5934 -1.5944 0.9526
1.9598 11.6018 -1.5573 0.9536
1.1227 11.7162 -1.5578 0.9536
0.6996 11.7190 -1.5538 0.9537
-0.1428 11.7244 -1.5519 0.9538
-0.5643 11.7271 -1.5540 0.9537
-0.9783 11.6208 -1.5435 0.9540
-2.2570 11.6290 -1.5679 0.9533
-2.6941 11.6318 -1.5803 0.9530
-4.0565 11.6406 -1.6316 0.9515
-4.5111 11.5887 -1.6460 0.9511
-4.9235 11.4178 -1.6458 0.9511
-6.1203 10.8185 -1.6452 0.9511
-6.5039 10.5906 -1.6450 0.9511
-7.2455 10.0946 -1.6446 0.9511
-7.6024 9.8270 -1.6445 0.9511
-9.2308 8.3079 -1.6437 0.9511
-9.5224 7.9707 -1.6436 0.9511
-10.3221 6.8995 -1.6433 0.9511
-11.0025 5.7490 -1.6431 0.9511
-11.5556 4.5324 -1.6429 0.9511
-12.7856 4.4923 -1.7937 0.9468
-13.0815 3.5652 -1.7946 0.9468
-13.2009 3.0933 -1.7946 0.9468
-13.3035 2.6174 -1.7946 0.9468
-13.3889 2.1382 -1.7946 0.9468
-13.4572 1.6562 -1.7946 0.9468
-13.5419 0.6865 -1.7947 0.9468
-13.5581 0.2000 -1.7947 0.9468
-13.5570 -0.2868 -1.7948 0.9468
-13.5385 -0.7734 -1.7948 0.9468
-13.5026 -1.2589 -1.7949 0.9468
-13.3788 -2.2246 -1.7951 0.9467
-13.2911 -2.7036 -1.7952 0.9467
-13.1864 -3.1792 -1.7953 0.9467
-13.0646 -3.6507 -1.7954 0.9467
-12.2079 -5.9273 -1.7962 0.9467
-11.9884 -6.3623 -1.7964 0.9467
-11.5034 -7.2075 -1.7967 0.9467
-7.7646 -6.1191 -1.3085 0.9609
-7.2110 -6.1149 -1.2514 0.9626
-6.6946 -6.1034 -1.1990 0.9641
-5.4000 -6.1093 -1.0792 0.9676
-4.7553 -6.2289 -1.0372 0.9689
-4.4741 -9.5876 -1.4004 0.9582
-4.0647 -9.5949 -1.3792 0.9588
-2.8860 -9.5664 -1.3226 0.9605
-2.5089 -13.3848 -1.8024 0.9465
-2.0271 -13.4683 -1.8027 0.9465
-0.9449 -12.1555 -1.8032 0.9519
-0.0704 -12.1953 -1.8036 0.9519
2.1097 -12.0198 -1.8048 0.9519
2.9674 -11.8404 -1.8053 0.9518
3.3909 -11.7277 -1.8055 0.9518
5.0368 -11.1268 -1.8063 0.9518
5.4336 -10.9400 -1.8065 0.9518
5.8234 -10.7391 -1.8067 0.9518
6.2058 -10.5242 -1.8069 0.9518
7.6510 -9.5312 -1.8076 0.9518
8.3165 -8.9592 -1.8079 0.9518
8.8838 -7.7115 -1.7398 0.9535
9.5158 -7.6789 -1.8084 0.9518
9.7859 -7.3328 -1.8085 0.9518
10.5191 -6.2392 -1.8088 0.9517
10.7367 -5.8578 -1.8089 0.9517
10.9405 -5.4688 -1.8089 0.9517
11.4659 -4.2614 -1.8091 0.9517
12.0430 -2.1456 -1.8091 0.9517
12.2035 -0.8385 -1.8091 0.9517
12.2219 0.4783 -1.8089 0.9517
11.9374 2.6523 -1.8085 0.9518
11.8337 3.0789 -1.8084 0.9518
11.7149 3.5014 -1.8083 0.9518
11.5808 3.9194 -1.8082 0.9518
11.4318 4.3323 -1.8080 0.9518
11.2681 4.7395 -1.8079 0.9518
10.8972 5.5348 -1.8076 0.9518
10.4701 6.3012 -1.8073 0.9518
10.2362 6.6724 -1.8071 0.9518
9.9891 7.0348 -1.8069 0.9518
9.7291 7.3881 -1.8067 0.9518
8.6570 7.0779 -1.6538 0.9558
7.8433 7.9649 -1.6532 0.9558
7.5514 8.2403 -1.6530 0.9558
7.2499 8.5051 -1.6528 0.9558
6.9391 8.7588 -1.6526 0.9558
6.6194 9.0011 -1.6524 0.9558
6.2912 9.2318 -1.6522 0.9558
5.6112 9.6568 -1.6518 0.9558
4.9026 10.0319 -1.6513 0.9559
4.5387 10.2000 -1.6511 0.9559
4.1691 10.3550 -1.6509 0.9559
3.7942 10.4965 -1.6507 0.9559
3.4145 10.6245 -1.6505 0.9559
2.6427 10.8392 -1.6500 0.9559
1.4616 11.0559 -1.6493 0.9559
1.0636 11.0997 -1.6491 0.9559
-0.1358 11.1452 -1.6484 0.9559
-1.7286 11.0053 -1.6476 0.9560
-2.1222 10.9347 -1.6474 0.9560
-2.9006 10.7516 -1.6469 0.9560
-4.0382 10.3738 -1.6464 0.9560
-4.4075 10.2210 -1.6462 0.9560
-5.1283 9.8763 -1.6458 0.9560
-5.4790 9.6849 -1.6457 0.9560
-5.8225 9.4810 -1.6455 0.9560
-6.4865 9.0371 -1.6452 0.9560
-7.7105 8.0130 -1.6446 0.9560
-8.2643 7.4381 -1.6444 0.9560
-8.5255 7.1362 -1.6443 0.9560
-9.4570 5.8412 -1.6439 0.9560
-9.6601 5.4977 -1.6438 0.9561
-9.8509 5.1472 -1.6438 0.9561
-10.0289 4.7901 -1.6437 0.9561
-11.4500 4.0230 -1.7949 0.9521
-11.8194 2.7696 -1.7954 0.9521
-12.0945 1.0495 -1.7954 0.9521
-12.1246 0.6147 -1.7955 0.9521
-12.1215 -0.6924 -1.7956 0.9521
-12.0893 -1.1271 -1.7957 0.9521
-11.9783 -1.9918 -1.7958 0.9521
-11.8998 -2.4206 -1.7959 0.9521
-11.8059 -2.8464 -1.7960 0.9521
-11.6968 -3.2685 -1.7962 0.9521
-11.5727 -3.6865 -1.7963 0.9521
-11.4337 -4.0998 -1.7964 0.9521
-10.9293 -5.3065 -1.7968 0.9521
-10.7327 -5.6959 -1.7970 0.9521
-10.5223 -6.0780 -1.7971 0.9521
-10.0610 -6.8186 -1.7975 0.9520
-7.7631 -6.1179 -1.4618 0.9608
-6.2317 -6.1051 -1.2902 0.9653
-5.0337 -6.1246 -1.1725 0.9685
-5.5408 -10.8400 -1.8005 0.9520
-4.7500 -11.2126 -1.8009 0.9520
-3.6514 -9.5612 -1.5136 0.9595
-2.8860 -9.5664 -1.4778 0.9604
-3.0980 -11.7834 -1.8019 0.9519
-2.6734 -11.8887 -1.8022 0.9519
-1.8141 -12.0531 -1.8027 0.9519
-1.3804 -12.1121 -1.8029 0.9519
-0.8547 -10.9947 -1.8031 0.9563
0.3324 -11.0269 -1.8037 0.9563
0.7281 -11.0092 -1.8039 0.9563
1.1229 -10.9773 -1.8042 0.9563
1.9081 -10.8710 -1.8046 0.9563
2.2973 -10.7967 -1.8048 0.9562
3.0667 -10.6064 -1.8052 0.9562
3.4458 -10.4906 -1.8054 0.9562
4.1905 -10.2185 -1.8058 0.9562
4.9138 -9.8935 -1.8061 0.9562
5.2663 -9.7116 -1.8063 0.9562
5.9506 -9.3105 -1.8066 0.9562
6.2815 -9.0917 -1.8068 0.9562
6.6044 -8.8611 -1.8069 0.9562
6.9187 -8.6190 -1.8071 0.9562
7.5204 -8.1016 -1.8073 0.9562
8.0834 -7.5422 -1.8076 0.9562
8.6047 -6.9436 -1.8078 0.9562
8.8489 -6.6306 -1.8079 0.9562
9.0817 -6.3090 -1.8080 0.9562
9.7085 -5.2968 -1.8082 0.9562
9.8927 -4.9451 -1.8083 0.9562
10.2225 -4.2228 -1.8084 0.9562
10.3677 -3.8532 -1.8084 0.9562
10.4995 -3.4786 -1.8084 0.9562
10.7223 -2.7164 -1.8085 0.9562
11.0545 -0.3616 -1.8084 0.9562
11.0513 0.4324 -1.8083 0.9562
11.0283 0.8288 -1.8082 0.9562
10.9911 1.2241 -1.8082 0.9562
10.8740 2.0094 -1.8080 0.9562
10.5932 3.1662 -1.8077 0.9562
10.3375 3.9175 -1.8075 0.9562
9.4682 5.6983 -1.8068 0.9562
7.8289 6.4009 -1.6534 0.9598
7.3480 6.9447 -1.6531 0.9598
6.8294 7.4524 -1.6527 0.9599
6.5568 7.6919 -1.6525 0.9599
6.2757 7.9214 -1.6524 0.9599
5.9867 8.1407 -1.6522 0.9599
5.6899 8.3494 -1.6520 0.9599
5.0750 8.7341 -1.6516 0.9599
4.7577 8.9096 -1.6514 0.9599
4.1052 9.2257 -1.6510 0.9599
3.7709 9.3660 -1.6508 0.9599
3.4319 9.4942 -1.6506 0.9599
2.7412 9.7135 -1.6502 0.9599
2.3904 9.8044 -1.6500 0.9599
2.0367 9.8827 -1.6498 0.9599
1.6805 9.9482 -1.6496 0.9599
1.3221 10.0009 -1.6494 0.9599
0.6010 10.0675 -1.6490 0.9599
0.2392 10.0813 -1.6488 0.9600
-0.1228 10.0822 -1.6486 0.9600
-1.2055 10.0070 -1.6480 0.9600
-1.5638 9.9561 -1.6478 0.9600
-1.9199 9.8924 -1.6476 0.9600
-3.9876 9.2474 -1.6465 0.9600
-4.3165 9.0973 -1.6464 0.9600
-4.6399 8.9357 -1.6462 0.9600
-5.5721 8.3828 -1.6458 0.9600
-3.6163 4.6745 -0.9663 0.9763
-3.7815 4.5413 -0.9662 0.9763
-6.7123 7.4966 -1.6452 0.9600
-7.2319 6.9947 -1.6450 0.9600
-7.7141 6.4571 -1.6448 0.9600
-7.9405 6.1756 -1.6447 0.9600
-8.5572 5.2855 -1.6445 0.9601
-9.0749 4.3344 -1.6443 0.9601
-10.3640 3.6415 -1.7961 0.9565
-10.4879 3.2670 -1.7960 0.9565
-10.6951 2.5061 -1.7960 0.9565
-10.9712 0.5562 -1.7961 0.9565
-10.9683 -0.6265 -1.7962 0.9564
-10.9391 -1.0199 -1.7963 0.9564
-10.8386 -1.8022 -1.7965 0.9564
-10.6825 -2.5755 -1.7966 0.9564
-10.5837 -2.9575 -1.7967 0.9564
-10.4714 -3.3357 -1.7968 0.9564
-10.2064 -4.0789 -1.7971 0.9564
-10.0541 -4.4429 -1.7972 0.9564
-9.8889 -4.8013 -1.7973 0.9564
-9.5204 -5.4993 -1.7976 0.9564
-9.3177 -5.8380 -1.7978 0.9564
-9.1029 -6.1693 -1.7979 0.9564
-7.2296 -6.1307 -1.5498 0.9623
-6.7165 -6.1234 -1.4860 0.9638
-4.4982 -6.3525 -1.2727 0.9689
-4.3368 -6.6160 -1.2934 0.9684
-5.3605 -9.6188 -1.8004 0.9563
-4.6577 -9.9810 -1.8008 0.9563
-4.2969 -10.1430 -1.8011 0.9563
-3.9305 -10.2920 -1.8013 0.9563
-2.9570 -9.8017 -1.6739 0.9594
-2.8024 -10.6588 -1.8019 0.9563
-0.7798 -10.0319 -1.8030 0.9599
-0.0581 -10.0642 -1.8034 0.9599
0.6643 -10.0447 -1.8038 0.9599
2.0960 -9.8504 -1.8046 0.9599
2.4485 -9.7698 -1.8047 0.9599
2.7979 -9.6766 -1.8049 0.9599
3.1437 -9.5709 -1.8051 0.9599
3.4856 -9.4528 -1.8053 0.9599
4.1556 -9.1801 -1.8056 0.9599
4.8044 -8.8598 -1.8059 0.9599
5.4285 -8.4937 -1.8062 0.9599
5.7304 -8.2940 -1.8064 0.9599
6.0249 -8.0836 -1.8065 0.9599
6.5903 -7.6316 -1.8068 0.9599
6.8604 -7.3906 -1.8069 0.9598
7.1218 -7.1400 -1.8070 0.9598
7.3739 -6.8802 -1.8071 0.9598
7.6166 -6.6115 -1.8072 0.9598
8.0721 -6.0486 -1.8074 0.9598
8.4860 -5.4543 -1.8076 0.9598
9.1805 -4.1842 -1.8078 0.9598
9.8634 -2.1252 -1.8079 0.9598
9.9333 -1.7698 -1.8079 0.9598
9.9904 -1.4120 -1.8079 0.9598
10.0657 -0.6916 -1.8079 0.9598
10.0601 0.7561 -1.8077 0.9598
9.9194 1.8330 -1.8075 0.9598
9.8467 2.1877 -1.8074 0.9598
9.5530 3.2331 -1.8071 0.9598
9.4302 3.5737 -1.8070 0.9598
9.1483 4.2405 -1.8068 0.9599
8.9896 4.5659 -1.8067 0.9599
8.8192 4.8853 -1.8065 0.9599
8.2410 5.8037 -1.8061 0.9599
7.1422 5.8395 -1.6531 0.9632
6.4713 6.5716 -1.6526 0.9632
5.9820 7.0176 -1.6523 0.9632
5.4620 7.4272 -1.6520 0.9632
4.9140 7.7983 -1.6516 0.9632
4.3409 8.1290 -1.6513 0.9632
4.0458 8.2787 -1.6511 0.9632
3.7456 8.4176 -1.6509 0.9633
2.1812 8.9462 -1.6500 0.9633
1.2064 9.1257 -1.6494 0.9633
0.8779 9.1621 -1.6492 0.9633
-1.4271 9.0856 -1.6480 0.9633
-3.0249 8.6804 -1.6471 0.9633
-3.3342 8.5654 -1.6470 0.9633
-3.6392 8.4394 -1.6468 0.9633
-3.9394 8.3025 -1.6467 0.9633
-3.5579 4.5991 -1.0419 0.9766
-3.7252 4.4737 -1.0432 0.9766
-6.1263 6.8421 -1.6456 0.9634
-6.8251 6.1427 -1.6453 0.9634
-7.6325 5.1016 -1.6450 0.9634
-7.9782 4.5405 -1.6449 0.9634
-8.8014 4.2039 -1.7477 0.9611
-9.1765 3.9850 -1.7926 0.9602
-9.5727 2.9820 -1.7966 0.9601
-9.7619 2.2874 -1.7966 0.9601
-9.8377 1.9355 -1.7966 0.9601
-2.0521 0.1781 -0.3691 0.9917
-2.0246 -0.0428 -0.3629 0.9918
-2.0449 -0.1168 -0.3670 0.9917
-2.0516 -0.1913 -0.3692 0.9917
-9.8927 -1.6450 -1.7970 0.9601
-9.7500 -2.3507 -1.7971 0.9601
-9.3153 -3.7228 -1.7975 0.9601
-8.6890 -5.0191 -1.7980 0.9600
-8.5039 -5.3282 -1.7982 0.9600
-8.1010 -5.9255 -1.7985 0.9600
-7.8838 -6.2130 -1.7986 0.9600
-7.6564 -6.4926 -1.7988 0.9600
-5.8009 -6.1063 -1.5092 0.9664
-5.0237 -6.1124 -1.4177 0.9684
-4.3645 -6.6582 -1.4265 0.9682
-5.2031 -8.5955 -1.8004 0.9600
-4.5740 -8.9485 -1.8008 0.9600
-4.2503 -9.1079 -1.8010 0.9600
-3.9210 -9.2557 -1.8012 0.9600
-1.8531 -9.8866 -1.8024 0.9599
-1.1393 -9.9963 -1.8028 0.9599
-0.7167 -9.2201 -1.8029 0.9630
-0.0534 -9.2496 -1.8033 0.9630
0.6105 -9.2315 -1.8037 0.9630
1.5999 -9.1151 -1.8042 0.9630
1.9262 -9.0526 -1.8044 0.9630
2.2501 -8.9785 -1.8045 0.9630
2.8890 -8.7955 -1.8049 0.9630
3.2032 -8.6869 -1.8050 0.9630
3.8188 -8.4362 -1.8053 0.9630
4.1196 -8.2943 -1.8055 0.9630
5.2659 -7.6217 -1.8060 0.9630
6.7759 -6.3223 -1.8067 0.9629
7.7977 -5.0119 -1.8071 0.9629
8.1377 -4.4398 -1.8073 0.9629
8.2921 -4.1450 -1.8073 0.9629
8.5685 -3.5395 -1.8074 0.9629
8.6901 -3.2297 -1.8074 0.9629
8.8996 -2.5980 -1.8075 0.9629
9.1274 -1.6262 -1.8075 0.9629
9.2204 -0.9671 -1.8074 0.9629
9.2658 -0.3031 -1.8074 0.9629
9.2705 0.0297 -1.8073 0.9629
9.1697 1.3561 -1.8071 0.9629
9.1148 1.6843 -1.8071 0.9629
8.7783 2.9709 -1.8067 0.9629
8.6655 3.2839 -1.8066 0.9629
8.5415 3.5927 -1.8065 0.9629
8.1042 4.4892 -1.8062 0.9629
7.7601 5.0584 -1.8059 0.9630
7.3520 5.5830 -1.7997 0.9631
6.3661 5.5979 -1.6527 0.9660
6.1605 5.8223 -1.6525 0.9660
5.9470 6.0392 -1.6524 0.9660
3.4425 7.7363 -1.6508 0.9661
3.1622 7.8541 -1.6506 0.9661
2.2988 8.1460 -1.6501 0.9661
2.0047 8.2224 -1.6500 0.9661
1.7081 8.2882 -1.6498 0.9661
1.1088 8.3876 -1.6494 0.9661
-1.0112 8.3939 -1.6483 0.9661
-1.3117 8.3514 -1.6481 0.9661
-1.6105 8.2981 -1.6480 0.9661
-1.9072 8.2342 -1.6478 0.9661
-2.2013 8.1597 -1.6476 0.9661
-2.7806 7.9792 -1.6473 0.9662
-3.3453 7.7579 -1.6471 0.9662
-3.8926 7.4966 -1.6468 0.9662
-4.1589 7.3515 -1.6467 0.9662
-4.9240 6.8603 -1.6463 0.9662
-3.5542 4.5942 -1.1324 0.9766
-5.6319 6.2899 -1.6460 0.9662
-5.8537 6.0833 -1.6459 0.9662
-6.0679 5.8690 -1.6458 0.9662
-6.2743 5.6471 -1.6457 0.9662
-6.4727 5.4179 -1.6456 0.9662
-6.6627 5.1818 -1.6455 0.9662
-6.8441 4.9391 -1.6455 0.9662
-7.1803 4.4350 -1.6453 0.9662
-7.4152 4.2201 -1.6634 0.9658
-8.0388 4.2004 -1.7683 0.9637
-8.6966 3.0556 -1.7971 0.9631
-1.7560 0.4786 -0.3548 0.9926
-1.7138 0.3372 -0.3405 0.9929
-1.6983 0.2712 -0.3353 0.9930
-1.7039 0.2097 -0.3347 0.9930
-1.7073 0.1482 -0.3341 0.9930
-1.7084 0.0866 -0.3335 0.9931
-1.7072 0.0252 -0.3329 0.9931
-1.7084 -0.0976 -0.3336 0.9931
-1.6971 -0.2822 -0.3354 0.9930
-1.7395 -0.4194 -0.3489 0.9927
-8.6804 -3.1126 -1.7978 0.9631
-8.2970 -4.0284 -1.7981 0.9631
-8.1476 -4.3239 -1.7982 0.9631
-7.8174 -4.8980 -1.7985 0.9631
-7.6371 -5.1759 -1.7986 0.9631
-7.4470 -5.4471 -1.7988 0.9631
-7.2472 -5.7114 -1.7989 0.9631
-7.0381 -5.9683 -1.7990 0.9631
-6.5929 -6.4590 -1.7994 0.9631
-6.3573 -6.6921 -1.7995 0.9631
-5.6026 -7.3387 -1.8000 0.9631
-5.3361 -7.5358 -1.8002 0.9631
-4.7826 -7.9008 -1.8005 0.9631
-4.4963 -8.0682 -1.8007 0.9631
-3.9067 -8.3717 -1.8011 0.9631
-2.9850 -8.7458 -1.8016 0.9630
-2.6694 -8.8482 -1.8018 0.9630
-2.0281 -9.0188 -1.8022 0.9630
-1.7032 -9.0868 -1.8024 0.9630
-1.0471 -9.1875 -1.8027 0.9630
-0.6628 -8.5260 -1.8029 0.9656
0.5645 -8.5363 -1.8036 0.9656
0.8707 -8.5113 -1.8037 0.9656
2.3775 -8.2227 -1.8045 0.9656
2.6713 -8.1328 -1.8047 0.9656
3.8090 -7.6691 -1.8052 0.9656
4.0822 -7.5280 -1.8054 0.9656
4.3501 -7.3772 -1.8055 0.9656
5.1190 -6.8682 -1.8059 0.9656
5.3626 -6.6804 -1.8060 0.9656
5.5992 -6.4840 -1.8061 0.9656
5.8287 -6.2792 -1.8062 0.9656
6.0507 -6.0662 -1.8063 0.9656
6.4709 -5.6170 -1.8065 0.9656
6.6687 -5.3814 -1.8066 0.9656
7.0382 -4.8894 -1.8067 0.9656
7.2094 -4.6338 -1.8068 0.9656
7.3713 -4.3722 -1.8068 0.9656
7.7992 -3.5547 -1.8070 0.9656
8.0345 -2.9860 -1.8070 0.9656
8.3091 -2.1050 -1.8071 0.9656
8.3793 -1.8054 -1.8071 0.9656
8.4387 -1.5035 -1.8071 0.9656
8.5512 -0.5876 -1.8070 0.9656
8.5644 0.3351 -1.8069 0.9656
8.5466 0.6423 -1.8069 0.9656
8.4780 1.2538 -1.8068 0.9656
8.4272 1.5572 -1.8067 0.9656
8.3656 1.8587 -1.8066 0.9656
8.2099 2.4539 -1.8065 0.9656
8.1162 2.7468 -1.8064 0.9656
8.0119 3.0363 -1.8063 0.9656
7.8973 3.3217 -1.8062 0.9656
7.6378 3.8793 -1.8060 0.9656
7.4932 4.1507 -1.8059 0.9656
7.1751 4.6770 -1.8056 0.9656
7.0021 4.9312 -1.8055 0.9656
5.6962 5.3836 -1.6523 0.9685
5.2944 5.7774 -1.6521 0.9685
4.8654 6.1413 -1.6518 0.9685
4.1759 6.6270 -1.6513 0.9685
3.6890 6.9083 -1.6510 0.9685
2.6613 7.3624 -1.6504 0.9685
2.1258 7.5329 -1.6501 0.9685
1.5796 7.6645 -1.6498 0.9685
1.0254 7.7566 -1.6495 0.9685
0.7462 7.7877 -1.6493 0.9685
0.1856 7.8197 -1.6490 0.9685
-0.6560 7.7921 -1.6485 0.9685
-1.7638 7.6153 -1.6479 0.9686
-2.3052 7.4678 -1.6477 0.9686
-2.5716 7.3796 -1.6475 0.9686
-3.0939 7.1750 -1.6473 0.9686
-3.6002 6.9334 -1.6470 0.9686
-3.8465 6.7992 -1.6469 0.9686
-4.0878 6.6563 -1.6468 0.9686
-4.3238 6.5048 -1.6467 0.9686
-4.5542 6.3450 -1.6466 0.9686
-5.2090 5.8176 -1.6463 0.9686
-5.4142 5.6266 -1.6462 0.9686
-5.8033 5.2231 -1.6460 0.9686
-6.1625 4.7928 -1.6459 0.9686
-7.3744 4.1969 -1.7888 0.9659
-7.6939 3.6749 -1.7975 0.9657
-7.8207 3.3962 -1.7975 0.9657
-1.6255 0.5711 -0.3632 0.9930
-1.6130 0.5025 -0.3562 0.9931
-1.5663 0.3082 -0.3365 0.9935
-1.5642 0.2498 -0.3340 0.9935
-1.5696 0.1932 -0.3334 0.9936
-1.5727 0.1365 -0.3328 0.9936
-1.5731 0.0232 -0.3317 0.9936
-1.5739 -0.0899 -0.3324 0.9936
-1.5723 -0.1466 -0.3329 0.9936
-1.5865 -0.3825 -0.3441 0.9934
-1.6275 -0.5836 -0.3645 0.9930
-7.3878 -4.2674 -1.7987 0.9657
-7.0635 -4.7871 -1.7989 0.9657
-6.7028 -5.2823 -1.7992 0.9657
-6.5094 -5.5199 -1.7993 0.9657
-6.0975 -5.9737 -1.7996 0.9657
-5.4029 -6.1125 -1.7199 0.9672
-4.9350 -6.9694 -1.8003 0.9657
-4.4230 -7.3068 -1.8007 0.9657
-3.6129 -7.7421 -1.8012 0.9657
-3.3329 -7.8675 -1.8013 0.9657
-3.0487 -7.9828 -1.8015 0.9657
-2.4685 -8.1825 -1.8018 0.9657
-2.1734 -8.2667 -1.8020 0.9657
-1.8755 -8.3402 -1.8022 0.9657
-1.5750 -8.4029 -1.8024 0.9657
-1.2725 -8.4549 -1.8025 0.9657
-0.9683 -8.4959 -1.8027 0.9656
-0.0459 -7.9507 -1.8031 0.9679
0.5248 -7.9349 -1.8035 0.9679
1.3751 -7.8345 -1.8039 0.9679
1.6556 -7.7807 -1.8041 0.9679
1.9340 -7.7169 -1.8042 0.9679
2.4830 -7.5594 -1.8045 0.9679
2.7530 -7.4660 -1.8046 0.9679
3.0195 -7.3629 -1.8048 0.9679
3.2821 -7.2503 -1.8049 0.9679
3.7943 -6.9972 -1.8052 0.9679
4.0433 -6.8569 -1.8053 0.9679
4.5254 -6.5500 -1.8055 0.9679
4.7579 -6.3837 -1.8056 0.9679
4.9843 -6.2092 -1.8057 0.9679
5.2042 -6.0266 -1.8058 0.9679
5.4175 -5.8362 -1.8059 0.9679
5.8228 -5.4330 -1.8061 0.9679
6.0144 -5.2207 -1.8062 0.9679
6.5415 -4.5444 -1.8064 0.9679
6.7006 -4.3068 -1.8064 0.9679
6.9928 -3.8152 -1.8065 0.9679
7.5623 -2.5055 -1.8067 0.9679
7.6474 -2.2324 -1.8067 0.9679
7.7227 -1.9565 -1.8067 0.9679
7.7879 -1.6780 -1.8067 0.9679
7.8431 -1.3974 -1.8067 0.9679
7.8882 -1.1149 -1.8067 0.9679
7.9621 -0.2604 -1.8067 0.9679
7.9662 0.0255 -1.8066 0.9679
7.9599 0.3115 -1.8066 0.9679
7.9434 0.5970 -1.8065 0.9679
7.8797 1.1653 -1.8064 0.9679
7.7752 1.7275 -1.8063 0.9679
7.7079 2.0054 -1.8062 0.9679
7.6307 2.2807 -1.8062 0.9679
7.0990 3.6057 -1.8057 0.9679
6.9646 3.8579 -1.8056 0.9679
6.8212 4.1052 -1.8055 0.9679
6.6691 4.3472 -1.8054 0.9679
6.0508 4.9471 -1.7725 0.9685
5.1112 5.1904 -1.6520 0.9706
4.7249 5.5429 -1.6518 0.9706
4.1006 6.0173 -1.6514 0.9706
3.8817 6.1601 -1.6512 0.9706
3.6577 6.2949 -1.6511 0.9706
3.1961 6.5400 -1.6508 0.9706
2.9591 6.6499 -1.6507 0.9706
2.7182 6.7512 -1.6505 0.9706
2.4739 6.8438 -1.6504 0.9706
2.2264 6.9276 -1.6502 0.9706
1.7233 7.0683 -1.6499 0.9706
1.4684 7.1249 -1.6498 0.9706
0.9532 7.2106 -1.6495 0.9706
-0.0886 7.2702 -1.6489 0.9706
-0.3494 7.2618 -1.6488 0.9706
-0.6098 7.2439 -1.6486 0.9706
-1.1278 7.1803 -1.6484 0.9706
-1.3847 7.1346 -1.6482 0.9706
-2.1431 6.9427 -1.6478 0.9706
-2.6353 6.7700 -1.6476 0.9706
-3.5761 6.3213 -1.6471 0.9707
-4.0199 6.0477 -1.6469 0.9707
-4.2342 5.8991 -1.6468 0.9707
-5.3956 4.8562 -1.6463 0.9707
-5.7296 4.4562 -1.6461 0.9707
-5.8857 4.2475 -1.6461 0.9707
-6.2992 4.2105 -1.7183 0.9694
-6.7196 4.1505 -1.7912 0.9681
-7.1535 3.4167 -1.7979 0.9680
-7.2714 3.1577 -1.7978 0.9680
-1.4872 0.5226 -0.3575 0.9936
-1.4420 0.2837 -0.3333 0.9940
-1.4542 0.1790 -0.3323 0.9940
-1.4573 0.1265 -0.3317 0.9940
-1.4585 0.0739 -0.3312 0.9940
-1.4578 0.0215 -0.3307 0.9940
-1.4569 -0.1358 -0.3318 0.9940
-1.4534 -0.1883 -0.3324 0.9940
-1.4440 -0.2937 -0.3342 0.9940
-1.4695 -0.4106 -0.3460 0.9938
-1.4800 -0.4715 -0.3523 0.9936
-1.4952 -0.5975 -0.3652 0.9934
-7.2541 -3.2056 -1.7986 0.9680
-6.7222 -4.2118 -1.7990 0.9680
-5.8641 -5.3462 -1.7996 0.9680
-5.4662 -5.7540 -1.7999 0.9680
-5.2565 -5.9470 -1.8000 0.9680
-4.8171 -6.3098 -1.8003 0.9680
-4.5879 -6.4792 -1.8005 0.9680
-4.3527 -6.6402 -1.8006 0.9680
-4.1119 -6.7927 -1.8008 0.9680
-3.0984 -7.3138 -1.8014 0.9679
-2.5661 -7.5186 -1.8017 0.9679
-2.2948 -7.6066 -1.8019 0.9679
-2.0204 -7.6847 -1.8020 0.9679
-1.7434 -7.7530 -1.8022 0.9679
-0.9001 -7.8976 -1.8027 0.9679
-0.5753 -7.4007 -1.8028 0.9699
-0.3093 -7.4172 -1.8029 0.9699
-0.0428 -7.4241 -1.8031 0.9699
0.4900 -7.4093 -1.8034 0.9699
1.0205 -7.3562 -1.8037 0.9699
1.2840 -7.3154 -1.8038 0.9699
1.8058 -7.2055 -1.8041 0.9699
2.0635 -7.1366 -1.8042 0.9699
2.3185 -7.0584 -1.8043 0.9699
2.5705 -6.9712 -1.8045 0.9699
2.8193 -6.8749 -1.8046 0.9699
3.3057 -6.6558 -1.8048 0.9699
3.5427 -6.5332 -1.8050 0.9699
4.0028 -6.2630 -1.8052 0.9699
4.2253 -6.1156 -1.8053 0.9699
4.4424 -5.9604 -1.8054 0.9699
5.0582 -5.4491 -1.8057 0.9699
5.6154 -4.8744 -1.8059 0.9699
5.7870 -4.6698 -1.8060 0.9699
6.1075 -4.2429 -1.8061 0.9699
6.2561 -4.0211 -1.8062 0.9699
6.3966 -3.7940 -1.8062 0.9699
6.5288 -3.5621 -1.8063 0.9698
6.6526 -3.3255 -1.8063 0.9698
6.7678 -3.0846 -1.8063 0.9698
6.8743 -2.8397 -1.8064 0.9698
7.1400 -2.0843 -1.8064 0.9698
7.2712 -1.5667 -1.8064 0.9698
7.4318 0.2908 -1.8063 0.9698
7.3129 1.3513 -1.8061 0.9699
7.2594 1.6129 -1.8060 0.9699
7.1966 1.8724 -1.8060 0.9699
7.1245 2.1294 -1.8059 0.9699
6.9527 2.6349 -1.8058 0.9699
6.8534 2.8826 -1.8057 0.9699
6.7451 3.1266 -1.8056 0.9699
6.6282 3.3665 -1.8055 0.9699
6.5027 3.6021 -1.8054 0.9699
6.3689 3.8330 -1.8053 0.9699
5.9138 4.4908 -1.8034 0.9699
5.7347 4.6886 -1.7990 0.9700
4.9436 4.6723 -1.6520 0.9724
3.6245 5.7519 -1.6511 0.9724
3.2020 5.9962 -1.6509 0.9724
2.0790 6.4689 -1.6502 0.9724
1.1314 6.6976 -1.6497 0.9724
0.8902 6.7334 -1.6495 0.9724
0.4047 6.7788 -1.6492 0.9724
0.1611 6.7883 -1.6491 0.9724
-0.3263 6.7813 -1.6488 0.9724
-1.0532 6.7053 -1.6484 0.9724
-1.2931 6.6627 -1.6483 0.9724
-1.5313 6.6115 -1.6482 0.9725
-2.0014 6.4836 -1.6480 0.9725
-2.2327 6.4071 -1.6478 0.9725
-2.4611 6.3224 -1.6477 0.9725
-2.9079 6.1287 -1.6475 0.9725
-3.1259 6.0200 -1.6474 0.9725
-3.5493 5.7795 -1.6472 0.9725
-3.7542 5.6480 -1.6471 0.9725
-3.9543 5.5093 -1.6470 0.9725
-3.5428 4.5795 -1.4062 0.9764
-3.7122 4.4582 -1.4089 0.9764
-4.7012 4.8856 -1.6467 0.9725
-4.8733 4.7135 -1.6466 0.9725
-5.0391 4.5353 -1.6465 0.9725
-5.4259 4.2199 -1.6694 0.9721
-6.1357 4.1012 -1.7924 0.9701
-6.2915 3.8860 -1.7959 0.9700
-6.6810 3.1911 -1.7982 0.9700
-1.3767 0.5979 -0.3645 0.9938
-1.3554 0.3694 -0.3412 0.9942
-1.3456 0.3153 -0.3356 0.9943
-1.3423 0.2641 -0.3323 0.9944
-1.3491 0.2154 -0.3318 0.9944
-1.3570 0.1178 -0.3308 0.9944
-1.3583 0.0689 -0.3303 0.9944
-1.3566 -0.1265 -0.3309 0.9944
-1.3532 -0.1754 -0.3314 0.9944
-1.3480 -0.2241 -0.3319 0.9944
-1.3475 -0.3249 -0.3366 0.9943
-1.3570 -0.3792 -0.3422 0.9942
-1.3649 -0.4348 -0.3479 0.9941
-1.3749 -0.5495 -0.3596 0.9939
-1.3769 -0.6085 -0.3656 0.9938
-6.6633 -3.2352 -1.7989 0.9700
-6.2779 -3.9334 -1.7992 0.9700
-5.6517 -4.7926 -1.7997 0.9700
-5.4764 -4.9928 -1.7998 0.9700
-5.2940 -5.1865 -1.7999 0.9700
-4.4985 -5.8925 -1.8004 0.9699
-4.2844 -6.0506 -1.8006 0.9699
-4.0648 -6.2010 -1.8007 0.9699
-3.8399 -6.3434 -1.8009 0.9699
-3.6100 -6.4777 -1.8010 0.9699
-3.3754 -6.6036 -1.8011 0.9699
-3.1364 -6.7211 -1.8013 0.9699
-2.8934 -6.8299 -1.8014 0.9699
-2.6466 -6.9299 -1.8016 0.9699
-2.3963 -7.0210 -1.8017 0.9699
-1.8867 -7.1761 -1.8020 0.9699
-0.0402 -6.9598 -1.8030 0.9717
0.2097 -6.9573 -1.8032 0.9716
0.7084 -6.9253 -1.8034 0.9716
1.2036 -6.8576 -1.8037 0.9716
1.4491 -6.8105 -1.8038 0.9716
2.1734 -6.6166 -1.8042 0.9716
2.4096 -6.5348 -1.8043 0.9716
2.8726 -6.3459 -1.8046 0.9716
3.5388 -6.0014 -1.8049 0.9716
3.7522 -5.8708 -1.8050 0.9716
4.1642 -5.5871 -1.8052 0.9716
4.9219 -4.9345 -1.8055 0.9716
5.0960 -4.7549 -1.8056 0.9716
5.5783 -4.1799 -1.8058 0.9716
5.7249 -3.9771 -1.8059 0.9716
5.8642 -3.7692 -1.8059 0.9716
6.2358 -3.1171 -1.8060 0.9716
6.3438 -2.8913 -1.8061 0.9716
6.7585 -1.7122 -1.8062 0.9716
6.8156 -1.4685 -1.8062 0.9716
6.8639 -1.2229 -1.8062 0.9716
6.9033 -0.9757 -1.8062 0.9716
6.9339 -0.7273 -1.8061 0.9716
6.9662 0.2726 -1.8060 0.9716
6.9283 0.7716 -1.8060 0.9716
6.8548 1.2667 -1.8059 0.9716
6.8047 1.5119 -1.8058 0.9716
6.6782 1.9960 -1.8057 0.9716
6.5172 2.4698 -1.8055 0.9716
6.4241 2.7021 -1.8055 0.9716
6.3227 2.9308 -1.8054 0.9716
5.9701 3.5930 -1.8051 0.9716
5.6963 4.0116 -1.8049 0.9716
5.5483 4.2132 -1.8048 0.9716
4.7487 4.4881 -1.6927 0.9734
4.4737 4.5430 -1.6518 0.9740
4.3074 4.7004 -1.6516 0.9740
3.9585 4.9966 -1.6514 0.9740
3.5893 5.2670 -1.6512 0.9740
3.2017 5.5101 -1.6509 0.9740
3.0017 5.6211 -1.6508 0.9740
2.3794 5.9098 -1.6504 0.9740
1.9490 6.0644 -1.6502 0.9740
1.7299 6.1300 -1.6501 0.9740
1.5086 6.1876 -1.6499 0.9740
0.8345 6.3125 -1.6495 0.9740
-0.0775 6.3650 -1.6490 0.9740
-0.3059 6.3576 -1.6489 0.9740
-0.5339 6.3420 -1.6488 0.9740
-0.7612 6.3183 -1.6487 0.9740
-1.2123 6.2465 -1.6484 0.9741
-1.8764 6.0787 -1.6481 0.9741
-2.0933 6.0070 -1.6480 0.9741
-2.5185 5.8406 -1.6477 0.9741
-2.7264 5.7460 -1.6476 0.9741
-2.9307 5.6441 -1.6475 0.9741
-3.1312 5.5350 -1.6474 0.9741
-3.3277 5.4187 -1.6473 0.9741
-3.5199 5.2954 -1.6473 0.9741
-3.5390 4.5745 -1.4983 0.9764
-4.2407 4.7362 -1.6469 0.9741
-4.4078 4.5807 -1.6468 0.9741
-4.7247 4.2523 -1.6467 0.9741
-5.6139 4.0513 -1.7935 0.9718
-6.0336 3.4338 -1.7985 0.9717
-6.1529 3.2150 -1.7984 0.9717
-1.2874 0.4524 -0.3535 0.9944
-1.2846 0.4001 -0.3485 0.9945
-1.2805 0.3490 -0.3438 0.9945
-1.2765 0.2991 -0.3397 0.9946
-1.2799 0.2518 -0.3379 0.9946
-1.2909 0.0191 -0.3344 0.9947
-1.2910 -0.0273 -0.3345 0.9947
-1.2909 -0.0737 -0.3350 0.9947
-1.2896 -0.1202 -0.3355 0.9947
-1.2872 -0.1668 -0.3363 0.9947
-1.2837 -0.2134 -0.3371 0.9946
-1.2790 -0.2601 -0.3381 0.9946
-1.2771 -0.3079 -0.3403 0.9946
-1.2851 -0.4094 -0.3494 0.9944
-1.2892 -0.5152 -0.3597 0.9943
-6.0143 -3.4740 -1.7993 0.9717
-5.8860 -3.6879 -1.7994 0.9717
-5.7501 -3.8970 -1.7995 0.9717
-5.6069 -4.1011 -1.7996 0.9717
-5.4564 -4.3000 -1.7997 0.9717
-5.2988 -4.4934 -1.7998 0.9717
-5.1344 -4.6810 -1.7999 0.9717
-4.9634 -4.8626 -1.8001 0.9717
-4.7860 -5.0380 -1.8002 0.9717
-4.4128 -5.3691 -1.8004 0.9717
-4.0168 -5.6726 -1.8007 0.9717
-3.6000 -5.9471 -1.8009 0.9717
-3.1645 -6.1910 -1.8012 0.9717
-2.9404 -6.3011 -1.8014 0.9717
-2.7125 -6.4030 -1.8015 0.9717
-2.0089 -6.6591 -1.8019 0.9717
-1.7688 -6.7274 -1.8021 0.9717
-1.2817 -6.8381 -1.8023 0.9717
-1.0355 -6.8802 -1.8025 0.9717
-0.7879 -6.9135 -1.8026 0.9717
-0.5073 -6.5265 -1.8027 0.9732
-0.2728 -6.5409 -1.8029 0.9732
-0.0378 -6.5470 -1.8030 0.9732
0.1973 -6.5446 -1.8031 0.9732
0.6664 -6.5145 -1.8034 0.9732
1.3632 -6.4064 -1.8037 0.9732
1.8195 -6.2930 -1.8040 0.9732
2.4860 -6.0620 -1.8043 0.9732
2.9148 -5.8687 -1.8045 0.9732
3.1238 -5.7607 -1.8046 0.9732
3.3287 -5.6451 -1.8047 0.9732
3.5294 -5.5223 -1.8048 0.9732
3.7256 -5.3923 -1.8049 0.9732
4.1033 -5.1116 -1.8051 0.9732
4.2843 -4.9613 -1.8052 0.9732
4.4598 -4.8045 -1.8053 0.9732
4.6296 -4.6415 -1.8053 0.9732
4.7934 -4.4725 -1.8054 0.9732
4.9510 -4.2977 -1.8055 0.9732
5.1023 -4.1173 -1.8055 0.9732
5.2470 -3.9317 -1.8056 0.9732
5.8654 -2.9320 -1.8058 0.9732
5.9670 -2.7196 -1.8058 0.9732
6.5541 -0.2144 -1.8059 0.9732
6.5575 0.0210 -1.8058 0.9732
6.5524 0.2564 -1.8058 0.9732
6.4864 0.9592 -1.8057 0.9732
6.3451 1.6508 -1.8055 0.9732
6.2816 1.8775 -1.8055 0.9732
6.2099 2.1017 -1.8054 0.9732
6.1302 2.3232 -1.8053 0.9732
6.0426 2.5416 -1.8053 0.9732
5.7336 3.1760 -1.8050 0.9732
5.6156 3.3796 -1.8049 0.9732
5.4904 3.5789 -1.8048 0.9732
5.3581 3.7734 -1.8047 0.9732
5.0705 4.1456 -1.8036 0.9732
4.3199 4.3868 -1.6955 0.9748
3.5523 4.8304 -1.6512 0.9754
3.1962 5.0722 -1.6510 0.9754
3.0118 5.1833 -1.6509 0.9754
2.8236 5.2877 -1.6508 0.9754
2.6318 5.3852 -1.6506 0.9754
2.4366 5.4758 -1.6505 0.9754
2.0372 5.6357 -1.6503 0.9754
1.6273 5.7665 -1.6500 0.9754
1.4192 5.8208 -1.6499 0.9754
0.9978 5.9067 -1.6497 0.9755
0.7850 5.9383 -1.6496 0.9755
0.3569 5.9785 -1.6493 0.9755
0.1421 5.9870 -1.6492 0.9755
-0.2878 5.9809 -1.6490 0.9755
-0.5023 5.9663 -1.6488 0.9755
-0.7161 5.9440 -1.6487 0.9755
-1.3506 5.8314 -1.6484 0.9755
-1.7653 5.7187 -1.6482 0.9755
-3.1307 5.0979 -1.6475 0.9755
-3.3115 4.9820 -1.6474 0.9755
-3.4881 4.8596 -1.6473 0.9755
-3.5351 4.5696 -1.5910 0.9763
-3.7056 4.4502 -1.5948 0.9763
-3.9897 4.4559 -1.6471 0.9755
-4.1469 4.3096 -1.6470 0.9755
-4.3631 4.2200 -1.6716 0.9751
-4.6761 4.2086 -1.7325 0.9742
-5.1441 4.0008 -1.7946 0.9733
-5.2933 3.8199 -1.7976 0.9733
-5.6766 3.2307 -1.7987 0.9733
-1.2200 0.6375 -0.3791 0.9943
-1.2235 0.5844 -0.3734 0.9944
-1.2255 0.5322 -0.3679 0.9945
-1.2235 0.3811 -0.3529 0.9947
-1.2212 0.2862 -0.3454 0.9948
-1.2312 0.1967 -0.3434 0.9948
-1.2346 0.1519 -0.3425 0.9949
-1.2368 0.1073 -0.3419 0.9949
-1.2379 0.0628 -0.3413 0.9949
-1.2378 -0.0262 -0.3409 0.9949
-1.2206 -0.2943 -0.3458 0.9948
-1.2223 -0.3416 -0.3495 0.9947
-1.2256 -0.4395 -0.3586 0.9946
-1.2261 -0.4900 -0.3636 0.9945
-1.2252 -0.5414 -0.3689 0.9945
-1.2230 -0.5938 -0.3744 0.9944
-1.2193 -0.6471 -0.3801 0.9943
-5.6583 -3.2684 -1.7995 0.9733
-5.5376 -3.4696 -1.7996 0.9733
-5.2749 -3.8584 -1.7998 0.9732
-5.1333 -4.0455 -1.7999 0.9732
-4.9851 -4.2274 -1.8000 0.9732
-4.3298 -4.8985 -1.8004 0.9732
-4.1514 -5.0511 -1.8005 0.9732
-3.9677 -5.1972 -1.8007 0.9732
-3.5851 -5.4692 -1.8009 0.9732
-3.3867 -5.5948 -1.8010 0.9732
-3.1839 -5.7131 -1.8011 0.9732
-2.9770 -5.8242 -1.8013 0.9732
-2.7662 -5.9277 -1.8014 0.9732
-2.5518 -6.0236 -1.8015 0.9732
-2.3341 -6.1118 -1.8017 0.9732
-1.2057 -6.4327 -1.8023 0.9732
-0.9741 -6.4723 -1.8025 0.9732
-0.7412 -6.5036 -1.8026 0.9732
-0.4787 -6.1582 -1.8027 0.9746
-0.2574 -6.1719 -1.8028 0.9746
0.8491 -6.1207 -1.8034 0.9746
1.0683 -6.0866 -1.8035 0.9746
1.2862 -6.0448 -1.8037 0.9746
2.3456 -5.7197 -1.8042 0.9746
2.9474 -5.4353 -1.8045 0.9746
3.1408 -5.3263 -1.8046 0.9746
3.3301 -5.2104 -1.8047 0.9746
3.5151 -5.0877 -1.8048 0.9746
4.0423 -4.6810 -1.8050 0.9746
4.2079 -4.5330 -1.8051 0.9746
4.6713 -4.0549 -1.8053 0.9746
4.8140 -3.8847 -1.8053 0.9746
5.0806 -3.5295 -1.8055 0.9746
5.3210 -3.1560 -1.8055 0.9746
5.4310 -2.9631 -1.8056 0.9746
5.6298 -2.5659 -1.8056 0.9745
5.8732 -1.9458 -1.8057 0.9745
6.0913 -1.0852 -1.8057 0.9745
6.1263 -0.8659 -1.8057 0.9745
6.1837 -0.2023 -1.8057 0.9745
6.1485 0.6848 -1.8055 0.9746
6.1199 0.9050 -1.8055 0.9746
6.0833 1.1241 -1.8055 0.9746
5.9266 1.7714 -1.8053 0.9746
5.8590 1.9829 -1.8052 0.9746
5.7839 2.1919 -1.8052 0.9746
5.5140 2.8006 -1.8049 0.9746
5.4097 2.9966 -1.8049 0.9746
5.2984 3.1887 -1.8048 0.9746
5.0555 3.5603 -1.8046 0.9746
4.7865 3.9134 -1.8044 0.9746
3.9585 4.3197 -1.7100 0.9759
3.6706 4.3061 -1.6513 0.9767
3.5134 4.4348 -1.6512 0.9767
2.8418 4.8907 -1.6508 0.9767
1.7300 5.3829 -1.6501 0.9767
1.3391 5.4924 -1.6499 0.9767
0.9415 5.5736 -1.6497 0.9767
0.5391 5.6260 -1.6495 0.9767
0.3368 5.6413 -1.6493 0.9767
0.1341 5.6494 -1.6492 0.9767
-0.2716 5.6437 -1.6490 0.9767
-0.6757 5.6089 -1.6488 0.9767
-0.8765 5.5807 -1.6487 0.9767
-1.2745 5.5027 -1.6485 0.9767
-1.4711 5.4531 -1.6484 0.9767
-1.6658 5.3964 -1.6483 0.9767
-2.2359 5.1851 -1.6480 0.9767
-2.4204 5.1012 -1.6479 0.9767
-2.6019 5.0108 -1.6478 0.9767
-2.9544 4.8107 -1.6476 0.9768
-3.4539 4.4646 -1.6474 0.9768
-4.3454 4.2029 -1.7643 0.9751
-4.5667 4.1101 -1.7931 0.9747
-1.1604 0.6063 -0.3821 0.9946
-1.1687 0.4106 -0.3615 0.9949
-1.1697 0.3644 -0.3576 0.9949
-1.1695 0.3187 -0.3538 0.9950
-1.1720 0.2746 -0.3513 0.9950
-1.1775 0.2317 -0.3502 0.9950
-1.1852 0.1459 -0.3485 0.9950
-1.1884 0.0603 -0.3473 0.9951
-1.1884 -0.0251 -0.3469 0.9951
-1.1871 -0.1107 -0.3480 0.9950
-1.1847 -0.1535 -0.3486 0.9950
-1.1766 -0.2393 -0.3504 0.9950
-1.1709 -0.2823 -0.3515 0.9950
-1.1697 -0.3268 -0.3544 0.9950
-1.1696 -0.3726 -0.3582 0.9949
-1.1688 -0.4191 -0.3624 0.9948
-1.1684 -0.4669 -0.3672 0.9948
-1.1638 -0.5651 -0.3776 0.9946
-1.1595 -0.6153 -0.3831 0.9945
-5.3396 -3.0843 -1.7996 0.9746
-5.1050 -3.4598 -1.7998 0.9746
-4.9778 -3.6410 -1.7999 0.9746
-4.8441 -3.8175 -1.8000 0.9746
-4.7042 -3.9892 -1.8001 0.9746
-4.5583 -4.1557 -1.8002 0.9746
-4.4064 -4.3169 -1.8003 0.9746
-4.2488 -4.4725 -1.8004 0.9746
-3.9175 -4.7664 -1.8006 0.9746
-3.7441 -4.9043 -1.8007 0.9746
-3.3830 -5.1609 -1.8010 0.9746
-3.1958 -5.2794 -1.8011 0.9746
-2.8091 -5.4958 -1.8013 0.9746
-2.6102 -5.5935 -1.8015 0.9746
-2.4079 -5.6840 -1.8016 0.9746
-2.2025 -5.7671 -1.8017 0.9746
-1.9942 -5.8429 -1.8018 0.9746
-1.3548 -6.0246 -1.8022 0.9746
-1.1377 -6.0698 -1.8023 0.9746
-0.9192 -6.1072 -1.8024 0.9746
-0.6994 -6.1367 -1.8026 0.9746
-0.4529 -5.8265 -1.8027 0.9758
-0.2435 -5.8394 -1.8028 0.9758
-0.0337 -5.8448 -1.8029 0.9758
0.3858 -5.8329 -1.8031 0.9758
0.5949 -5.8156 -1.8032 0.9758
0.8033 -5.7909 -1.8034 0.9758
1.2169 -5.7190 -1.8036 0.9758
1.6243 -5.6176 -1.8038 0.9758
1.8250 -5.5560 -1.8039 0.9758
2.2192 -5.4114 -1.8041 0.9758
2.7885 -5.1423 -1.8044 0.9758
3.1505 -4.9294 -1.8046 0.9758
3.3256 -4.8134 -1.8046 0.9758
3.4964 -4.6911 -1.8047 0.9758
3.6627 -4.5628 -1.8048 0.9758
3.9809 -4.2886 -1.8049 0.9758
4.1325 -4.1430 -1.8050 0.9758
4.5544 -3.6752 -1.8052 0.9758
4.6835 -3.5094 -1.8052 0.9758
4.9234 -3.1645 -1.8053 0.9758
5.1380 -2.8032 -1.8054 0.9758
5.4098 -2.2347 -1.8055 0.9758
5.4866 -2.0391 -1.8055 0.9758
5.5563 -1.8409 -1.8055 0.9758
5.6189 -1.6402 -1.8055 0.9758
5.7221 -1.2329 -1.8055 0.9758
5.7627 -1.0267 -1.8055 0.9758
5.7958 -0.8192 -1.8055 0.9758
5.8395 -0.4012 -1.8055 0.9758
5.8501 -0.1914 -1.8055 0.9758
5.8365 0.4386 -1.8054 0.9758
5.8169 0.6478 -1.8054 0.9758
5.7131 1.2693 -1.8052 0.9758
5.6070 1.6759 -1.8051 0.9758
5.4719 2.0737 -1.8050 0.9758
5.3938 2.2687 -1.8049 0.9758
5.3087 2.4608 -1.8049 0.9758
5.1180 2.8350 -1.8047 0.9758
5.0127 3.0168 -1.8046 0.9758
4.9010 3.1947 -1.8046 0.9758
4.6587 3.5377 -1.8044 0.9758
4.5285 3.7025 -1.8043 0.9758
4.3924 3.8624 -1.8042 0.9758
4.2459 4.0128 -1.8021 0.9758
4.0925 4.1560 -1.7992 0.9759
3.6410 4.2714 -1.7313 0.9768
3.0141 4.4229 -1.6510 0.9778
2.6887 4.6272 -1.6508 0.9778
2.5207 4.7205 -1.6507 0.9778
2.3495 4.8076 -1.6506 0.9778
2.1753 4.8885 -1.6504 0.9779
1.6368 5.0930 -1.6501 0.9779
1.4528 5.1482 -1.6500 0.9779
1.2670 5.1967 -1.6499 0.9779
0.7009 5.3017 -1.6496 0.9779
0.5101 5.3231 -1.6495 0.9779
0.3187 5.3376 -1.6494 0.9779
-0.0651 5.3460 -1.6492 0.9779
-0.4484 5.3269 -1.6489 0.9779
-0.8294 5.2804 -1.6487 0.9779
-1.0183 5.2469 -1.6486 0.9779
-1.2059 5.2066 -1.6485 0.9779
-1.5762 5.1061 -1.6484 0.9779
-2.1156 4.9062 -1.6481 0.9779
-2.2903 4.8269 -1.6480 0.9779
-2.4619 4.7413 -1.6479 0.9779
-2.6304 4.6496 -1.6478 0.9779
-3.1146 4.3393 -1.6476 0.9779
-3.5111 4.2166 -1.6925 0.9773
-3.7671 4.2073 -1.7420 0.9766
-4.0283 4.1864 -1.7921 0.9760
-4.1815 4.0444 -1.7944 0.9759
-4.6044 3.5810 -1.7993 0.9759
-4.7299 3.4133 -1.7992 0.9759
-4.9623 3.0651 -1.7991 0.9759
-1.0997 0.6259 -0.3903 0.9947
-1.1191 0.3932 -0.3659 0.9950
-1.1206 0.3491 -0.3620 0.9951
-1.1209 0.3055 -0.3584 0.9951
-1.1316 0.2226 -0.3558 0.9952
-1.1360 0.1814 -0.3548 0.9952
-1.1414 0.0991 -0.3534 0.9952
-1.1422 0.0168 -0.3524 0.9952
-1.1424 -0.0242 -0.3524 0.9952
-1.1423 -0.0652 -0.3529 0.9952
-1.1411 -0.1064 -0.3535 0.9952
-1.1387 -0.1476 -0.3542 0.9952
-1.1307 -0.2300 -0.3559 0.9952
-1.1251 -0.2712 -0.3570 0.9952
-1.1209 -0.3132 -0.3590 0.9951
-1.1158 -0.4459 -0.3706 0.9950
-1.1132 -0.4919 -0.3754 0.9949
-1.1097 -0.5388 -0.3805 0.9948
-1.1048 -0.5863 -0.3858 0.9948
-1.0985 -0.6345 -0.3913 0.9947
-4.7101 -3.4452 -1.8000 0.9759
-4.5836 -3.6122 -1.8001 0.9759
-4.4512 -3.7746 -1.8002 0.9759
-4.3131 -3.9322 -1.8003 0.9759
-3.8660 -4.3738 -1.8006 0.9759
-3.7067 -4.5100 -1.8007 0.9759
-3.5426 -4.6404 -1.8008 0.9759
-3.0238 -4.9953 -1.8012 0.9759
-2.8427 -5.1009 -1.8013 0.9759
-2.4697 -5.2924 -1.8015 0.9758
-2.2783 -5.3780 -1.8016 0.9758
-1.8868 -5.5283 -1.8018 0.9758
-1.6873 -5.5929 -1.8020 0.9758
-1.4855 -5.6502 -1.8021 0.9758
-1.0765 -5.7429 -1.8023 0.9758
-0.8697 -5.7783 -1.8024 0.9758
-0.0320 -5.5433 -1.8029 0.9770
0.5642 -5.5156 -1.8032 0.9769
0.7619 -5.4922 -1.8033 0.9769
1.3481 -5.3793 -1.8036 0.9769
1.5405 -5.3278 -1.8037 0.9769
1.7308 -5.2693 -1.8038 0.9769
2.2876 -5.0535 -1.8041 0.9769
2.4677 -4.9684 -1.8042 0.9769
2.8180 -4.7790 -1.8044 0.9769
2.9879 -4.6750 -1.8044 0.9769
3.9191 -3.9292 -1.8049 0.9769
4.0577 -3.7861 -1.8049 0.9769
4.1912 -3.6381 -1.8050 0.9769
4.3192 -3.4854 -1.8050 0.9769
4.5583 -3.1667 -1.8051 0.9769
4.6692 -3.0011 -1.8052 0.9769
4.7740 -2.8316 -1.8052 0.9769
4.8727 -2.6585 -1.8052 0.9769
4.9650 -2.4819 -1.8053 0.9769
5.0510 -2.3021 -1.8053 0.9769
5.1305 -2.1193 -1.8053 0.9769
5.2033 -1.9338 -1.8053 0.9769
5.2694 -1.7458 -1.8053 0.9769
5.3811 -1.3633 -1.8054 0.9769
5.4650 -0.9737 -1.8054 0.9769
5.4965 -0.7769 -1.8054 0.9769
5.5509 0.0178 -1.8053 0.9769
5.5351 0.4160 -1.8052 0.9769
5.5165 0.6144 -1.8052 0.9769
5.4181 1.2038 -1.8051 0.9769
5.3175 1.5893 -1.8050 0.9769
5.2568 1.7791 -1.8049 0.9769
5.1894 1.9666 -1.8049 0.9769
5.0346 2.3337 -1.8047 0.9769
4.9474 2.5128 -1.8047 0.9769
4.7540 2.8611 -1.8045 0.9769
4.6480 3.0298 -1.8044 0.9769
4.5360 3.1945 -1.8044 0.9769
4.4182 3.3551 -1.8043 0.9769
4.1657 3.6631 -1.8041 0.9769
4.0313 3.8101 -1.8040 0.9769
3.3562 4.2363 -1.7577 0.9775
3.1136 4.2339 -1.7092 0.9781
2.8836 4.2314 -1.6653 0.9787
2.3907 4.4770 -1.6506 0.9789
2.2283 4.5596 -1.6505 0.9789
2.0631 4.6364 -1.6504 0.9789
1.7249 4.7719 -1.6502 0.9789
1.5524 4.8304 -1.6501 0.9789
1.0239 4.9684 -1.6498 0.9789
0.8449 5.0016 -1.6497 0.9789
0.6648 5.0284 -1.6496 0.9789
0.4838 5.0487 -1.6495 0.9789
0.1203 5.0698 -1.6493 0.9789
-0.0617 5.0705 -1.6492 0.9789
-0.2437 5.0647 -1.6491 0.9789
-0.7866 5.0083 -1.6488 0.9789
-0.9658 4.9766 -1.6487 0.9789
-1.1438 4.9384 -1.6486 0.9789
-1.3203 4.8939 -1.6485 0.9789
-2.0067 4.6535 -1.6482 0.9789
-2.1723 4.5783 -1.6481 0.9789
-2.3351 4.4971 -1.6480 0.9789
-2.4949 4.4102 -1.6479 0.9789
-2.6515 4.3176 -1.6479 0.9789
-3.2566 4.2096 -1.7309 0.9779
-3.4979 4.2008 -1.7778 0.9773
-3.6788 4.1086 -1.7936 0.9771
-3.9737 3.8434 -1.7980 0.9770
-4.1127 3.7015 -1.7995 0.9770
-4.2428 3.5514 -1.7995 0.9770
-4.4864 3.2377 -1.7994 0.9770
-1.0413 0.6432 -0.3981 0.9949
-1.0556 0.5516 -0.3874 0.9950
-1.0657 0.4628 -0.3779 0.9951
-1.0700 0.4197 -0.3738 0.9952
-1.0750 0.3349 -0.3662 0.9953
-1.0770 0.2935 -0.3631 0.9953
-1.0888 0.2142 -0.3609 0.9953
-1.0931 0.1746 -0.3600 0.9954
-1.0963 0.1349 -0.3592 0.9954
-1.0984 0.0953 -0.3586 0.9954
-1.0994 0.0557 -0.3580 0.9954
-1.0994 -0.0233 -0.3576 0.9954
-1.0992 -0.0628 -0.3581 0.9954
-1.0924 -0.1817 -0.3602 0.9954
-1.0879 -0.2213 -0.3611 0.9953
-1.0758 -0.3006 -0.3633 0.9953
