ply
format ascii 1.0
element vertex 1544
property float32 x
property float32 y
property float32 z
property float32 I
end_header
-16.0150 -31.3318 15.5848 0.8573
-13.7510 -32.4597 15.6135 0.8571
-13.1891 -34.5352 16.3734 0.8507
-12.4705 -36.5378 17.0994 0.8446
-12.8317 -42.5335 19.6770 0.8234
-10.3186 -55.0500 24.8066 0.7827
-3.3287 -42.8214 18.2455 0.8297
1.2915 -42.8483 18.2103 0.8300
2.8342 -42.8573 18.2456 0.8297
12.0341 -56.5567 24.5632 0.7778
15.8707 -54.8899 24.2724 0.7801
3.2728 11.5972 5.1189 0.9490
2.4375 11.8274 5.1299 0.9489
1.9983 11.8299 5.0966 0.9492
1.5642 11.8324 5.0702 0.9495
1.1341 11.8349 5.0505 0.9496
0.7044 11.7988 5.0211 0.9499
-0.9784 11.6220 4.9545 0.9506
-1.4004 11.6244 4.9738 0.9504
-1.8262 11.6269 4.9997 0.9501
-3.6620 11.8629 5.2740 0.9475
-4.6200 11.8684 5.4103 0.9462
-5.1191 11.8713 5.4918 0.9454
-5.5700 11.7390 5.5196 0.9451
-7.1594 11.6579 5.8116 0.9423
-7.7514 11.6614 5.9483 0.9410
-8.3727 11.6650 6.0996 0.9395
-9.0273 11.6688 6.2671 0.9379
-9.7198 11.6728 6.4526 0.9361
-10.3778 11.5903 6.6088 0.9346
-36.4846 -30.9389 20.3211 0.8123
-26.6596 -30.1614 17.1003 0.8395
-25.0306 -30.4551 16.7463 0.8425
-22.1605 -31.2961 16.2901 0.8465
-20.5209 -31.3056 15.9011 0.8499
-17.4563 -31.3234 15.2330 0.8557
-15.8642 -31.0368 14.8070 0.8594
-14.5483 -31.1758 14.6146 0.8611
-13.5133 -31.8986 14.7164 0.8602
-13.7716 -36.0603 16.3976 0.8456
-12.7524 -37.3639 16.7712 0.8423
-14.4603 -54.9996 24.1579 0.7810
-9.0859 -48.4734 20.9502 0.8071
-6.4422 -42.8032 18.3877 0.8285
-3.3413 -42.9829 17.5438 0.8301
-1.7933 -43.0048 17.5151 0.8304
1.2968 -43.0221 17.5149 0.8304
4.3991 -43.0041 17.5910 0.8297
5.9626 -42.9818 17.6580 0.8291
7.5385 -42.9503 17.7449 0.8284
9.1303 -42.9095 17.8521 0.8274
3.2728 11.5972 4.9036 0.9493
2.4309 11.7955 4.9008 0.9493
1.1304 11.7963 4.8223 0.9501
0.2809 11.8403 4.8195 0.9501
-0.1443 11.8427 4.8195 0.9501
-0.9784 11.6220 4.7461 0.9509
-1.4004 11.6244 4.7645 0.9507
-3.1892 11.8215 4.9825 0.9485
-3.6620 11.8629 5.0521 0.9478
-4.6200 11.8684 5.1826 0.9465
-5.1191 11.8713 5.2608 0.9457
-5.5700 11.7391 5.2875 0.9454
-6.0501 11.6515 5.3424 0.9449
-7.1594 11.6579 5.5671 0.9426
-7.8201 11.7648 5.7486 0.9408
-8.3727 11.6650 5.8430 0.9399
-9.7198 11.6728 6.1812 0.9365
-10.4555 11.6771 6.3782 0.9346
-63.6815 61.5931 36.0519 0.6821
-36.4845 -30.9389 19.4661 0.8134
-34.1336 -31.1192 18.7960 0.8192
-28.5449 -30.0479 16.8652 0.8361
-27.1145 -30.6759 16.6603 0.8379
-23.8847 -31.2860 16.0172 0.8437
-17.3968 -31.2166 14.5424 0.8570
-16.1100 -31.5178 14.4038 0.8583
-13.7720 -36.0613 15.7081 0.8465
-13.0690 -38.2915 16.4645 0.8397
-8.0343 -42.8630 17.7460 0.8283
-6.4586 -42.9121 17.6589 0.8291
-4.8954 -42.9520 17.5916 0.8297
-3.3284 -42.8173 16.7181 0.8317
-1.7858 -42.8263 16.6858 0.8319
-0.2472 -42.8353 16.6751 0.8320
2.8530 -43.1407 16.8304 0.8306
7.5768 -43.1682 17.0613 0.8285
12.4649 -43.1109 17.4695 0.8248
14.1382 -43.0429 17.6364 0.8233
17.6128 -42.9490 18.0703 0.8193
9.3861 -11.6927 5.8368 0.9377
2.4529 11.9020 4.7306 0.9492
2.0109 11.9046 4.6998 0.9495
1.5741 11.9071 4.6755 0.9498
1.1304 11.7963 4.6131 0.9504
0.7111 11.9122 4.6454 0.9501
0.2827 11.9146 4.6394 0.9501
-0.5652 11.7459 4.5777 0.9508
-1.4004 11.6244 4.5579 0.9510
-3.1998 11.8605 4.7821 0.9486
-6.0501 11.6515 5.1107 0.9452
-7.1594 11.6580 5.3256 0.9430
-7.9017 11.8875 5.5566 0.9406
-9.0370 11.6814 5.7492 0.9386
-10.4555 11.6771 6.1015 0.9349
-63.7726 61.6812 34.5373 0.6833
-39.3318 -30.9964 19.4941 0.8066
-32.7882 -29.8927 17.2720 0.8266
-29.4066 -30.9549 16.6206 0.8325
-21.9565 -31.0077 14.7903 0.8495
-20.4592 -31.2115 14.5276 0.8520
-19.1632 -31.6574 14.4055 0.8531
-14.7474 -31.6023 13.5756 0.8610
-13.9261 -32.8729 13.8976 0.8579
-13.4823 -39.5024 16.2483 0.8360
-9.6848 -43.0677 17.1839 0.8274
-8.0744 -43.0771 17.0610 0.8285
-6.4848 -43.0863 16.9614 0.8294
-1.7716 -42.4836 15.8106 0.8341
-0.2489 -43.1226 16.0347 0.8319
1.3001 -43.1316 16.0451 0.8318
2.8530 -43.1407 16.0762 0.8315
9.1559 -43.0300 16.3582 0.8288
17.7124 -43.1918 17.3581 0.8194
19.5078 -43.0946 17.5893 0.8172
21.3497 -42.9858 17.8464 0.8148
33.9009 15.7142 13.8939 0.8526
2.0109 11.9046 4.4892 0.9498
1.1304 11.7963 4.4064 0.9507
0.7111 11.9122 4.4372 0.9503
0.2827 11.9147 4.4315 0.9504
-0.5653 11.7479 4.3733 0.9510
-1.8262 11.6269 4.3763 0.9510
-2.2571 11.6294 4.4049 0.9507
-2.7638 11.9324 4.5543 0.9491
-3.1998 11.8606 4.5678 0.9489
-4.1610 11.9405 4.7017 0.9475
-4.6208 11.8706 4.7365 0.9471
-5.1193 11.8717 4.8072 0.9463
-7.1594 11.6580 5.0870 0.9433
-7.9017 11.8875 5.3076 0.9409
-9.2024 11.8951 5.5921 0.9378
-9.8760 11.8604 5.7388 0.9363
-11.2408 11.6817 6.0280 0.9332
-53.1599 35.5327 23.7757 0.7612
-39.9148 -31.4559 18.8966 0.8050
-35.2645 -29.9044 17.1925 0.8209
-29.6890 -31.2522 16.0283 0.8320
-25.4604 -30.9780 14.9099 0.8427
-23.7859 -31.1565 14.5752 0.8460
-22.3911 -31.6216 14.4072 0.8476
-18.5926 -33.3622 14.2015 0.8496
-16.3247 -31.9377 13.3369 0.8581
-14.7474 -31.6023 12.9673 0.8617
-14.2354 -33.6029 13.5696 0.8558
-13.8190 -36.1845 14.4024 0.8476
-6.4848 -43.0863 16.2014 0.8303
5.8785 -42.3752 15.1695 0.8340
7.4414 -42.3967 15.2631 0.8330
10.8233 -43.1871 15.7871 0.8278
17.6208 -42.9686 16.4674 0.8211
21.4833 -43.2548 17.1251 0.8147
22.6644 -41.7959 16.8590 0.8173
25.3933 -43.0637 17.7268 0.8088
36.7412 15.4538 14.1334 0.8444
33.7731 18.7081 13.6900 0.8489
34.0778 20.5090 14.1031 0.8447
12.6191 10.3174 5.7798 0.9332
1.5741 11.9072 4.2588 0.9503
-0.1452 11.9172 4.2260 0.9507
-0.5654 11.7499 4.1712 0.9513
-1.8262 11.6269 4.1733 0.9513
-2.2571 11.6294 4.2006 0.9510
-2.7638 11.9324 4.3431 0.9493
-3.1998 11.8606 4.3559 0.9492
-4.1610 11.9405 4.4837 0.9477
-4.6210 11.8709 4.5169 0.9474
-5.1514 11.9463 4.6130 0.9463
-5.5703 11.7396 4.6075 0.9463
-6.0501 11.6515 4.6552 0.9458
-7.9017 11.8875 5.0614 0.9412
-8.5351 11.8912 5.1902 0.9398
-9.2024 11.8951 5.3327 0.9382
-10.5646 11.7989 5.6157 0.9350
-11.2408 11.6817 5.7484 0.9335
-68.5644 61.7092 32.7088 0.6760
-53.1262 41.3181 23.8644 0.7515
-57.2948 35.3888 23.8788 0.7514
-37.9610 -29.9161 17.1380 0.8145
-34.2503 -31.2257 16.4343 0.8214
-31.8871 -31.2394 15.8285 0.8274
-29.6890 -31.2522 15.2848 0.8328
-27.4412 -31.0457 14.6923 0.8387
-24.3765 -31.9303 14.2443 0.8433
-16.3534 -31.9939 12.7407 0.8586
-14.7102 -31.5227 12.3347 0.8627
-14.5600 -34.3692 13.2353 0.8535
-14.2147 -37.2205 14.1276 0.8444
-13.5055 -39.5704 14.8258 0.8374
-11.3207 -43.0581 15.7867 0.8278
-3.1924 -41.0679 13.9032 0.8404
-1.7147 -41.1213 13.8915 0.8405
2.7174 -41.0904 13.8993 0.8404
5.6765 -40.9195 13.9436 0.8400
7.1637 -40.8147 13.9865 0.8395
8.6801 -40.7939 14.0772 0.8386
11.7781 -40.7355 14.3124 0.8361
13.9873 -42.5836 15.1285 0.8276
15.9377 -43.2224 15.5488 0.8233
17.4671 -42.5936 15.5383 0.8234
19.5753 -43.2436 16.0216 0.8184
24.4564 -41.4748 16.2512 0.8161
33.6145 15.5815 12.5054 0.8552
32.8744 16.6972 12.4451 0.8558
3.2728 11.5973 4.0672 0.9504
2.8282 11.5998 4.0299 0.9508
2.0109 11.9046 4.0750 0.9503
1.5741 11.9072 4.0539 0.9506
0.7111 11.9122 4.0278 0.9509
0.2827 11.9147 4.0226 0.9509
-0.1452 11.9172 4.0226 0.9509
-0.5655 11.7519 3.9711 0.9515
-1.4004 11.6245 3.9519 0.9518
-1.8262 11.6269 3.9725 0.9515
-2.7638 11.9324 4.1341 0.9496
-3.1998 11.8606 4.1464 0.9495
-3.6851 11.9378 4.2169 0.9486
-5.5703 11.7397 4.3859 0.9466
-7.1594 11.6580 4.6176 0.9439
-7.9020 11.8879 4.8180 0.9415
-9.2024 11.8951 5.0761 0.9385
-9.9083 11.8992 5.2264 0.9367
-11.2408 11.6817 5.4718 0.9338
-63.9958 61.8971 30.0505 0.6867
-68.5644 61.7093 31.1349 0.6774
-53.1082 44.4535 23.3761 0.7465
-53.1268 41.3186 22.7164 0.7527
-53.2761 35.6104 21.6291 0.7630
-40.9856 -29.9790 17.1393 0.8070
-38.8490 -30.6159 16.6949 0.8115
-36.7450 -31.1598 16.2613 0.8160
-34.2503 -31.2256 15.6435 0.8223
-31.5837 -30.9423 14.9236 0.8297
-26.0639 -31.7123 13.8549 0.8409
-24.3765 -31.9303 13.5589 0.8440
-22.6386 -31.9712 13.2224 0.8476
-20.1895 -33.3529 13.1593 0.8482
-18.5925 -33.3622 12.8911 0.8511
-14.7473 -31.6023 11.7708 0.8631
-14.3154 -37.4843 13.5431 0.8442
-12.2482 -40.5994 14.3133 0.8361
-10.7232 -40.7853 14.2339 0.8369
-6.1510 -40.8681 13.9493 0.8399
-4.6710 -40.9835 13.9225 0.8402
-3.2620 -41.9625 13.4953 0.8379
-1.7502 -41.9711 13.4692 0.8382
-0.2408 -41.7295 13.3802 0.8392
1.2656 -41.9889 13.4693 0.8382
4.2884 -41.9222 13.5120 0.8378
5.8286 -42.0155 13.6007 0.8368
7.3394 -41.8156 13.6126 0.8367
8.9050 -41.8509 13.7194 0.8355
11.9772 -41.4240 13.8261 0.8343
22.7785 -42.0064 15.3216 0.8181
51.8073 -35.9907 20.2264 0.7672
36.9981 15.5618 12.8696 0.8448
32.2756 16.3931 11.6071 0.8589
32.5036 18.0049 11.9140 0.8555
32.7598 19.7158 12.2596 0.8516
34.2210 27.9790 14.1731 0.8305
3.2728 11.5973 3.8637 0.9506
2.8282 11.5999 3.8283 0.9511
1.9984 11.8303 3.8470 0.9509
1.1304 11.7964 3.7997 0.9514
-0.1452 11.9172 3.8214 0.9512
-0.5656 11.7538 3.7731 0.9518
-0.9784 11.6220 3.7396 0.9522
-1.4004 11.6245 3.7542 0.9520
-1.8262 11.6270 3.7737 0.9518
-2.7465 11.8579 3.9027 0.9502
-3.1998 11.8606 3.9389 0.9497
-5.1514 11.9463 4.1714 0.9468
-6.0501 11.6515 4.2095 0.9463
-6.5934 11.6547 4.2935 0.9453
-9.2027 11.8955 4.8223 0.9388
-53.1088 44.4541 22.2068 0.7476
-53.5152 38.6196 21.1605 0.7579
-57.9018 35.7637 21.8214 0.7514
-41.6040 -30.4313 16.5275 0.8053
-33.9730 -30.9728 14.7405 0.8244
-24.3765 -31.9302 12.8805 0.8447
-22.6354 -31.9667 12.5591 0.8483
-20.1895 -33.3529 12.5009 0.8489
-16.3491 -31.9855 11.5178 0.8599
-12.4612 -41.3054 13.8336 0.8342
-10.9243 -41.5502 13.7753 0.8349
-9.3927 -41.7686 13.7270 0.8354
-7.8605 -41.9357 13.6803 0.8359
-4.7816 -41.9537 13.5390 0.8375
-1.7502 -41.9713 12.7667 0.8389
1.2656 -41.9889 12.7668 0.8389
5.8286 -42.0155 12.8914 0.8375
12.1589 -42.0524 13.3038 0.8328
13.7257 -41.7873 13.3673 0.8320
20.3902 -41.0539 13.9310 0.8256
24.0548 -40.7937 14.3927 0.8204
26.5152 -41.4867 14.9636 0.8140
51.5513 -41.5998 20.1320 0.7581
51.4723 -38.5691 19.5476 0.7642
41.0022 15.5385 13.3259 0.8325
36.9981 15.5618 12.1984 0.8455
36.2881 25.5558 13.4888 0.8306
2.8282 11.5999 3.6286 0.9513
2.4529 11.9020 3.6932 0.9505
2.0109 11.9046 3.6692 0.9508
1.5741 11.9072 3.6502 0.9510
1.1304 11.7964 3.6015 0.9517
-0.1452 11.9172 3.6221 0.9514
-1.4004 11.6245 3.5584 0.9522
-1.8262 11.6269 3.5769 0.9520
-2.2571 11.6295 3.6003 0.9517
-3.6851 11.9378 3.7970 0.9491
-4.1610 11.9405 3.8429 0.9485
-5.5705 11.7400 3.9492 0.9471
-7.1595 11.6580 4.1578 0.9444
-8.5890 11.9663 4.4765 0.9403
-9.9709 11.9743 4.7356 0.9369
-10.5650 11.7994 4.8134 0.9359
-11.2408 11.6817 4.9269 0.9345
-53.3639 48.0285 21.8194 0.7407
-53.7344 44.9778 21.2965 0.7461
-53.1456 38.3529 19.9183 0.7603
-53.1623 35.5343 19.4337 0.7654
-42.6233 -31.1768 16.0492 0.8019
-36.6373 -31.0685 14.5991 0.8181
-30.0934 -31.6779 13.2790 0.8330
-28.0475 -31.7315 12.8709 0.8377
-26.0635 -31.7118 12.4751 0.8423
-21.8565 -33.3432 12.1165 0.8465
-18.5925 -33.3622 11.6074 0.8524
-14.6838 -34.6616 11.4404 0.8544
-14.3161 -37.4862 12.1951 0.8456
-14.0938 -41.2941 13.2607 0.8333
-9.4282 -41.9266 13.0603 0.8356
-6.3130 -41.9447 12.8912 0.8375
-4.7816 -41.9536 12.8328 0.8382
-3.2387 -41.6638 12.0080 0.8404
-1.7377 -41.6725 11.9848 0.8406
2.7577 -41.6987 12.0081 0.8404
4.2665 -41.7075 12.0470 0.8399
5.7871 -41.7164 12.1018 0.8392
7.3236 -41.7253 12.1728 0.8384
8.9439 -42.0336 12.3485 0.8362
10.5365 -42.0429 12.4544 0.8349
13.8204 -42.0756 12.7257 0.8317
17.2629 -42.0956 13.0736 0.8275
19.0603 -42.1061 13.2809 0.8250
22.6704 -41.8070 13.6656 0.8204
28.2281 -40.8567 14.2695 0.8133
51.5490 -38.6266 18.5094 0.7648
51.9199 -36.0689 18.1656 0.7687
56.1553 -36.0935 19.1816 0.7574
76.8355 -41.9205 25.1505 0.6947
67.9150 -28.0549 21.1145 0.7365
33.9242 11.4813 10.2911 0.8615
36.9982 15.5618 11.5334 0.8462
31.6900 17.5543 10.4097 0.8600
31.0423 18.6822 10.4106 0.8600
31.8148 20.7382 10.9125 0.8538
36.2881 25.5558 12.7535 0.8313
33.6737 25.5710 12.1496 0.8386
33.1738 29.1710 12.6935 0.8321
33.5437 31.7025 13.2622 0.8252
34.0449 34.5728 13.9424 0.8171
3.2728 11.5973 3.4626 0.9511
2.8282 11.5999 3.4308 0.9515
1.1304 11.7964 3.4052 0.9519
0.7111 11.9122 3.4290 0.9515
0.2827 11.9147 3.4246 0.9516
-0.5658 11.7577 3.3824 0.9522
-0.9784 11.6220 3.3513 0.9526
-1.4004 11.6245 3.3644 0.9524
-3.6851 11.9378 3.5900 0.9493
-4.1610 11.9406 3.6334 0.9487
-5.1514 11.9463 3.7383 0.9473
-5.5705 11.7402 3.7340 0.9474
-6.0501 11.6516 3.7725 0.9468
-6.5934 11.6547 3.8477 0.9458
-7.1595 11.6580 3.9311 0.9447
-9.2027 11.8955 4.3216 0.9393
-10.5651 11.7995 4.5511 0.9362
-53.4389 51.6864 21.3627 0.7339
-58.7125 52.8423 22.6975 0.7198
-53.1101 44.4552 19.9015 0.7496
-53.1286 41.3200 19.3398 0.7557
-53.1462 38.3533 18.8326 0.7613
-57.3068 35.3962 19.3547 0.7555
-67.8595 35.4576 22.0005 0.7271
-71.7720 19.5605 21.3755 0.7337
-78.4462 12.5279 22.8268 0.7185
-39.5363 -31.1576 14.4644 0.8110
-34.9047 -31.8222 13.5723 0.8215
-24.3765 -31.9302 11.5431 0.8460
-10.6562 -15.0492 5.2986 0.9261
-21.8565 -33.3431 11.4559 0.8471
-14.4446 -34.0968 10.6404 0.8572
-11.0208 -41.9173 12.4541 0.8350
-9.4282 -41.9266 12.3482 0.8362
-4.7475 -41.6550 12.0469 0.8399
2.8112 -42.5083 11.5415 0.8382
4.3349 -42.3770 11.5407 0.8382
7.3738 -42.0115 11.5558 0.8380
8.9297 -41.9668 11.6242 0.8371
13.7247 -41.7841 11.9152 0.8334
15.4080 -41.7860 12.0658 0.8315
17.2623 -42.0942 12.3259 0.8282
19.0597 -42.1048 12.5214 0.8257
20.9176 -42.1157 12.7398 0.8229
24.8480 -42.1391 13.2533 0.8165
51.5314 -41.5837 17.9395 0.7600
51.5484 -38.6262 17.4512 0.7657
51.9198 -36.0688 17.1273 0.7695
56.1553 -36.0935 18.0852 0.7583
76.0288 -45.0951 23.9484 0.6933
77.3912 -42.2237 23.8844 0.6940
83.9453 -41.9620 25.4256 0.6778
33.5179 12.7022 9.7109 0.8620
33.6551 14.1557 9.8916 0.8596
33.6149 15.5816 10.0378 0.8577
31.6813 16.0912 9.6268 0.8631
31.6899 17.5542 9.8147 0.8606
31.6989 19.0773 10.0232 0.8579
33.5920 23.6571 11.1311 0.8434
33.6737 25.5710 11.4552 0.8393
32.1220 26.2628 11.2409 0.8420
32.4732 28.5550 11.7152 0.8359
32.8027 31.0022 12.2280 0.8294
33.2552 33.7709 12.8406 0.8217
3.2728 11.5973 3.2647 0.9513
2.4529 11.9021 3.2923 0.9509
1.5741 11.9072 3.2540 0.9514
0.7111 11.9122 3.2330 0.9517
0.2827 11.9147 3.2288 0.9518
-0.1452 11.9172 3.2289 0.9518
-0.5659 11.7596 3.1896 0.9524
-1.4004 11.6245 3.1721 0.9526
-1.8262 11.6270 3.1886 0.9524
-2.7638 11.9324 3.3183 0.9505
-3.1998 11.8606 3.3282 0.9504
-3.6851 11.9378 3.3848 0.9495
-6.0501 11.6516 3.5568 0.9470
-6.5934 11.6547 3.6278 0.9460
-9.2027 11.8955 4.0746 0.9396
-9.9709 11.9744 4.2215 0.9375
-53.0699 51.3295 20.0026 0.7364
-53.0910 47.7828 19.3511 0.7438
-53.1107 44.4557 18.7642 0.7505
-53.3732 41.5103 18.3183 0.7556
-53.5170 38.6209 17.8800 0.7607
-53.2785 35.6119 17.3618 0.7668
-62.2456 35.4250 19.4034 0.7432
-69.0754 36.0929 21.1146 0.7240
-74.3151 35.4953 22.3122 0.7108
-79.3642 34.4648 23.4413 0.6987
-71.5505 28.0639 20.8222 0.7272
-71.0679 22.1380 20.1663 0.7346
-78.4469 12.5279 21.5222 0.7195
-40.8067 -32.1587 14.0758 0.8063
-34.9681 -31.8801 12.8198 0.8219
-32.5436 -31.8827 12.3428 0.8279
-30.1354 -31.7220 11.8539 0.8342
-26.0807 -31.7327 11.1281 0.8435
-24.3764 -31.9302 10.8833 0.8466
-21.8565 -33.3431 10.8011 0.8477
-18.5925 -33.3621 10.3473 0.8536
-14.6839 -34.6618 10.1985 0.8556
-12.5837 -41.7112 11.8035 0.8348
-10.9884 -41.7943 11.7077 0.8360
-9.4152 -41.8687 11.6263 0.8371
-7.8595 -41.9305 11.5577 0.8380
-4.8273 -42.3556 11.5493 0.8381
1.3165 -43.6774 11.1267 0.8350
2.8839 -43.6074 11.1281 0.8349
5.8679 -42.2989 10.8738 0.8384
7.4192 -42.2700 10.9278 0.8377
9.2008 -43.2412 11.2571 0.8332
14.1433 -43.0586 11.5404 0.8294
15.6783 -42.5189 11.5392 0.8294
20.7791 -41.8368 11.8945 0.8246
26.9381 -42.1485 12.7371 0.8135
67.5832 -36.8726 19.6034 0.7278
40.1324 10.4415 10.5592 0.8427
34.9746 10.4535 9.2949 0.8601
32.8892 11.1310 8.8412 0.8665
33.1259 13.9331 9.1506 0.8621
33.2670 15.4204 9.3366 0.8595
31.6810 16.0911 9.0479 0.8636
31.8115 19.1451 9.4540 0.8579
33.0890 21.5688 10.0574 0.8496
31.9614 22.5087 9.9540 0.8510
33.3943 25.3589 10.6771 0.8411
31.7892 25.9907 10.4556 0.8441
31.8070 27.9692 10.7850 0.8396
33.5449 45.6146 14.4175 0.7916
2.8271 11.5953 3.0390 0.9519
2.3902 11.5978 3.0152 0.9523
-0.1415 11.6125 2.9571 0.9532
-0.5589 11.6150 2.9610 0.9531
-1.3999 11.6199 2.9802 0.9528
-1.8255 11.6223 2.9957 0.9526
-2.2562 11.6249 3.0153 0.9523
-2.6931 11.6274 3.0391 0.9519
-3.1223 11.5734 3.0523 0.9517
-4.1610 11.9406 3.2198 0.9491
-4.6216 11.8726 3.2441 0.9488
-7.1595 11.6580 3.4836 0.9451
-8.5890 11.9663 3.7506 0.9410
-9.2027 11.8955 3.8296 0.9398
-10.5654 11.7998 4.0330 0.9367
-11.2408 11.6818 4.1280 0.9353
-53.0706 51.3301 18.8001 0.7373
-53.4614 48.1162 18.3145 0.7431
-53.7551 41.8072 17.3401 0.7550
-53.1640 35.5354 16.2828 0.7680
-62.5404 35.5927 18.3231 0.7430
-74.4142 23.1803 19.8462 0.7249
-76.4459 20.8343 20.1755 0.7210
-79.4489 15.6314 20.6180 0.7159
-39.2006 -33.2422 13.0875 0.8088
-32.5436 -31.8826 11.6006 0.8286
-30.1231 -31.7092 11.1367 0.8348
-28.0105 -31.6896 10.7695 0.8398
-21.8565 -33.3431 10.1517 0.8483
-20.2556 -33.4620 9.9599 0.8509
-19.1224 -34.3130 10.0023 0.8503
-14.7473 -31.6022 8.8800 0.8659
-14.3172 -37.4890 10.2183 0.8473
-14.0938 -41.2940 11.1103 0.8352
-12.9918 -43.0639 11.4536 0.8306
-11.0857 -42.1644 11.1013 0.8353
-9.6919 -43.0991 11.2484 0.8333
-4.9153 -43.1269 11.0526 0.8360
-3.2637 -41.9851 10.0423 0.8410
-0.2520 -43.6683 10.4136 0.8356
4.4702 -43.6987 10.4751 0.8347
9.2910 -43.6651 10.6458 0.8323
10.9602 -43.7336 10.7516 0.8308
12.6517 -43.7570 10.8620 0.8292
21.5165 -43.3216 11.5348 0.8196
23.0558 -42.5178 11.5339 0.8196
26.7772 -41.8966 11.8573 0.8151
51.4959 -41.5550 15.7797 0.7618
51.3541 -38.4807 15.3029 0.7681
51.9197 -36.0688 15.0756 0.7711
56.1551 -36.0934 15.9187 0.7599
67.5454 -40.0634 18.7276 0.7240
70.8676 -29.2746 18.2848 0.7296
34.9746 10.4535 8.7049 0.8606
32.4008 10.9657 8.1571 0.8688
32.6170 13.7191 8.4381 0.8646
31.6807 16.0909 8.4734 0.8641
31.6893 17.5538 8.6388 0.8616
31.8922 19.1937 8.8764 0.8581
32.7521 21.3491 9.3231 0.8515
31.5905 23.9890 9.4592 0.8495
31.7890 25.9905 9.7918 0.8446
31.8129 30.0667 10.4384 0.8353
38.7762 45.4896 14.2541 0.7821
36.1986 45.6912 13.9009 0.7869
33.4756 45.5205 13.4744 0.7927
3.2715 11.5927 2.8725 0.9517
2.8271 11.5953 2.8461 0.9521
1.9595 11.6003 2.8055 0.9528
0.6929 11.6077 2.7730 0.9533
0.2755 11.6101 2.7694 0.9534
-0.1415 11.6125 2.7694 0.9534
-0.5589 11.6150 2.7730 0.9533
-1.8255 11.6223 2.8055 0.9528
-3.1376 11.6300 2.8725 0.9517
-4.0546 11.6353 2.9383 0.9506
-4.5303 11.6381 2.9782 0.9499
-5.0198 11.6409 3.0231 0.9492
-6.0501 11.6516 3.1308 0.9474
-7.1595 11.6580 3.2625 0.9453
-7.9517 11.9626 3.4254 0.9426
-9.2027 11.8955 3.5865 0.9400
-9.9709 11.9744 3.7158 0.9379
-53.6958 51.9349 17.8142 0.7355
-53.1119 44.4567 16.5168 0.7522
-53.1646 35.5358 15.2494 0.7688
-57.3068 35.3963 16.0625 0.7581
-74.3154 35.4953 19.6395 0.7127
-77.5170 27.2360 19.5931 0.7133
-71.0691 22.1383 17.7509 0.7363
-73.0618 17.1200 17.8948 0.7345
-75.1120 14.7781 18.2552 0.7299
-40.9012 -32.2332 12.4184 0.8072
-39.2006 -33.2421 12.2567 0.8095
-34.9575 -31.8704 11.2807 0.8232
-32.5436 -31.8826 10.8643 0.8292
-30.1367 -31.7235 10.4344 0.8353
-28.0367 -31.7192 10.0953 0.8402
-24.2656 -31.7849 9.5360 0.8484
-21.8565 -33.3431 9.5073 0.8488
-20.9511 -34.6110 9.6480 0.8467
-14.0938 -41.2940 10.4050 0.8358
-13.1053 -43.4403 10.8202 0.8298
-8.0906 -43.1634 10.4723 0.8348
-6.5354 -43.4225 10.4715 0.8348
-1.8206 -43.6591 9.7192 0.8361
2.7593 -41.7238 9.3005 0.8425
4.4702 -43.6987 9.7702 0.8353
5.7920 -41.7520 9.3755 0.8414
9.3042 -43.7269 9.9435 0.8326
12.1696 -42.0895 9.7451 0.8357
14.3770 -43.7700 10.2471 0.8280
16.0780 -43.6031 10.3366 0.8266
17.4149 -42.4662 10.2088 0.8285
19.0557 -42.0957 10.2776 0.8275
26.9398 -42.1511 11.1266 0.8147
51.5000 -41.5584 14.7191 0.7625
51.5170 -38.6027 14.3184 0.7681
51.9196 -36.0687 14.0612 0.7718
67.5632 -36.8617 17.1186 0.7295
72.4456 -36.2136 18.0145 0.7176
40.1326 10.4415 9.2235 0.8437
31.9301 10.8064 7.4976 0.8710
32.0227 12.1355 7.6168 0.8691
32.2442 14.9463 7.9048 0.8645
31.9220 19.2116 8.2868 0.8584
32.4243 21.1355 8.6087 0.8533
31.7959 24.1450 8.8800 0.8491
36.1986 45.6912 12.9654 0.7875
2.8271 11.5953 2.6546 0.9523
2.3902 11.5978 2.6338 0.9526
1.1121 11.6052 2.5931 0.9534
0.6930 11.6077 2.5864 0.9535
-0.1415 11.6125 2.5831 0.9535
-1.3999 11.6199 2.6032 0.9532
-2.2562 11.6249 2.6339 0.9526
-2.6931 11.6274 2.6546 0.9523
-3.5909 11.6326 2.7078 0.9513
-4.5303 11.6381 2.7778 0.9501
-5.0198 11.6409 2.8197 0.9494
-5.5249 11.6439 2.8666 0.9486
-6.0477 11.6469 2.9189 0.9476
-6.5908 11.6501 2.9771 0.9466
-7.6938 11.5748 3.0913 0.9446
-9.2027 11.8955 3.3452 0.9402
-9.9709 11.9744 3.4658 0.9381
-53.1125 44.4572 15.4056 0.7529
-53.1310 41.3219 14.9708 0.7590
-53.5187 38.6221 14.6797 0.7630
-76.5313 39.9888 19.2058 0.7020
-79.0612 34.3333 19.1714 0.7024
-71.5528 28.0648 17.0953 0.7298
-73.4633 17.2141 16.7824 0.7340
-67.8350 -42.5023 17.8049 0.7203
-32.3956 -31.7376 10.0871 0.8304
-30.1624 -31.7506 9.7406 0.8357
-28.0377 -31.7205 9.4163 0.8407
-26.0644 -31.7129 9.1303 0.8452
-22.1196 -36.5415 9.5007 0.8394
-14.7473 -31.6021 7.7567 0.8668
-14.6840 -34.6619 8.3728 0.8571
-14.3179 -37.4909 8.9262 0.8484
-14.0938 -41.2939 9.7049 0.8363
-13.1523 -43.5960 10.1283 0.8298
-11.4404 -43.5132 10.0072 0.8316
-6.5669 -43.6314 9.8139 0.8346
-0.2520 -43.6682 9.0169 0.8366
1.2590 -41.7706 8.6289 0.8431
5.7915 -41.7485 8.7029 0.8419
7.3223 -41.7181 8.7458 0.8411
10.9602 -43.7335 9.3095 0.8318
12.1813 -42.1300 9.0555 0.8360
18.9871 -41.9443 9.5068 0.8286
21.7606 -43.8130 10.1010 0.8189
51.5462 -38.6245 13.2999 0.7687
51.9196 -36.0687 13.0536 0.7724
67.7026 -36.9377 15.9247 0.7298
72.5693 -36.2755 16.7522 0.7179
40.1326 10.4415 8.5626 0.8442
35.0340 10.4713 7.5502 0.8613
31.0569 11.7695 6.8578 0.8731
31.5494 13.2701 7.0672 0.8695
31.6800 16.0906 7.3368 0.8649
31.6886 17.5535 7.4800 0.8625
32.0876 20.9160 7.9089 0.8552
31.9491 24.2614 8.2835 0.8489
31.7755 32.2682 9.3510 0.8311
32.1757 37.7463 10.2414 0.8166
33.4757 45.5205 11.6672 0.7939
33.5586 75.4171 17.0444 0.7138
1.1121 11.6053 2.4073 0.9535
0.6929 11.6077 2.4011 0.9536
-0.9780 11.6174 2.4073 0.9535
-1.3999 11.6199 2.4167 0.9533
-1.8255 11.6224 2.4292 0.9531
-2.2562 11.6249 2.4451 0.9528
-2.6931 11.6274 2.4644 0.9524
-3.5909 11.6326 2.5138 0.9515
-4.0546 11.6353 2.5442 0.9509
-4.5303 11.6381 2.5787 0.9503
-5.5249 11.6439 2.6612 0.9487
-7.1566 11.6534 2.8238 0.9457
-7.7484 11.6568 2.8902 0.9444
-8.3694 11.6604 2.9637 0.9431
-9.0238 11.6642 3.0451 0.9415
-9.9709 11.9744 3.2175 0.9383
-10.5658 11.8003 3.2706 0.9374
-11.2408 11.6818 3.3474 0.9359
-53.1657 35.5365 13.2043 0.7701
-64.6845 39.9532 15.6986 0.7331
-62.3880 35.5060 14.8222 0.7459
-67.8599 35.4578 15.8094 0.7315
-75.6470 36.1313 17.3101 0.7101
-80.5407 18.8725 17.0808 0.7133
-82.2484 16.1822 17.3085 0.7101
-67.7751 -42.4648 16.5144 0.7213
-42.9911 -29.1362 10.7235 0.8089
-38.7993 -32.9018 10.5041 0.8124
-34.9469 -31.8608 9.7647 0.8244
-30.1058 -31.6909 9.0256 0.8365
-28.0368 -31.7194 8.7413 0.8412
-24.3764 -31.9301 8.2947 0.8487
-21.9865 -33.5415 8.2811 0.8489
-22.1934 -39.8236 9.4136 0.8301
-16.3346 -31.9572 7.4107 0.8636
-14.7473 -31.6021 7.2008 0.8672
-13.1523 -43.5960 9.4026 0.8303
-6.5669 -43.6314 9.1106 0.8351
-4.7831 -41.9670 8.7216 0.8415
-0.2520 -43.6682 8.3253 0.8371
1.2586 -41.7565 7.9643 0.8436
10.9602 -43.7335 8.5954 0.8323
12.1838 -42.1384 8.3626 0.8364
14.3770 -43.7700 8.7832 0.8289
18.9945 -41.9608 8.7811 0.8290
51.5082 -51.6405 13.9051 0.7430
53.6797 -46.5960 13.5515 0.7487
51.5036 -41.5612 12.6172 0.7638
51.5007 -38.5905 12.2689 0.7695
56.1550 -36.0933 12.7264 0.7620
67.5434 -40.0622 14.9715 0.7263
66.9451 -36.5245 14.5388 0.7331
34.8693 10.4220 6.9382 0.8623
31.6981 10.7279 6.3798 0.8726
31.7058 12.0154 6.4640 0.8710
31.6382 17.5255 6.8952 0.8631
31.6066 19.0218 7.0327 0.8605
31.7578 20.7010 7.2272 0.8570
31.8812 22.4523 7.4340 0.8532
31.9491 24.2614 7.6481 0.8493
31.7879 25.9897 7.8279 0.8460
31.7994 27.9625 8.0729 0.8416
31.8115 30.0655 8.3448 0.8367
31.8145 34.7168 8.9774 0.8255
31.7992 37.3046 9.3452 0.8191
34.2828 43.2731 10.5250 0.7987
41.2096 65.3983 14.7367 0.7300
34.9278 65.4080 14.1363 0.7394
33.5586 75.4171 15.7371 0.7145
31.8774 79.1751 16.2719 0.7064
2.7784 11.3956 2.2362 0.9534
2.3490 11.3981 2.2187 0.9537
1.0929 11.4054 2.1843 0.9544
0.6810 11.4078 2.1787 0.9545
0.2707 11.4102 2.1759 0.9546
-0.1390 11.4125 2.1759 0.9546
-0.9612 11.4173 2.1844 0.9544
-1.7941 11.4222 2.2043 0.9540
-2.6467 11.4271 2.2362 0.9534
-3.0835 11.4297 2.2569 0.9529
-3.5291 11.4323 2.2810 0.9524
-4.0546 11.6353 2.3491 0.9511
-5.0198 11.6410 2.4168 0.9497
-5.5249 11.6439 2.4571 0.9489
-6.5908 11.6501 2.5518 0.9470
-7.1566 11.6534 2.6072 0.9458
-8.3694 11.6604 2.7364 0.9432
-9.7160 11.6683 2.8947 0.9400
-11.1572 11.5950 3.0677 0.9366
-56.2346 54.3904 14.9150 0.7272
-53.1137 44.4582 13.2050 0.7542
-53.1496 38.3558 12.4957 0.7658
-57.3070 35.3964 12.8413 0.7601
-68.9244 36.0141 14.8258 0.7286
-79.0266 27.7664 15.9690 0.7110
-71.0710 22.1389 14.1915 0.7385
-75.1138 14.7785 14.5946 0.7322
-80.3578 -42.6462 17.3436 0.6904
-72.9988 -42.1666 16.0718 0.7094
-67.2128 -42.1125 15.1212 0.7240
-42.9800 -31.4378 10.1519 0.8051
-40.8856 -32.2209 9.9242 0.8090
-34.9417 -31.8560 9.0144 0.8249
-32.5435 -31.8825 8.6855 0.8307
-32.1998 -33.8952 8.9130 0.8266
-32.9930 -40.1430 9.9062 0.8093
-24.3764 -31.9301 7.6585 0.8491
-22.6113 -31.9326 7.4595 0.8527
-22.5940 -37.3250 8.3180 0.8372
-19.9677 -35.8298 7.8199 0.8462
-16.3326 -31.9532 6.8414 0.8640
-14.7473 -31.6021 6.6485 0.8676
-13.9210 -32.8608 6.8037 0.8647
-14.3187 -37.4928 7.6513 0.8492
-13.1523 -43.5960 8.6814 0.8307
-11.4405 -43.5135 8.5776 0.8326
-9.6919 -43.0990 8.4218 0.8354
-8.1766 -43.6220 8.4612 0.8347
-3.2650 -42.0012 7.3681 0.8428
-0.2499 -43.3060 7.5743 0.8387
1.2574 -41.7153 7.2993 0.8441
2.7593 -41.7239 7.3134 0.8438
7.3311 -41.7684 7.4169 0.8418
10.8623 -43.3425 7.8150 0.8341
12.1706 -42.0928 7.6636 0.8370
17.4010 -42.4326 8.0212 0.8301
21.7605 -43.8129 8.5559 0.8198
23.7628 -43.8216 8.7187 0.8167
26.8035 -41.9378 8.7050 0.8170
51.4618 -59.5934 13.7712 0.7263
53.6148 -57.7583 13.7833 0.7261
51.4639 -51.5961 12.7457 0.7438
53.5118 -46.4502 12.3933 0.7500
51.5468 -41.5961 11.5847 0.7642
51.9465 -36.0874 11.0626 0.7735
64.4616 -38.2343 13.1083 0.7376
66.9444 -36.5241 13.3378 0.7337
72.1907 -36.0862 14.1157 0.7206
31.7132 13.3389 6.0173 0.8696
23.8376 11.0496 4.5953 0.8988
31.6794 16.0903 6.2144 0.8656
31.6969 19.0762 6.4703 0.8605
31.7776 20.7139 6.6344 0.8572
31.7316 24.0961 6.9686 0.8506
31.7990 27.9622 7.4060 0.8420
31.8116 30.0655 7.6555 0.8372
31.9492 37.4805 8.6137 0.8187
33.5008 42.2859 9.4355 0.8033
33.4760 45.5210 9.8827 0.7950
31.3267 45.9688 9.7293 0.7978
38.0113 65.4169 13.2326 0.7355
31.9832 79.4378 14.9775 0.7063
3.6784 11.4456 2.1027 0.9524
2.3821 11.5584 2.0640 0.9532
1.5339 11.6028 2.0470 0.9536
0.6930 11.6077 2.0338 0.9539
-0.1415 11.6126 2.0312 0.9539
-0.5589 11.6150 2.0338 0.9539
-0.9780 11.6174 2.0391 0.9538
-1.3999 11.6199 2.0470 0.9536
-1.8238 11.6113 2.0557 0.9534
-2.2494 11.5899 2.0649 0.9532
-2.6783 11.5633 2.0760 0.9529
-3.9907 11.4520 2.1211 0.9519
-5.9436 11.4463 2.2558 0.9490
-6.5908 11.6501 2.3411 0.9471
-7.1566 11.6534 2.3918 0.9460
-7.7484 11.6568 2.4481 0.9447
-8.3694 11.6605 2.5104 0.9434
-9.0238 11.6643 2.5793 0.9419
-10.4514 11.6726 2.7403 0.9384
-11.2363 11.6771 2.8343 0.9363
-53.0738 51.3333 12.9140 0.7409
-53.0947 47.7862 12.4934 0.7482
-53.2818 35.6142 11.2090 0.7709
-62.2460 35.4252 12.5264 0.7476
-75.1037 35.8719 14.5570 0.7132
-70.9398 24.9251 13.1509 0.7369
-72.4988 19.7585 13.1424 0.7370
-74.0090 17.3420 13.2947 0.7344
-75.4522 14.8450 13.4495 0.7318
-78.4512 12.5286 13.8949 0.7243
-65.7815 -41.2157 13.5769 0.7296
-40.0812 -33.9889 9.1913 0.8078
-24.3763 -31.9300 7.0259 0.8495
-22.6083 -31.9285 6.8425 0.8531
-22.0015 -33.5643 7.0192 0.8496
-19.9503 -35.7985 7.1678 0.8467
-14.7473 -31.6021 6.0994 0.8680
-13.9422 -36.5071 6.8349 0.8533
-14.0937 -41.2938 7.6313 0.8376
-12.9325 -42.8675 7.8312 0.8337
-8.1034 -43.2321 7.6929 0.8364
-4.7818 -41.9558 7.3855 0.8424
-3.2649 -41.9999 6.7081 0.8431
-0.2520 -43.6681 6.9537 0.8379
2.7595 -41.7261 6.6588 0.8442
5.7895 -41.7337 6.7092 0.8431
7.3326 -41.7768 6.7541 0.8421
9.1581 -43.0405 7.0070 0.8367
16.0334 -43.4821 7.3796 0.8289
21.5646 -43.4185 7.7196 0.8217
23.7628 -43.8216 7.9379 0.8172
25.2494 -42.8196 7.9156 0.8176
26.8227 -41.9679 7.9311 0.8173
51.3898 -59.5100 12.5204 0.7273
53.6398 -50.0486 11.6820 0.7429
53.6598 -46.5788 11.3147 0.7499
51.9464 -36.0873 10.0719 0.7740
66.9429 -36.5233 12.1431 0.7343
40.1319 10.4414 6.6032 0.8454
31.6976 10.7277 5.3287 0.8732
31.7129 13.3388 5.4784 0.8699
23.8366 11.0491 4.1836 0.8991
31.6791 16.0901 5.6578 0.8660
31.6877 17.5529 5.7683 0.8635
30.5083 21.4854 5.9418 0.8597
31.7973 24.1461 6.3577 0.8507
31.7885 34.6885 7.4922 0.8265
32.7576 41.3478 8.3999 0.8076
33.9665 53.9037 10.1454 0.7725
33.5026 57.6575 10.6186 0.7633
34.9420 65.4349 11.8122 0.7405
33.5588 75.4176 13.1445 0.7158
30.7528 76.3819 13.1116 0.7164
2.3902 11.5978 1.8856 0.9532
0.6929 11.6077 1.8517 0.9540
-0.1415 11.6126 1.8493 0.9541
-0.9780 11.6174 1.8565 0.9539
-1.3999 11.6199 1.8637 0.9537
-3.5909 11.6327 1.9386 0.9519
-4.5304 11.6381 1.9887 0.9507
-5.5249 11.6439 2.0523 0.9491
-6.0140 11.5819 2.0781 0.9485
-7.6149 11.4561 2.1905 0.9458
-9.0238 11.6643 2.3483 0.9420
-9.7160 11.6683 2.4178 0.9404
-11.2363 11.6771 2.5805 0.9365
-53.0744 51.3338 11.7577 0.7415
-53.4848 44.7689 11.1065 0.7539
-65.1739 40.2555 12.1981 0.7332
-62.2460 35.4252 11.4046 0.7482
-74.3157 35.4955 13.1143 0.7164
-73.7789 32.0393 12.8082 0.7220
-88.8030 20.8086 14.5237 0.6911
-84.7979 -41.1718 15.0103 0.6826
-66.3864 -41.5947 12.4747 0.7281
-40.8754 -32.2129 8.2872 0.8099
-40.5171 -34.3585 8.4593 0.8064
-34.9314 -31.8466 7.5270 0.8258
-32.2006 -33.8961 7.4448 0.8275
-24.3763 -31.9300 6.3967 0.8498
-22.6054 -31.9244 6.2289 0.8535
-22.1127 -33.7340 6.4229 0.8493
-22.7219 -40.7719 7.4325 0.8277
-16.3287 -31.9455 5.7129 0.8647
-13.9679 -40.9253 6.8859 0.8393
-12.9353 -42.8769 7.1315 0.8341
-11.4282 -43.4670 7.1568 0.8336
-8.1765 -43.6220 7.0672 0.8355
-4.7857 -41.9898 6.7296 0.8427
-3.2635 -41.9821 6.0489 0.8435
-0.2520 -43.6681 6.2730 0.8382
5.7920 -41.7517 6.0551 0.8434
7.3302 -41.7633 6.0910 0.8425
10.9602 -43.7334 6.4766 0.8334
17.3920 -42.4105 6.5846 0.8309
21.5873 -43.4642 6.9713 0.8219
25.2489 -42.8189 7.1407 0.8180
26.8352 -41.9874 7.1581 0.8176
52.0574 -75.3467 13.1556 0.6907
53.5325 -71.8248 12.8681 0.6963
53.4753 -66.6169 12.2713 0.7081
51.4418 -59.5703 11.3063 0.7276
51.4345 -51.5666 10.4624 0.7450
51.5457 -41.5952 9.5147 0.7652
51.9464 -36.0873 9.0860 0.7745
64.5779 -38.3032 10.7856 0.7383
66.9423 -36.5229 10.9544 0.7348
31.6973 10.7276 4.8070 0.8735
31.9287 12.0999 4.9049 0.8711
31.7126 13.3387 4.9421 0.8702
23.8355 11.0486 3.7739 0.8993
31.6788 16.0900 5.1040 0.8662
31.6874 17.5528 5.2036 0.8638
31.7769 20.7135 5.4489 0.8579
30.5081 21.4853 5.3602 0.8600
31.7868 25.9888 5.8981 0.8471
31.7983 27.9615 6.0827 0.8427
31.7879 34.6878 6.7587 0.8268
31.8010 37.3067 7.0419 0.8203
31.9633 40.3453 7.3940 0.8122
32.3826 44.0342 7.8518 0.8018
31.4811 46.1954 8.0304 0.7978
33.0807 52.4980 8.9137 0.7782
30.7521 76.3801 11.8279 0.7170
3.2715 11.5927 1.7303 0.9525
2.8271 11.5953 1.7145 0.9529
1.5339 11.6028 1.6812 0.9538
1.1121 11.6053 1.6747 0.9540
0.2755 11.6101 1.6683 0.9542
-0.5590 11.6150 1.6704 0.9541
-0.9780 11.6175 1.6747 0.9540
-1.3999 11.6199 1.6813 0.9538
-1.8255 11.6224 1.6900 0.9536
-2.6931 11.6274 1.7145 0.9529
-3.1376 11.6300 1.7304 0.9525
-3.5909 11.6327 1.7488 0.9520
-4.0546 11.6354 1.7700 0.9514
-4.5303 11.6381 1.7940 0.9508
-5.5249 11.6439 1.8514 0.9493
-7.1567 11.6534 1.9645 0.9462
-7.7484 11.6569 2.0107 0.9450
-8.9357 11.5504 2.0978 0.9427
-9.5486 11.4673 2.1436 0.9415
-10.2712 11.4712 2.2119 0.9397
-11.0423 11.4755 2.2877 0.9377
-56.6380 54.7807 11.3190 0.7273
-53.4657 48.1201 10.3329 0.7478
-53.1339 41.3241 9.6693 0.7618
-53.1513 38.3570 9.4157 0.7673
-53.1679 35.5380 9.1866 0.7723
-68.5796 35.8339 11.1152 0.7315
-78.1673 33.9451 12.2418 0.7087
-79.4393 31.1581 12.2578 0.7083
-71.7774 19.5620 10.6869 0.7403
-73.0653 17.1209 10.7801 0.7384
-75.1155 14.7788 10.9972 0.7339
-84.4721 -41.0137 13.4891 0.6842
-42.9431 -29.1037 7.4520 0.8109
-42.9799 -31.4377 7.6494 0.8064
-40.8703 -32.2089 7.4750 0.8104
-40.6893 -34.5046 7.6637 0.8061
-34.9263 -31.8420 6.7893 0.8261
-33.1284 -40.3077 7.4949 0.8099
-22.1131 -33.7345 5.7943 0.8496
-16.3267 -31.9416 5.1531 0.8651
-14.7207 -31.5452 5.0006 0.8688
-13.9219 -32.8631 5.1269 0.8657
-13.9429 -36.5088 5.6139 0.8539
-11.4639 -43.6028 6.4764 0.8334
-9.6918 -43.0989 6.3458 0.8365
-8.1766 -43.6220 6.3754 0.8358
-6.5669 -43.6313 6.3382 0.8367
-3.2631 -41.9770 5.3948 0.8438
-1.8548 -44.4808 5.7043 0.8357
-0.2520 -43.6681 5.5953 0.8385
2.7602 -41.7370 5.3595 0.8448
7.3315 -41.7708 5.4340 0.8428
9.4786 -44.5468 5.8356 0.8322
10.9602 -43.7334 5.7769 0.8338
21.7590 -43.8099 6.2676 0.8210
25.2485 -42.8182 6.3691 0.8184
26.8291 -41.9780 6.3834 0.8180
52.1628 -75.4992 11.7581 0.6907
51.4412 -59.5695 10.0848 0.7280
53.5942 -57.7361 10.0938 0.7278
53.6386 -50.0475 9.3998 0.7439
53.6586 -46.5777 9.1043 0.7509
51.5451 -41.5948 8.4867 0.7656
51.5622 -38.6366 8.2557 0.7712
51.9463 -36.0873 8.1044 0.7749
66.9416 -36.5226 9.7708 0.7353
72.4318 -36.2067 10.3757 0.7214
40.5554 10.5515 5.3694 0.8445
35.7748 10.6927 4.7842 0.8602
31.6970 10.7275 4.2877 0.8738
31.9284 12.0998 4.3749 0.8714
31.6785 16.0898 4.5525 0.8665
31.9201 19.2104 4.7735 0.8605
31.7766 20.7133 4.8602 0.8582
30.5080 21.4852 4.7811 0.8603
31.7865 25.9885 5.2608 0.8474
31.7980 27.9612 5.4255 0.8430
31.7925 30.0474 5.6051 0.8383
31.7736 32.2663 5.8023 0.8331
31.9025 40.2686 6.5827 0.8129
31.2363 42.4755 6.7556 0.8085
31.3550 46.0104 7.1341 0.7989
32.2436 51.1696 7.7495 0.7836
31.8282 59.6038 8.6578 0.7615
33.5320 75.3574 10.5684 0.7170
30.7280 76.3203 10.5419 0.7176
2.3902 11.5979 1.5173 0.9534
1.5339 11.6028 1.4996 0.9539
-0.1415 11.6126 1.4880 0.9542
-0.5589 11.6150 1.4900 0.9542
-0.9780 11.6175 1.4938 0.9541
-1.3999 11.6199 1.4996 0.9539
-1.8255 11.6224 1.5074 0.9537
-2.2562 11.6249 1.5173 0.9534
-3.1376 11.6300 1.5434 0.9526
-5.0198 11.6410 1.6243 0.9502
-5.5249 11.6439 1.6514 0.9494
-8.3695 11.6605 1.8391 0.9438
-9.0238 11.6643 1.8896 0.9423
-9.7160 11.6683 1.9455 0.9406
-11.2018 11.6412 2.0700 0.9369
-53.0756 51.3351 9.4612 0.7425
-53.0965 47.7878 9.1530 0.7497
-53.1519 38.3574 8.3986 0.7677
-57.3071 35.3965 8.6306 0.7621
-62.2461 35.4253 9.1768 0.7491
-75.6473 36.1315 10.7416 0.7131
-73.7809 32.0402 10.3065 0.7230
-71.5573 28.0666 9.8487 0.7335
-72.6380 19.7965 9.6466 0.7381
-77.5223 9.5410 10.0079 0.7298
-84.8320 -41.1884 12.0831 0.6837
-78.4987 -41.6596 11.3868 0.6988
-74.6613 -43.1270 11.0477 0.7063
-42.9798 -31.4376 6.8230 0.8067
-40.8653 -32.2049 6.6667 0.8107
-32.5434 -31.8824 5.8374 0.8322
-33.1288 -40.3083 6.6853 0.8103
-24.3763 -31.9300 5.1472 0.8504
-23.8542 -39.4070 5.9023 0.8305
-22.8226 -40.9527 6.0071 0.8277
-16.3247 -31.9378 4.5958 0.8653
-14.7472 -31.6020 4.4684 0.8688
-13.3980 -44.4104 5.9437 0.8294
-11.4639 -43.6027 5.7767 0.8338
-9.6918 -43.0989 5.6602 0.8368
-4.7889 -42.0178 5.4186 0.8432
-1.8119 -43.4525 4.9002 0.8394
1.2553 -41.6484 4.6948 0.8456
4.5540 -44.5181 5.0422 0.8352
5.7867 -41.7137 4.7450 0.8441
10.9602 -43.7334 5.0800 0.8340
14.6465 -44.5905 5.2882 0.8278
16.3447 -44.3263 5.3231 0.8268
17.3830 -42.3886 5.1620 0.8316
18.9519 -41.8665 5.1780 0.8311
23.7628 -43.8215 5.6167 0.8182
52.1322 -75.4550 10.3335 0.6913
53.5123 -71.7977 10.0894 0.6974
53.5854 -66.7540 9.6449 0.7085
51.4405 -59.5688 8.8680 0.7285
53.6379 -50.0469 8.2657 0.7443
53.6580 -46.5772 8.0058 0.7513
51.5617 -38.6362 7.2596 0.7715
51.9463 -36.0872 7.1267 0.7752
66.9410 -36.5222 8.5920 0.7357
72.5604 -36.2710 9.1401 0.7214
40.8580 10.6302 4.7568 0.8437
35.7748 10.6927 4.2071 0.8605
31.6967 10.7275 3.7704 0.8740
31.7044 12.0149 3.8201 0.8724
23.8335 11.0476 2.9599 0.8997
31.6868 17.5525 4.0814 0.8643
30.4629 21.4535 4.1981 0.8607
31.7976 27.9609 4.7709 0.8433
31.8335 34.7376 5.3089 0.8272
31.0057 36.3738 5.3853 0.8250
31.9018 40.2677 5.7884 0.8132
31.8956 43.3720 6.0660 0.8052
31.3262 45.9681 6.2677 0.7994
31.8341 50.5195 6.7280 0.7863
31.8290 54.7773 7.1382 0.7749
32.1590 60.2231 7.6924 0.7597
31.9866 65.4519 8.2082 0.7458
3.2715 11.5927 1.3572 0.9527
2.8271 11.5953 1.3447 0.9531
1.1121 11.6053 1.3136 0.9542
0.2757 11.6231 1.3100 0.9543
-0.1417 11.6275 1.3102 0.9543
-0.5590 11.6150 1.3102 0.9543
-1.8255 11.6224 1.3256 0.9537
-3.1376 11.6300 1.3572 0.9527
-3.5909 11.6327 1.3717 0.9522
-4.0546 11.6354 1.3883 0.9516
-4.5303 11.6382 1.4072 0.9510
-6.0477 11.6470 1.4787 0.9485
-6.5908 11.6501 1.5082 0.9475
-7.7484 11.6569 1.5771 0.9452
-9.0238 11.6643 1.6616 0.9424
-10.4515 11.6726 1.7653 0.9389
-53.0971 47.7884 8.0489 0.7501
-53.1935 44.5249 7.8160 0.7564
-53.7603 41.8113 7.6736 0.7602
-53.2840 35.6156 7.2213 0.7726
-62.2461 35.4253 8.0697 0.7495
-67.8602 35.4580 8.6269 0.7348
-74.3159 35.4956 9.2795 0.7178
-73.7819 32.0407 9.0633 0.7234
-74.9485 29.3967 9.0710 0.7232
-76.7287 26.9591 9.1634 0.7208
-96.1625 18.9198 11.0426 0.6740
-78.4540 12.5291 8.9516 0.7263
-85.4384 -41.4828 10.7013 0.6823
-77.9032 -41.3436 9.9371 0.7012
-71.9959 -41.5874 9.3681 0.7156
-66.4193 -41.6153 8.8313 0.7294
-34.7715 -39.3387 5.9157 0.8095
-33.1292 -40.3088 5.8788 0.8106
-24.3763 -31.9300 4.5262 0.8507
-22.5968 -31.9122 4.4058 0.8544
-22.1138 -33.7356 4.5449 0.8501
-24.0100 -39.6643 5.2241 0.8297
-22.8230 -40.9534 5.2825 0.8280
-16.3228 -31.9339 4.0409 0.8656
-14.7472 -31.6020 3.9293 0.8690
-13.9225 -32.8645 4.0215 0.8662
-13.3989 -44.4135 5.2270 0.8297
-11.6797 -44.4235 5.1754 0.8312
-1.8548 -44.4807 4.3303 0.8362
2.7608 -41.7467 4.0695 0.8452
4.5540 -44.5181 4.3528 0.8354
5.7815 -41.6767 4.0926 0.8444
9.4786 -44.5467 4.4300 0.8327
10.9602 -43.7334 4.3854 0.8343
12.1468 -42.0106 4.2537 0.8388
17.3786 -42.3778 4.4551 0.8319
18.9593 -41.8829 4.4718 0.8313
22.1684 -44.6342 4.8475 0.8185
26.8356 -41.9881 4.8470 0.8185
52.1627 -75.4991 8.9259 0.6916
53.5410 -66.6988 8.3193 0.7091
51.4399 -59.5680 7.6554 0.7288
53.5929 -57.7347 7.6623 0.7286
51.4858 -51.6181 7.0914 0.7460
53.6574 -46.5767 6.9112 0.7516
51.5440 -41.5939 6.4424 0.7663
51.8063 -35.9900 6.1357 0.7761
61.1799 -36.2877 6.9188 0.7514
40.1327 10.4415 4.0336 0.8465
31.6967 10.7275 3.2549 0.8742
31.6616 13.3172 3.3410 0.8711
31.7959 24.1451 3.8834 0.8518
31.7858 25.9880 3.9936 0.8479
31.7972 27.9606 4.1185 0.8435
31.7546 32.2470 4.4021 0.8337
31.9014 40.2671 4.9969 0.8135
31.8952 43.3714 5.2365 0.8054
30.5879 57.2810 6.3162 0.7703
31.6841 64.8329 7.0189 0.7483
30.7443 76.3607 8.0068 0.7183
3.1864 13.0692 1.3085 0.9474
2.7158 13.1778 1.3087 0.9474
2.2415 13.2695 1.3090 0.9474
1.7641 13.3440 1.3092 0.9473
0.2788 11.7511 1.1433 0.9539
-0.1432 11.7536 1.1433 0.9539
-0.5657 11.7560 1.1448 0.9538
-0.9899 11.7585 1.1478 0.9537
-2.2887 11.7920 1.1684 0.9529
-2.7318 11.7946 1.1776 0.9525
-3.1741 11.7653 1.1853 0.9522
-4.5830 11.7734 1.2289 0.9505
-5.5891 11.7793 1.2682 0.9490
-6.1181 11.7824 1.2913 0.9480
-7.7484 11.6569 1.3615 0.9453
-8.3695 11.6605 1.3961 0.9439
-9.7160 11.6683 1.4769 0.9408
-11.2364 11.6772 1.5763 0.9369
-63.9966 61.8978 8.6600 0.6992
-60.4601 54.4152 7.9119 0.7212
-53.7609 41.8117 6.6246 0.7606
-53.1530 38.3582 6.3757 0.7684
-68.5799 35.8340 7.5264 0.7327
-74.3159 35.4956 8.0108 0.7182
-80.6769 28.3463 8.3175 0.7092
-71.0746 22.1401 7.2409 0.7414
-71.7792 19.5624 7.2364 0.7416
-75.1171 14.7791 7.4465 0.7352
-60.5598 -12.3188 6.0111 0.7801
-85.1473 -41.3414 9.2067 0.6836
-77.9468 -41.3667 8.5832 0.7014
-66.4113 -41.6104 7.6229 0.7298
-62.8230 -42.5768 7.3818 0.7371
-42.9797 -31.4376 5.1795 0.8073
-32.2022 -33.8977 4.5478 0.8287
-24.3762 -31.9299 3.9074 0.8509
-22.5939 -31.9081 3.8029 0.8546
-22.1141 -33.7361 3.9236 0.8503
-24.0178 -39.6773 4.5113 0.8299
-22.8234 -40.9541 4.5603 0.8283
-16.3208 -31.9301 3.4880 0.8658
-14.7472 -31.6020 3.3921 0.8692
-13.9694 -40.9296 4.2066 0.8405
-13.3989 -44.4135 4.5123 0.8299
-9.6918 -43.0989 4.2968 0.8373
2.7593 -41.7235 3.4250 0.8455
5.7897 -41.7353 3.4512 0.8444
12.1780 -42.1186 3.5912 0.8386
14.6465 -44.5904 3.8443 0.8283
16.4261 -44.5469 3.8889 0.8265
22.1684 -44.6342 4.0820 0.8187
23.7789 -43.8513 4.0859 0.8186
25.2473 -42.8161 4.0713 0.8191
52.1627 -75.4991 7.5164 0.6919
53.5544 -71.8543 7.3403 0.6979
51.4603 -51.5924 5.9686 0.7464
51.4226 -41.4959 5.4123 0.7671
51.9119 -36.0634 5.1774 0.7759
56.1837 -36.1118 5.4705 0.7649
66.9397 -36.5216 6.2459 0.7364
72.7159 -36.3487 6.6587 0.7216
79.1360 -36.0678 7.1234 0.7054
39.8283 10.3623 3.3709 0.8478
31.7040 12.0148 2.7770 0.8728
31.6778 16.0895 2.9102 0.8671
31.6864 17.5522 2.9670 0.8647
31.7753 20.7124 3.1068 0.8588
31.7335 25.9452 3.3574 0.8483
31.7968 27.9603 3.4681 0.8437
31.8092 30.0633 3.5849 0.8389
31.7722 32.2649 3.7090 0.8338
31.7865 34.6863 3.8536 0.8279
30.9644 36.3253 3.9096 0.8257
31.8402 40.1899 4.1998 0.8140
31.8546 54.8212 5.1933 0.7753
30.7535 57.5912 5.3476 0.7695
32.6093 90.2128 7.8570 0.6805
3.2857 11.6431 0.9909 0.9526
3.3845 13.8816 1.1703 0.9443
1.8405 13.9225 1.1503 0.9452
1.1256 11.7462 0.9665 0.9537
0.7014 11.7487 0.9640 0.9539
-0.5657 11.7561 0.9640 0.9539
-1.8518 11.7895 0.9775 0.9532
-2.2887 11.7920 0.9839 0.9529
-3.1741 11.7653 0.9981 0.9523
-3.6426 11.7999 1.0115 0.9516
-4.5955 11.8055 1.0376 0.9504
-5.0920 11.8084 1.0533 0.9497
-6.6855 11.8176 1.1121 0.9470
-7.2596 11.8210 1.1362 0.9458
-8.4898 11.8281 1.1925 0.9432
-9.1287 11.7999 1.2220 0.9419
-10.2789 12.3443 1.3157 0.9376
-10.7172 11.9694 1.3160 0.9376
-11.2364 11.6772 1.3273 0.9370
-53.0983 47.7895 5.8513 0.7507
-53.1535 38.3586 5.3690 0.7687
-53.1700 35.5394 5.2383 0.7736
-57.3073 35.3966 5.5171 0.7631
-75.6475 36.1316 6.8666 0.7143
-73.7838 32.0415 6.5888 0.7241
-71.5595 28.0674 6.2960 0.7345
-71.0752 22.1403 6.0976 0.7417
-72.4416 19.7430 6.1500 0.7398
-79.4115 15.6240 6.6291 0.7227
-77.4872 9.5367 6.3947 0.7310
-85.0900 -41.3136 7.7476 0.6841
-66.4123 -41.6109 6.4193 0.7301
-40.7031 -34.5162 4.3712 0.8072
-34.9061 -31.8235 3.8690 0.8273
-32.2026 -33.8982 3.8297 0.8289
-35.0142 -39.6132 4.3304 0.8088
-33.1301 -40.3099 4.2738 0.8111
-24.3762 -31.9299 3.2903 0.8511
-22.5911 -31.9041 3.2020 0.8548
-24.0178 -39.6772 3.7989 0.8302
-22.8238 -40.9548 3.8403 0.8285
-16.3189 -31.9263 2.9368 0.8660
-14.7472 -31.6020 2.8564 0.8694
-13.9231 -32.8659 2.9236 0.8665
-11.6797 -44.4235 3.7623 0.8316
-9.6918 -43.0988 3.6183 0.8375
-8.3304 -44.4430 3.7036 0.8340
-6.6904 -44.4525 3.6820 0.8349
-1.8548 -44.4807 2.9644 0.8365
1.2581 -41.7407 2.7806 0.8459
1.5974 -15.6156 1.0452 0.9390
2.7121 -15.4519 1.0446 0.9390
3.2641 -15.3403 1.0443 0.9391
16.4257 -44.5459 3.1614 0.8267
22.1684 -44.6342 3.3184 0.8189
26.8114 -41.9502 3.3151 0.8191
51.3615 -59.4772 5.2327 0.7298
51.4725 -55.4504 5.0378 0.7384
51.4648 -48.0192 4.6869 0.7541
51.5683 -44.7633 4.5470 0.7605
51.5589 -38.6342 4.2900 0.7724
56.1836 -36.1117 4.4472 0.7651
40.1348 10.4421 2.7614 0.8468
35.0346 10.4714 2.4348 0.8636
31.6962 10.7273 2.2281 0.8745
31.6516 11.9949 2.2538 0.8731
31.7114 13.3382 2.2907 0.8712
23.8303 11.0462 1.7490 0.9001
31.6775 16.0893 2.3658 0.8672
31.6949 19.0750 2.4632 0.8622
31.7750 20.7122 2.5256 0.8589
31.7341 22.3487 2.5845 0.8559
31.7954 24.1447 2.6584 0.8521
31.7853 25.9876 2.7339 0.8482
31.7969 27.9603 2.8194 0.8439
31.8092 30.0632 2.9144 0.8391
31.7863 34.6861 3.1328 0.8281
31.8095 40.1512 3.4109 0.8144
31.8942 43.3701 3.5847 0.8059
31.8359 54.7891 4.2194 0.7757
30.7425 57.5705 4.3458 0.7698
32.1541 88.9531 6.2982 0.6844
3.2857 11.6430 0.8056 0.9527
0.7014 11.7487 0.7837 0.9539
0.2788 11.7511 0.7827 0.9540
-0.1432 11.7536 0.7827 0.9540
-0.9899 11.7585 0.7857 0.9538
-1.3999 11.6199 0.7793 0.9542
-1.8518 11.7895 0.7946 0.9533
-2.2887 11.7920 0.7998 0.9530
-3.1741 11.7653 0.8114 0.9523
-5.0920 11.8083 0.8563 0.9498
-5.6043 11.8113 0.8705 0.9489
-6.1347 11.8144 0.8864 0.9480
-6.6856 11.8176 0.9041 0.9470
-7.2596 11.8210 0.9237 0.9459
-7.8598 11.8245 0.9454 0.9447
-9.1287 11.7999 0.9934 0.9419
-11.4136 13.7070 1.1877 0.9310
-52.3215 58.4346 5.2228 0.7302
-53.0781 51.3374 4.9170 0.7438
-53.1367 41.3263 4.4823 0.7635
-53.2855 35.6167 4.2678 0.7734
-74.3161 35.4957 5.4839 0.7188
-96.1720 18.9217 6.5265 0.6751
-78.4561 12.5295 5.2903 0.7272
-85.0382 -41.2885 6.2946 0.6846
-71.9888 -41.5832 5.5357 0.7166
-66.4209 -41.6163 5.2192 0.7304
-40.7036 -34.5166 3.5536 0.8074
-34.9011 -31.8189 3.1448 0.8275
-32.5433 -31.8823 3.0336 0.8331
-35.0141 -39.6132 3.5204 0.8090
-24.3762 -31.9299 2.6749 0.8513
-22.5882 -31.9001 2.6027 0.8550
-22.1148 -33.7371 2.6861 0.8507
-24.0178 -39.6772 3.0883 0.8303
-13.9445 -36.5132 2.6026 0.8550
-13.9701 -40.9317 2.8799 0.8408
-11.6797 -44.4234 3.0585 0.8318
-9.6918 -43.0988 2.9415 0.8377
-6.6905 -44.4525 2.9933 0.8351
-4.7858 -41.9906 2.8141 0.8442
-3.3531 -43.1357 2.2194 0.8409
2.9435 -44.5086 2.2881 0.8364
1.5445 -15.0984 0.7786 0.9410
2.8655 -16.3261 0.8503 0.9358
4.1002 -16.3605 0.8652 0.9347
4.7315 -16.3642 0.8738 0.9340
17.3683 -42.3528 2.3481 0.8325
51.4272 -69.0001 4.4144 0.7084
51.4379 -59.5657 4.0371 0.7296
51.4724 -55.4504 3.8810 0.7386
51.4880 -41.5487 3.3938 0.7672
51.5584 -38.6338 3.3049 0.7726
51.9459 -36.0870 3.2445 0.7762
56.0996 -36.0578 3.4209 0.7656
60.5337 -35.9045 3.6103 0.7544
66.4913 -36.2769 3.8854 0.7383
72.5180 -36.2498 4.1588 0.7227
87.4945 -36.1429 4.8560 0.6844
87.8542 -32.6514 4.8078 0.6870
40.8853 10.6374 2.1671 0.8443
34.0019 10.1628 1.8204 0.8675
31.6772 16.0892 1.8225 0.8674
31.8442 17.6396 1.8674 0.8643
31.9054 19.2016 1.9102 0.8614
31.7746 20.7120 1.9456 0.8591
31.7667 22.3716 1.9931 0.8559
32.4378 24.6324 2.0893 0.8495
31.7850 25.9873 2.1061 0.8484
31.8088 30.0629 2.2451 0.8392
31.7859 34.6856 2.4134 0.8283
31.8324 37.3436 2.5171 0.8216
31.9004 40.2659 2.6352 0.8140
30.5998 57.3033 3.3323 0.7709
32.0539 72.0357 4.0445 0.7292
32.3508 89.4975 4.8816 0.6831
2.3513 13.9195 0.7241 0.9450
1.1225 11.7143 0.6037 0.9540
0.6995 11.7168 0.6021 0.9541
0.2781 11.7192 0.6013 0.9541
-0.9872 11.7266 0.6037 0.9540
-1.8468 11.7575 0.6105 0.9534
-3.1741 11.7653 0.6251 0.9524
-4.1018 11.7707 0.6394 0.9513
-4.5830 11.7735 0.6481 0.9507
-6.6855 11.8176 0.6965 0.9471
-7.8598 11.8245 0.7283 0.9447
-11.4136 13.7070 0.9150 0.9311
-59.0148 65.9099 4.5382 0.7016
-11.2514 11.6927 0.8324 0.9371
-53.4485 51.6956 3.8143 0.7424
-62.3613 56.1262 4.3037 0.7146
-53.4889 44.7723 3.5781 0.7563
-53.7626 41.8130 3.4937 0.7613
-53.5248 38.6266 3.3859 0.7677
-53.2861 35.6170 3.2878 0.7736
-75.6476 36.1316 4.3004 0.7148
-73.0687 17.1217 3.8497 0.7404
-75.1188 14.7795 3.9272 0.7359
-77.8336 -41.3066 4.5200 0.7026
-63.8861 -43.2973 3.9588 0.7341
-42.9796 -31.4375 2.7316 0.8079
-40.8403 -32.1852 2.6674 0.8120
-24.0177 -23.5299 1.7247 0.8740
-35.0141 -39.6131 2.7120 0.8092
-24.3762 -31.9299 2.0606 0.8514
-22.1151 -33.7376 2.0693 0.8508
-16.2300 -31.7525 1.8292 0.8669
-13.9237 -32.8673 1.8310 0.8668
-13.9705 -40.9328 2.2187 0.8409
-13.3989 -44.4134 2.3797 0.8304
-8.3304 -44.4429 2.3195 0.8343
-3.0887 -39.7330 1.4359 0.8526
-1.6598 -39.8027 1.4353 0.8526
5.5305 -39.8674 1.4502 0.8512
2.8742 -16.3757 0.5990 0.9356
3.4852 -16.3793 0.6034 0.9352
4.7380 -16.3866 0.6146 0.9340
13.0991 -39.8799 1.5124 0.8453
14.7315 -39.9516 1.5342 0.8433
16.4197 -40.0398 1.5592 0.8410
22.1684 -44.6341 1.7956 0.8192
23.7777 -43.8490 1.7972 0.8190
26.9396 -42.1508 1.8024 0.8185
51.1014 -73.9631 3.2391 0.6978
51.3828 -68.9406 3.0980 0.7088
51.4373 -59.5650 2.8356 0.7298
51.5672 -44.7623 2.4603 0.7609
51.5579 -38.6334 2.3213 0.7727
56.1835 -36.1116 2.4064 0.7654
60.4873 -35.8770 2.5339 0.7547
57.3350 -31.2813 2.3533 0.7700
90.9724 -30.1403 3.4530 0.6814
31.6956 10.7271 1.2056 0.8746
31.9136 12.0942 1.2297 0.8723
31.7108 13.3379 1.2395 0.8714
31.6769 16.0890 1.2801 0.8674
31.8439 17.6395 1.3116 0.8644
31.9051 19.2014 1.3417 0.8615
31.7743 20.7118 1.3666 0.8591
32.3948 24.5998 1.4656 0.8498
31.7846 25.9870 1.4793 0.8485
31.8085 30.0626 1.5769 0.8393
31.9826 32.4785 1.6423 0.8332
31.8828 37.4027 1.7708 0.8214
31.9021 40.2680 1.8510 0.8141
31.8936 43.3692 1.9397 0.8062
32.0595 47.0442 2.0512 0.7962
31.8344 50.5201 2.1515 0.7874
32.1496 60.2057 2.4591 0.7610
32.0654 79.6420 3.0934 0.7092
3.2857 11.6429 0.4359 0.9527
3.3845 13.8816 0.5148 0.9444
2.3459 13.8876 0.5075 0.9452
