ply
format ascii 1.0
element vertex 1592
property float32 x
property float32 y
property float32 z
property float32 I
end_header
-4.4141 10.2363 -1.6486 0.9559
-4.7780 10.0699 -1.6484 0.9559
-5.1358 9.8907 -1.6482 0.9559
-6.1669 9.2777 -1.6476 0.9560
-6.4952 9.0492 -1.6474 0.9560
-7.1259 8.5578 -1.6470 0.9560
-8.7847 6.8322 -1.6459 0.9560
-9.2504 6.1831 -1.6455 0.9560
-9.8587 5.1513 -1.6451 0.9560
-10.0365 4.7937 -1.6450 0.9560
-10.7564 4.2189 -1.7088 0.9544
-11.5967 3.6124 -1.7964 0.9521
-11.8246 2.7708 -1.7961 0.9521
-11.9916 1.9151 -1.7960 0.9521
-12.0970 1.0497 -1.7958 0.9521
-12.1403 0.1790 -1.7957 0.9521
-12.1385 -0.2569 -1.7956 0.9521
-12.1212 -0.6924 -1.7956 0.9521
-12.0399 -1.5602 -1.7955 0.9521
-11.4283 -4.0979 -1.7955 0.9521
-11.2740 -4.5056 -1.7956 0.9521
-10.0525 -6.8128 -1.7960 0.9521
-8.3455 -6.1043 -1.5292 0.9591
-7.2692 -6.1643 -1.4096 0.9622
-6.9239 -6.3125 -1.3857 0.9628
-7.4238 -7.8147 -1.5941 0.9574
-8.0460 -9.1029 -1.7968 0.9521
-7.0226 -9.9176 -1.7972 0.9521
-6.6627 -10.1642 -1.7974 0.9520
-6.2941 -10.3979 -1.7976 0.9520
-5.3297 -9.5636 -1.6192 0.9567
-5.1414 -11.0176 -1.7981 0.9520
-4.3386 -11.3606 -1.7985 0.9520
-3.5132 -11.6452 -1.7989 0.9520
-3.0933 -11.7652 -1.7991 0.9520
-0.4588 -11.0036 -1.8007 0.9563
2.2940 -10.7811 -1.8022 0.9563
2.6798 -10.6931 -1.8024 0.9563
3.4409 -10.4758 -1.8028 0.9563
3.8152 -10.3468 -1.8030 0.9563
4.5488 -10.0488 -1.8035 0.9563
4.6562 -9.3748 -1.7114 0.9585
5.0850 -9.3774 -1.7441 0.9577
5.6047 -9.5049 -1.8041 0.9563
6.2737 -9.0803 -1.8045 0.9563
6.5963 -8.8503 -1.8047 0.9562
6.2489 -7.7846 -1.6321 0.9603
5.9829 -6.4453 -1.4378 0.9650
9.5040 -5.6371 -1.8067 0.9562
9.8855 -4.9415 -1.8070 0.9562
10.3617 -3.8510 -1.8074 0.9562
10.4939 -3.4768 -1.8075 0.9562
10.8858 -1.9395 -1.8079 0.9562
10.9489 -1.5475 -1.8079 0.9562
10.9979 -1.1536 -1.8080 0.9562
11.0326 -0.7580 -1.8081 0.9562
11.0511 0.4324 -1.8082 0.9562
10.9410 1.6180 -1.8083 0.9562
10.7968 2.3988 -1.8083 0.9562
10.5968 3.1672 -1.8083 0.9562
10.3420 3.9193 -1.8083 0.9562
9.8600 5.0080 -1.8081 0.9562
9.4746 5.7021 -1.8080 0.9562
8.5594 6.9981 -1.8077 0.9562
8.3022 7.3004 -1.8076 0.9562
6.2825 7.9300 -1.6541 0.9598
5.9933 8.1498 -1.6540 0.9598
5.3923 8.5574 -1.6537 0.9598
5.0812 8.7446 -1.6536 0.9598
4.7635 8.9206 -1.6534 0.9598
4.1105 9.2376 -1.6531 0.9598
3.7759 9.3783 -1.6530 0.9599
3.4364 9.5068 -1.6528 0.9599
3.0927 9.6230 -1.6526 0.9599
2.3938 9.8180 -1.6523 0.9599
2.0396 9.8965 -1.6521 0.9599
1.3240 10.0151 -1.6517 0.9599
0.6019 10.0819 -1.6513 0.9599
-0.4853 10.0846 -1.6507 0.9599
-1.2073 10.0214 -1.6503 0.9599
-1.5660 9.9704 -1.6501 0.9599
-2.2768 9.8299 -1.6497 0.9599
-3.9930 9.2598 -1.6487 0.9600
-4.6460 8.9474 -1.6484 0.9600
-4.9636 8.7738 -1.6482 0.9600
-5.5790 8.3932 -1.6478 0.9600
-6.7199 7.5050 -1.6471 0.9600
-6.9842 7.2582 -1.6469 0.9600
-4.8674 4.7078 -1.1072 0.9729
-4.9712 4.4742 -1.0935 0.9733
-7.7217 6.4633 -1.6464 0.9600
-7.9480 6.1814 -1.6462 0.9600
-8.1640 5.8916 -1.6461 0.9600
-8.3695 5.5943 -1.6459 0.9600
-8.5641 5.2897 -1.6458 0.9600
-8.9201 4.6609 -1.6455 0.9600
-9.0810 4.3374 -1.6454 0.9600
-9.7040 4.2141 -1.7298 0.9580
-10.2087 4.0041 -1.7929 0.9565
-10.4930 3.2686 -1.7969 0.9564
-10.6030 2.8897 -1.7968 0.9564
-10.9727 0.5562 -1.7963 0.9564
-10.9853 0.1620 -1.7963 0.9564
-10.9837 -0.2324 -1.7962 0.9564
-10.8945 -1.4118 -1.7962 0.9565
-10.8367 -1.8019 -1.7961 0.9565
-10.7650 -2.1898 -1.7961 0.9565
-10.6795 -2.5748 -1.7961 0.9565
-10.4674 -3.3344 -1.7962 0.9565
-10.3411 -3.7080 -1.7962 0.9565
-10.0488 -4.4406 -1.7962 0.9564
-9.7048 -5.1504 -1.7963 0.9564
-9.5140 -5.4956 -1.7964 0.9564
-7.7504 -6.1079 -1.6134 0.9608
-7.5705 -7.9692 -1.7972 0.9564
-7.2801 -8.2364 -1.7973 0.9564
-6.9803 -8.4930 -1.7974 0.9564
-6.6714 -8.7387 -1.7976 0.9564
-6.3539 -8.9733 -1.7977 0.9564
-6.0282 -9.1964 -1.7979 0.9564
-5.3538 -9.6069 -1.7982 0.9564
-4.6517 -9.9681 -1.7985 0.9564
-3.9253 -10.2782 -1.7989 0.9564
-3.1784 -10.5355 -1.7992 0.9564
-2.7985 -10.6439 -1.7994 0.9564
-2.0280 -10.8197 -1.7998 0.9564
-1.6385 -10.8867 -1.8000 0.9564
0.3029 -10.0475 -1.8012 0.9600
0.6634 -10.0312 -1.8014 0.9600
1.3817 -9.9600 -1.8018 0.9600
1.7385 -9.9051 -1.8020 0.9600
2.0932 -9.8374 -1.8022 0.9600
2.7942 -9.6640 -1.8026 0.9599
3.1396 -9.5585 -1.8028 0.9599
3.4811 -9.4407 -1.8030 0.9599
3.8182 -9.3107 -1.8032 0.9599
4.1504 -9.1686 -1.8034 0.9599
4.4773 -9.0147 -1.8036 0.9599
5.4222 -8.4838 -1.8041 0.9599
6.0182 -8.0746 -1.8045 0.9599
6.5833 -7.6235 -1.8049 0.9599
6.8533 -7.3830 -1.8050 0.9599
6.6054 -6.1631 -1.6188 0.9640
7.6095 -6.6053 -1.8055 0.9599
8.2776 -5.7505 -1.8060 0.9599
8.6702 -5.1426 -1.8063 0.9599
8.8498 -4.8284 -1.8064 0.9599
9.1747 -4.1816 -1.8067 0.9599
9.3195 -3.8498 -1.8068 0.9599
9.5729 -3.1716 -1.8070 0.9598
9.6811 -2.8261 -1.8071 0.9598
9.7768 -2.4769 -1.8072 0.9598
9.8599 -2.1244 -1.8073 0.9598
9.9302 -1.7692 -1.8074 0.9598
9.9877 -1.4117 -1.8074 0.9598
10.0640 -0.6915 -1.8076 0.9598
10.0826 -0.3298 -1.8076 0.9598
10.0882 0.0323 -1.8077 0.9598
10.0603 0.7561 -1.8077 0.9598
10.0268 1.1167 -1.8078 0.9598
9.9804 1.4760 -1.8078 0.9598
9.9210 1.8333 -1.8078 0.9598
9.8488 2.1882 -1.8078 0.9598
9.6664 2.8892 -1.8078 0.9598
9.5563 3.2343 -1.8078 0.9598
9.4340 3.5751 -1.8077 0.9598
9.2994 3.9114 -1.8077 0.9598
9.1528 4.2426 -1.8077 0.9598
8.9943 4.5683 -1.8076 0.9598
8.8243 4.8881 -1.8076 0.9598
8.6428 5.2015 -1.8075 0.9598
7.8081 6.3838 -1.8072 0.9598
6.2364 6.8053 -1.6540 0.9632
5.9877 7.0243 -1.6539 0.9632
5.7313 7.2342 -1.6538 0.9632
5.4675 7.4348 -1.6536 0.9632
4.9193 7.8067 -1.6534 0.9632
4.3458 8.1382 -1.6531 0.9632
4.0505 8.2882 -1.6530 0.9632
3.1351 8.6733 -1.6525 0.9632
2.1839 8.9574 -1.6521 0.9632
1.8608 9.0291 -1.6519 0.9632
0.8791 9.1740 -1.6514 0.9632
0.2186 9.2115 -1.6510 0.9632
-0.1122 9.2124 -1.6508 0.9633
-0.7727 9.1786 -1.6505 0.9633
-1.1016 9.1439 -1.6503 0.9633
-2.0775 8.9695 -1.6497 0.9633
-2.7151 8.7954 -1.6494 0.9633
-3.3384 8.5761 -1.6490 0.9633
-3.6437 8.4498 -1.6488 0.9633
-3.9442 8.3126 -1.6487 0.9633
-4.2396 8.1648 -1.6485 0.9633
-4.5295 8.0065 -1.6483 0.9633
-4.8135 7.8379 -1.6481 0.9633
-5.0912 7.6593 -1.6480 0.9633
-5.6264 7.2728 -1.6476 0.9633
-5.8833 7.0655 -1.6475 0.9633
-6.1325 6.8490 -1.6473 0.9633
-6.3738 6.6239 -1.6471 0.9633
-7.0471 5.8987 -1.6467 0.9633
-7.4508 5.3769 -1.6464 0.9633
-7.6384 5.1056 -1.6463 0.9634
-8.1412 4.2539 -1.6459 0.9634
-9.3394 3.6631 -1.7976 0.9601
-9.4643 3.3253 -1.7975 0.9601
-9.6774 2.6375 -1.7973 0.9601
-9.7653 2.2883 -1.7972 0.9601
-9.9035 1.5816 -1.7970 0.9601
-2.0521 0.1781 -0.3691 0.9917
-2.0422 0.1035 -0.3664 0.9917
-2.0197 0.0298 -0.3619 0.9918
-2.0246 -0.0428 -0.3629 0.9918
-2.0449 -0.1168 -0.3670 0.9917
-2.0516 -0.1913 -0.3692 0.9917
-2.0396 -0.2643 -0.3685 0.9917
-9.8911 -1.6447 -1.7967 0.9601
-9.7475 -2.3501 -1.7967 0.9601
-9.6569 -2.6985 -1.7967 0.9601
-9.3112 -3.7211 -1.7967 0.9601
-9.1718 -4.0530 -1.7968 0.9601
-8.4983 -5.3247 -1.7970 0.9601
-8.3021 -5.6265 -1.7971 0.9601
-7.7504 -6.1079 -1.7682 0.9607
-7.6501 -6.4873 -1.7973 0.9601
-7.4127 -6.7581 -1.7974 0.9601
-7.1658 -7.0202 -1.7975 0.9601
-6.9096 -7.2734 -1.7976 0.9601
-6.6444 -7.5172 -1.7977 0.9600
-6.3708 -7.7514 -1.7978 0.9600
-6.0888 -7.9756 -1.7980 0.9600
-5.5017 -8.3932 -1.7982 0.9600
-4.2452 -9.0972 -1.7988 0.9600
-3.5823 -9.3800 -1.7992 0.9600
-3.2436 -9.5034 -1.7993 0.9600
-2.9006 -9.6147 -1.7995 0.9600
-2.5539 -9.7135 -1.7997 0.9600
-2.2037 -9.7999 -1.7999 0.9600
-1.8507 -9.8737 -1.8000 0.9600
-1.4953 -9.9348 -1.8002 0.9600
-1.1378 -9.9831 -1.8004 0.9600
-0.7158 -9.2088 -1.8007 0.9631
-0.0533 -9.2383 -1.8011 0.9631
0.2784 -9.2352 -1.8013 0.9630
0.9404 -9.1932 -1.8016 0.9630
2.2474 -8.9676 -1.8024 0.9630
3.1994 -8.6767 -1.8029 0.9630
3.5092 -8.5571 -1.8031 0.9630
4.4101 -8.1327 -1.8036 0.9630
4.9832 -7.7969 -1.8040 0.9630
5.5308 -7.4207 -1.8043 0.9630
5.7941 -7.2180 -1.8045 0.9630
6.2982 -6.7849 -1.8048 0.9630
6.9929 -6.0701 -1.8053 0.9630
7.2068 -5.8156 -1.8054 0.9630
7.4115 -5.5536 -1.8056 0.9630
7.6067 -5.2844 -1.8057 0.9630
7.7920 -5.0083 -1.8058 0.9630
8.1324 -4.4370 -1.8061 0.9629
8.4309 -3.8426 -1.8063 0.9629
8.7966 -2.9144 -1.8066 0.9629
8.8960 -2.5969 -1.8067 0.9629
9.0602 -1.9521 -1.8069 0.9629
9.1248 -1.6257 -1.8069 0.9629
9.1776 -1.2972 -1.8070 0.9629
9.2648 -0.3031 -1.8072 0.9629
9.2442 0.6947 -1.8073 0.9629
8.4103 3.8985 -1.8072 0.9629
8.2648 4.1977 -1.8072 0.9629
7.7649 5.0614 -1.8070 0.9629
7.5779 5.3367 -1.8069 0.9629
7.3811 5.6051 -1.8069 0.9629
6.9468 6.1086 -1.8035 0.9630
6.1765 5.8375 -1.6568 0.9660
5.9518 6.0441 -1.6537 0.9660
5.7307 6.2535 -1.6536 0.9660
5.5022 6.4548 -1.6535 0.9660
5.2666 6.6478 -1.6534 0.9660
3.4462 7.7446 -1.6526 0.9660
2.8812 7.9706 -1.6523 0.9661
2.5929 8.0682 -1.6522 0.9661
2.3015 8.1553 -1.6520 0.9661
1.4110 8.3532 -1.6516 0.9661
1.1101 8.3976 -1.6514 0.9661
0.8079 8.4312 -1.6512 0.9661
0.5047 8.4540 -1.6511 0.9661
0.2009 8.4658 -1.6509 0.9661
-0.1031 8.4667 -1.6508 0.9661
-1.3133 8.3614 -1.6501 0.9661
-2.4955 8.0841 -1.6494 0.9661
-2.7838 7.9885 -1.6493 0.9661
-3.3491 7.7666 -1.6489 0.9661
-3.6254 7.6406 -1.6488 0.9661
-4.4245 7.2045 -1.6483 0.9661
-4.9290 6.8672 -1.6480 0.9661
-5.1719 6.6852 -1.6478 0.9661
-5.8590 6.0888 -1.6474 0.9662
-6.4780 5.4223 -1.6469 0.9662
-6.6679 5.1859 -1.6468 0.9662
-6.8492 4.9428 -1.6467 0.9662
-7.0217 4.6934 -1.6466 0.9662
-7.1852 4.4380 -1.6465 0.9662
-7.4242 4.2252 -1.6654 0.9658
-8.3061 3.9673 -1.7946 0.9632
-8.4597 3.6737 -1.7981 0.9631
-8.5857 3.3675 -1.7980 0.9631
-1.7358 0.4067 -0.3476 0.9928
-1.7073 0.1481 -0.3341 0.9930
-1.7084 0.0866 -0.3335 0.9931
-1.7069 -0.1591 -0.3342 0.9930
-1.6971 -0.2822 -0.3354 0.9930
-1.7395 -0.4194 -0.3488 0.9927
-1.7595 -0.4917 -0.3562 0.9926
-1.7775 -0.5662 -0.3637 0.9924
-8.5601 -3.4210 -1.7972 0.9631
-8.4320 -3.7261 -1.7972 0.9631
-7.9831 -4.6113 -1.7973 0.9631
-7.4419 -5.4434 -1.7975 0.9631
-7.2421 -5.7073 -1.7976 0.9631
-6.5875 -6.4537 -1.7979 0.9631
-6.3519 -6.6864 -1.7980 0.9631
-5.5973 -7.3318 -1.7983 0.9631
-5.3309 -7.5286 -1.7984 0.9631
-5.0576 -7.7156 -1.7986 0.9631
-3.6000 -8.4979 -1.7993 0.9631
-2.3475 -8.9288 -1.7999 0.9631
-1.3744 -9.1320 -1.8004 0.9631
-0.0493 -8.5435 -1.8012 0.9657
0.2574 -8.5405 -1.8013 0.9657
0.5639 -8.5266 -1.8015 0.9657
2.0783 -8.2928 -1.8023 0.9657
2.3749 -8.2136 -1.8025 0.9657
2.6684 -8.1238 -1.8027 0.9656
2.9586 -8.0236 -1.8029 0.9656
3.2450 -7.9129 -1.8030 0.9656
3.5273 -7.7920 -1.8032 0.9656
3.8050 -7.6611 -1.8034 0.9656
4.0780 -7.5203 -1.8035 0.9656
4.3457 -7.3697 -1.8037 0.9656
5.3576 -6.6742 -1.8043 0.9656
5.5942 -6.4781 -1.8045 0.9656
5.8236 -6.2737 -1.8046 0.9656
6.4658 -5.6126 -1.8050 0.9656
7.0332 -4.8860 -1.8054 0.9656
7.5192 -4.1024 -1.8058 0.9656
7.6621 -3.8301 -1.8059 0.9656
7.9181 -3.2708 -1.8061 0.9656
8.2250 -2.4010 -1.8064 0.9656
8.3063 -2.1044 -1.8064 0.9656
8.3768 -1.8049 -1.8065 0.9656
8.4365 -1.5031 -1.8066 0.9656
8.4853 -1.1993 -1.8067 0.9656
8.5500 -0.5875 -1.8068 0.9656
8.5658 -0.2802 -1.8068 0.9656
8.5183 0.9487 -1.8069 0.9656
8.4788 1.2539 -1.8069 0.9656
8.4284 1.5574 -1.8069 0.9656
8.2121 2.4545 -1.8069 0.9656
8.0146 3.0373 -1.8069 0.9656
7.7758 3.6043 -1.8068 0.9656
7.3427 4.4190 -1.8067 0.9656
7.1791 4.6796 -1.8066 0.9656
7.0063 4.9341 -1.8066 0.9656
6.8244 5.1823 -1.8065 0.9656
6.0489 5.7169 -1.7547 0.9665
5.5030 5.5883 -1.6534 0.9684
5.2985 5.7819 -1.6534 0.9684
4.8695 6.1465 -1.6532 0.9685
4.6454 6.3169 -1.6531 0.9685
4.4154 6.4792 -1.6530 0.9685
4.1797 6.6331 -1.6529 0.9685
3.6925 6.9149 -1.6526 0.9685
3.4417 7.0425 -1.6525 0.9685
2.9271 7.2701 -1.6523 0.9685
2.3976 7.4602 -1.6520 0.9685
1.0265 7.7651 -1.6513 0.9685
0.1858 7.8284 -1.6508 0.9685
-0.0954 7.8293 -1.6507 0.9685
-0.9362 7.7715 -1.6502 0.9685
-1.4911 7.6828 -1.6499 0.9685
-1.7658 7.6236 -1.6498 0.9685
-2.3077 7.4759 -1.6494 0.9685
-2.5744 7.3875 -1.6493 0.9685
-3.3527 7.0660 -1.6488 0.9685
-4.0918 6.6628 -1.6484 0.9685
-4.3279 6.5111 -1.6482 0.9685
-4.5585 6.3510 -1.6481 0.9685
-5.0015 6.0065 -1.6478 0.9686
-5.4187 5.6313 -1.6475 0.9686
-6.4943 4.3409 -1.6468 0.9686
-7.8245 3.3979 -1.7984 0.9657
-7.9410 3.1147 -1.7983 0.9657
-1.6255 0.5711 -0.3632 0.9930
-1.5728 0.1365 -0.3328 0.9936
-1.5740 0.0798 -0.3323 0.9936
-1.5723 -0.1466 -0.3329 0.9936
-1.5688 -0.2033 -0.3335 0.9936
-1.5631 -0.2599 -0.3340 0.9935
-1.5695 -0.3193 -0.3377 0.9935
-1.6018 -0.4476 -0.3506 0.9932
-7.9176 -3.1642 -1.7976 0.9657
-7.6705 -3.7242 -1.7976 0.9657
-7.0593 -4.7843 -1.7978 0.9657
-6.8833 -5.0348 -1.7979 0.9657
-6.3029 -5.7463 -1.7981 0.9657
-6.0929 -5.9691 -1.7982 0.9657
-5.8750 -6.1843 -1.7983 0.9657
-5.1770 -6.7812 -1.7986 0.9657
-3.3295 -7.8594 -1.7995 0.9657
-3.0455 -7.9745 -1.7996 0.9657
-2.1711 -8.2577 -1.8001 0.9657
-1.8734 -8.3310 -1.8002 0.9657
-1.5733 -8.3936 -1.8004 0.9657
-0.9672 -8.4864 -1.8007 0.9657
0.8085 -7.9033 -1.8017 0.9679
1.0917 -7.8698 -1.8019 0.9679
1.3737 -7.8262 -1.8020 0.9679
2.2076 -7.6352 -1.8025 0.9679
2.4805 -7.5517 -1.8027 0.9679
3.2788 -7.2432 -1.8031 0.9679
3.5370 -7.1214 -1.8033 0.9679
4.2832 -6.7016 -1.8037 0.9679
4.7537 -6.3781 -1.8040 0.9679
5.1999 -6.0215 -1.8043 0.9679
5.4131 -5.8314 -1.8044 0.9679
6.1938 -4.9981 -1.8050 0.9679
6.8471 -4.0612 -1.8054 0.9679
7.1216 -3.5599 -1.8056 0.9679
7.2452 -3.3021 -1.8057 0.9679
7.4642 -2.7741 -1.8059 0.9679
7.5593 -2.5045 -1.8060 0.9679
7.7202 -1.9559 -1.8061 0.9679
7.7857 -1.6775 -1.8062 0.9679
7.8412 -1.3970 -1.8063 0.9679
7.8866 -1.1147 -1.8063 0.9679
7.9466 -0.5460 -1.8064 0.9679
7.9613 -0.2604 -1.8065 0.9679
7.9598 0.3115 -1.8065 0.9679
7.9436 0.5970 -1.8066 0.9679
7.7095 2.0058 -1.8066 0.9679
7.6325 2.2813 -1.8066 0.9679
7.4490 2.8229 -1.8066 0.9679
7.3428 3.0884 -1.8065 0.9679
7.2270 3.3500 -1.8065 0.9679
7.1020 3.6072 -1.8065 0.9679
6.9678 3.8597 -1.8064 0.9679
6.8245 4.1072 -1.8064 0.9679
6.6725 4.3494 -1.8063 0.9679
6.5119 4.5860 -1.8063 0.9679
5.7660 5.4495 -1.7993 0.9680
4.9248 5.3740 -1.6531 0.9705
3.8850 6.1653 -1.6526 0.9706
3.4321 6.4273 -1.6524 0.9706
3.1990 6.5459 -1.6523 0.9706
2.9618 6.6560 -1.6522 0.9706
2.2286 6.9344 -1.6518 0.9706
1.9781 7.0093 -1.6517 0.9706
1.4698 7.1321 -1.6514 0.9706
0.6944 7.2470 -1.6510 0.9706
0.4338 7.2666 -1.6509 0.9706
-0.3498 7.2693 -1.6505 0.9706
-1.1290 7.1877 -1.6501 0.9706
-1.3861 7.1419 -1.6499 0.9706
-2.1453 6.9497 -1.6495 0.9706
-2.8792 6.6770 -1.6490 0.9706
-3.1168 6.5688 -1.6489 0.9706
-3.5794 6.3272 -1.6486 0.9706
-4.0235 6.0530 -1.6484 0.9706
-4.2379 5.9043 -1.6482 0.9706
-4.6498 5.5841 -1.6480 0.9706
-5.0377 5.2353 -1.6477 0.9706
-4.8498 4.6908 -1.5302 0.9727
-5.5701 4.6624 -1.6474 0.9706
-5.7335 4.4591 -1.6472 0.9706
-7.1570 3.4184 -1.7987 0.9680
-1.4783 0.4605 -0.3511 0.9937
-1.4674 0.3999 -0.3449 0.9938
-1.4552 0.3410 -0.3390 0.9939
-1.4420 0.2837 -0.3333 0.9940
-1.4542 0.1790 -0.3323 0.9940
-1.4585 0.0739 -0.3312 0.9940
-1.4584 -0.0833 -0.3313 0.9940
-1.4569 -0.1358 -0.3318 0.9940
-1.4695 -0.4106 -0.3460 0.9938
-1.4800 -0.4715 -0.3523 0.9936
-1.4886 -0.5338 -0.3586 0.9935
-1.4952 -0.5975 -0.3652 0.9934
-7.2513 -3.2044 -1.7979 0.9680
-7.1317 -3.4627 -1.7979 0.9680
-6.8652 -3.9656 -1.7980 0.9680
-6.7187 -4.2096 -1.7981 0.9680
-6.3997 -4.6811 -1.7982 0.9680
-4.8132 -6.3047 -1.7989 0.9680
-3.8622 -6.9303 -1.7993 0.9680
-3.3555 -7.1905 -1.7995 0.9680
-2.8314 -7.4138 -1.7998 0.9680
-2.0184 -7.6770 -1.8002 0.9680
-1.4626 -7.8032 -1.8005 0.9680
-1.1817 -7.8514 -1.8006 0.9680
-0.8992 -7.8894 -1.8008 0.9680
-0.5747 -7.3935 -1.8010 0.9699
-0.0428 -7.4168 -1.8013 0.9699
0.4895 -7.4020 -1.8016 0.9699
0.7550 -7.3802 -1.8017 0.9699
1.2827 -7.3082 -1.8020 0.9699
1.8041 -7.1985 -1.8023 0.9699
2.0615 -7.1297 -1.8025 0.9699
3.5396 -6.5274 -1.8033 0.9699
3.7719 -6.3966 -1.8035 0.9699
4.2218 -6.1105 -1.8038 0.9699
5.2469 -5.2604 -1.8044 0.9699
5.6115 -4.8710 -1.8047 0.9699
5.7831 -4.6668 -1.8048 0.9699
5.9473 -4.4564 -1.8049 0.9699
6.1038 -4.2404 -1.8050 0.9699
6.2525 -4.0187 -1.8051 0.9699
6.3930 -3.7919 -1.8052 0.9699
6.5254 -3.5602 -1.8053 0.9699
6.6494 -3.3238 -1.8054 0.9699
6.7647 -3.0832 -1.8055 0.9699
6.9691 -2.5901 -1.8057 0.9699
7.1376 -2.0836 -1.8058 0.9699
7.2081 -1.8261 -1.8059 0.9699
7.2692 -1.5663 -1.8060 0.9699
7.3210 -1.3043 -1.8060 0.9699
7.3633 -1.0407 -1.8061 0.9699
7.3962 -0.7758 -1.8061 0.9699
7.4317 0.2908 -1.8063 0.9698
7.3138 1.3515 -1.8063 0.9698
7.2605 1.6132 -1.8063 0.9698
6.9548 2.6356 -1.8063 0.9698
6.7475 3.1277 -1.8062 0.9699
6.6308 3.3678 -1.8062 0.9699
6.5055 3.6036 -1.8062 0.9699
6.3718 3.8347 -1.8061 0.9699
6.2298 4.0609 -1.8061 0.9699
5.7566 4.7066 -1.8059 0.9699
5.5820 4.9085 -1.8053 0.9699
4.9974 5.0749 -1.7298 0.9711
4.5981 5.0176 -1.6529 0.9724
4.4148 5.1792 -1.6528 0.9724
3.8319 5.6229 -1.6525 0.9724
3.2046 6.0012 -1.6523 0.9724
2.9869 6.1120 -1.6521 0.9724
2.0809 6.4748 -1.6517 0.9724
1.8470 6.5448 -1.6516 0.9724
1.1324 6.7040 -1.6512 0.9724
0.8910 6.7398 -1.6511 0.9724
0.1612 6.7949 -1.6507 0.9724
-0.0828 6.7958 -1.6506 0.9724
-0.3267 6.7879 -1.6504 0.9724
-0.5700 6.7712 -1.6503 0.9724
-1.0542 6.7118 -1.6500 0.9724
-1.2944 6.6691 -1.6499 0.9724
-1.5328 6.6178 -1.6498 0.9724
-2.0033 6.4897 -1.6495 0.9724
-2.2348 6.4131 -1.6494 0.9724
-2.6887 6.2352 -1.6491 0.9724
-2.9106 6.1342 -1.6490 0.9724
-3.3426 5.9086 -1.6487 0.9724
-3.5523 5.7844 -1.6486 0.9724
-3.7574 5.6527 -1.6484 0.9724
-4.8454 4.6865 -1.6371 0.9726
-4.9462 4.4517 -1.6162 0.9730
-5.2019 4.3542 -1.6475 0.9725
-5.4306 4.2236 -1.6708 0.9721
-6.1393 4.1036 -1.7934 0.9701
-6.4384 3.6642 -1.7992 0.9700
-6.5655 3.4306 -1.7991 0.9700
-6.6840 3.1925 -1.7990 0.9700
-1.3636 0.4248 -0.3469 0.9941
-1.3555 0.3694 -0.3412 0.9942
-1.3540 0.1666 -0.3313 0.9944
-1.3582 -0.0776 -0.3304 0.9944
-1.3566 -0.1265 -0.3309 0.9944
-1.3480 -0.2242 -0.3319 0.9944
-1.3649 -0.4348 -0.3479 0.9941
-1.3709 -0.4916 -0.3537 0.9940
-1.3749 -0.5495 -0.3596 0.9939
-1.3769 -0.6085 -0.3656 0.9938
-6.5404 -3.4710 -1.7983 0.9700
-6.1298 -4.1543 -1.7984 0.9700
-5.8164 -4.5837 -1.7985 0.9700
-5.1013 -5.3699 -1.7988 0.9700
-4.9055 -5.5498 -1.7989 0.9700
-4.7033 -5.7226 -1.7990 0.9700
-4.4951 -5.8880 -1.7991 0.9700
-4.0615 -6.1960 -1.7993 0.9700
-3.6069 -6.4722 -1.7995 0.9700
-3.3725 -6.5980 -1.7996 0.9700
-2.6442 -6.9236 -1.8000 0.9700
-1.6265 -7.2329 -1.8005 0.9699
-1.1035 -7.3320 -1.8007 0.9699
-0.2897 -6.9469 -1.8012 0.9717
-0.0401 -6.9533 -1.8014 0.9717
0.2095 -6.9508 -1.8015 0.9717
0.4589 -6.9393 -1.8016 0.9717
0.7078 -6.9189 -1.8018 0.9717
0.9558 -6.8896 -1.8019 0.9717
1.2025 -6.8513 -1.8020 0.9717
1.4478 -6.8043 -1.8022 0.9717
1.6912 -6.7484 -1.8023 0.9717
2.6405 -6.4389 -1.8029 0.9717
2.8701 -6.3404 -1.8030 0.9717
3.3181 -6.1191 -1.8033 0.9716
3.5359 -5.9964 -1.8034 0.9716
4.5514 -5.2706 -1.8040 0.9716
4.9185 -4.9311 -1.8043 0.9716
5.5749 -4.1774 -1.8047 0.9716
5.7216 -3.9748 -1.8048 0.9716
5.9927 -3.5545 -1.8050 0.9716
6.5326 -2.4279 -1.8055 0.9716
6.6158 -2.1919 -1.8055 0.9716
6.7566 -1.7117 -1.8057 0.9716
6.8624 -1.2226 -1.8058 0.9716
6.9021 -0.9755 -1.8058 0.9716
6.9546 -0.4779 -1.8059 0.9716
6.9674 -0.2279 -1.8059 0.9716
6.9712 0.0223 -1.8060 0.9716
6.9518 0.5225 -1.8060 0.9716
6.9287 0.7717 -1.8060 0.9716
6.7470 1.7554 -1.8061 0.9716
6.5190 2.4705 -1.8060 0.9716
5.8396 3.8064 -1.8058 0.9716
5.5511 4.2154 -1.8057 0.9716
5.3960 4.4118 -1.8056 0.9716
3.9612 5.0000 -1.6525 0.9740
3.5919 5.2708 -1.6524 0.9740
3.2042 5.5143 -1.6522 0.9740
3.0040 5.6254 -1.6521 0.9740
1.9506 6.0695 -1.6516 0.9740
1.0616 6.2845 -1.6511 0.9740
0.8352 6.3181 -1.6510 0.9740
0.6079 6.3435 -1.6509 0.9740
0.1512 6.3699 -1.6506 0.9740
-0.0776 6.3707 -1.6505 0.9740
-0.9883 6.2921 -1.6500 0.9740
-1.2134 6.2521 -1.6499 0.9740
-1.4370 6.2040 -1.6498 0.9740
-1.6586 6.1480 -1.6496 0.9740
-2.3094 5.9327 -1.6493 0.9740
-2.5207 5.8455 -1.6491 0.9740
-2.7287 5.7508 -1.6490 0.9740
-2.9331 5.6488 -1.6489 0.9740
-3.5226 5.2995 -1.6485 0.9740
-4.4108 4.5838 -1.6480 0.9741
-5.9096 3.6502 -1.7994 0.9717
-6.0365 3.4355 -1.7994 0.9717
-1.2890 0.5056 -0.3587 0.9943
-1.2845 0.4002 -0.3485 0.9945
-1.2799 0.2518 -0.3379 0.9946
-1.2844 0.2051 -0.3370 0.9946
-1.2899 0.1119 -0.3354 0.9947
-1.2910 0.0654 -0.3349 0.9947
-1.2910 -0.0273 -0.3345 0.9947
-1.2909 -0.0737 -0.3350 0.9947
-1.2896 -0.1202 -0.3355 0.9947
-1.2872 -0.1668 -0.3363 0.9947
-1.2837 -0.2135 -0.3371 0.9946
-1.2790 -0.2602 -0.3381 0.9946
-1.2771 -0.3079 -0.3403 0.9946
-1.2852 -0.4094 -0.3494 0.9944
-1.2878 -0.4618 -0.3544 0.9944
-1.2892 -0.5152 -0.3597 0.9943
-5.8833 -3.6862 -1.7986 0.9717
-5.7473 -3.8951 -1.7986 0.9717
-5.4534 -4.2977 -1.7987 0.9717
-5.2958 -4.4909 -1.7988 0.9717
-5.1314 -4.6782 -1.7989 0.9717
-4.9603 -4.8596 -1.7989 0.9717
-4.5993 -5.2034 -1.7991 0.9717
-4.4098 -5.3654 -1.7992 0.9717
-4.2145 -5.5205 -1.7993 0.9717
-4.0138 -5.6685 -1.7994 0.9717
-3.8080 -5.8093 -1.7995 0.9717
-3.5972 -5.9425 -1.7996 0.9717
-3.3817 -6.0682 -1.7997 0.9717
-2.7103 -6.3977 -1.8000 0.9717
-2.0072 -6.6533 -1.8003 0.9717
-1.7672 -6.7215 -1.8005 0.9717
-1.5249 -6.7811 -1.8006 0.9717
-1.0346 -6.8740 -1.8008 0.9717
-0.7872 -6.9072 -1.8010 0.9717
-0.5069 -6.5208 -1.8012 0.9732
0.6658 -6.5088 -1.8018 0.9732
0.8991 -6.4812 -1.8019 0.9732
1.5910 -6.3484 -1.8023 0.9732
1.8180 -6.2876 -1.8024 0.9732
2.4839 -6.0570 -1.8028 0.9732
3.3262 -5.6407 -1.8033 0.9732
3.5268 -5.5181 -1.8035 0.9732
3.7228 -5.3883 -1.8036 0.9732
4.1003 -5.1080 -1.8038 0.9732
4.2813 -4.9578 -1.8039 0.9732
5.0993 -4.1149 -1.8045 0.9732
5.2440 -3.9295 -1.8046 0.9732
5.3820 -3.7389 -1.8047 0.9732
5.5130 -3.5435 -1.8048 0.9732
5.6370 -3.3434 -1.8049 0.9732
5.8629 -2.9307 -1.8050 0.9732
6.1447 -2.2837 -1.8053 0.9732
6.2932 -1.8371 -1.8054 0.9732
6.4092 -1.3809 -1.8055 0.9732
6.4921 -0.9176 -1.8056 0.9732
6.5210 -0.6840 -1.8057 0.9732
6.5536 -0.2144 -1.8057 0.9732
6.5571 0.0210 -1.8058 0.9732
6.5523 0.2564 -1.8058 0.9732
6.5389 0.4914 -1.8058 0.9732
6.4483 1.1915 -1.8058 0.9732
6.4014 1.4223 -1.8058 0.9732
6.3462 1.6511 -1.8058 0.9732
6.2113 2.1021 -1.8058 0.9732
6.0444 2.5423 -1.8058 0.9732
5.6179 3.3810 -1.8056 0.9732
5.3605 3.7752 -1.8056 0.9732
5.0756 4.1497 -1.8054 0.9732
4.9232 4.3291 -1.8054 0.9732
4.7626 4.5012 -1.8046 0.9732
4.5885 4.6596 -1.8009 0.9732
3.7260 4.7031 -1.6524 0.9754
3.3787 4.9579 -1.6522 0.9754
3.0140 5.1870 -1.6521 0.9754
2.6337 5.3892 -1.6519 0.9754
2.2400 5.5637 -1.6517 0.9754
2.0388 5.6401 -1.6516 0.9754
1.6286 5.7712 -1.6514 0.9754
1.4204 5.8256 -1.6513 0.9754
1.2102 5.8724 -1.6512 0.9754
0.9986 5.9116 -1.6510 0.9754
0.5718 5.9672 -1.6508 0.9754
0.3572 5.9835 -1.6507 0.9754
0.1422 5.9921 -1.6506 0.9754
-0.2881 5.9860 -1.6504 0.9754
-0.5027 5.9713 -1.6502 0.9754
-0.9297 5.9190 -1.6500 0.9754
-1.9709 5.6559 -1.6494 0.9755
-2.1725 5.5811 -1.6493 0.9755
-2.3713 5.4991 -1.6492 0.9755
-3.1331 5.1017 -1.6487 0.9755
-3.4905 4.8631 -1.6485 0.9755
-3.6626 4.7344 -1.6484 0.9755
-3.8300 4.5996 -1.6483 0.9755
-3.9923 4.4588 -1.6482 0.9755
-4.3660 4.2229 -1.6727 0.9751
-4.6795 4.2117 -1.7337 0.9742
-5.1470 4.0030 -1.7956 0.9733
-5.2961 3.8220 -1.7986 0.9733
-5.6792 3.2321 -1.7995 0.9733
-1.2235 0.5844 -0.3734 0.9944
-1.2255 0.5322 -0.3679 0.9945
-1.2254 0.4306 -0.3577 0.9946
-1.2235 0.3811 -0.3529 0.9947
-1.2312 0.1966 -0.3434 0.9948
-1.2376 0.0183 -0.3409 0.9949
-1.2378 -0.0262 -0.3409 0.9949
-1.2377 -0.0707 -0.3414 0.9949
-1.2340 -0.1599 -0.3427 0.9949
-1.2305 -0.2046 -0.3435 0.9948
-1.2206 -0.2943 -0.3458 0.9948
-1.2223 -0.3416 -0.3495 0.9947
-1.2257 -0.4395 -0.3586 0.9946
-1.2230 -0.5938 -0.3744 0.9944
-1.2193 -0.6471 -0.3801 0.9943
-5.5352 -3.4681 -1.7988 0.9733
-5.4073 -3.6647 -1.7988 0.9733
-4.9824 -4.2251 -1.7990 0.9733
-4.8277 -4.4014 -1.7991 0.9733
-4.4998 -4.7368 -1.7992 0.9733
-4.3271 -4.8954 -1.7993 0.9733
-4.1487 -5.0478 -1.7994 0.9733
-3.9650 -5.1937 -1.7994 0.9733
-3.7762 -5.3330 -1.7995 0.9733
-3.5826 -5.4654 -1.7996 0.9733
-2.9747 -5.8197 -1.7999 0.9732
-2.5498 -6.0189 -1.8001 0.9732
-2.3322 -6.1069 -1.8002 0.9732
-2.1117 -6.1870 -1.8003 0.9732
-1.8883 -6.2592 -1.8004 0.9732
-1.4346 -6.3794 -1.8007 0.9732
-1.2047 -6.4272 -1.8008 0.9732
-0.9733 -6.4668 -1.8009 0.9732
-0.7406 -6.4980 -1.8010 0.9732
-0.2571 -6.1668 -1.8013 0.9746
-0.0356 -6.1725 -1.8015 0.9746
0.1860 -6.1702 -1.8016 0.9746
0.4074 -6.1599 -1.8017 0.9746
0.6283 -6.1417 -1.8018 0.9746
0.8484 -6.1157 -1.8019 0.9746
1.0675 -6.0817 -1.8021 0.9746
1.2852 -6.0398 -1.8022 0.9746
1.7154 -5.9329 -1.8024 0.9746
2.1369 -5.7953 -1.8027 0.9746
2.5476 -5.6278 -1.8029 0.9746
2.7481 -5.5331 -1.8030 0.9746
3.6931 -4.9551 -1.8036 0.9746
4.0396 -4.6779 -1.8038 0.9746
4.3653 -4.3765 -1.8040 0.9746
4.5199 -4.2173 -1.8042 0.9746
4.6686 -4.0525 -1.8043 0.9746
4.8113 -3.8825 -1.8043 0.9746
4.9479 -3.7075 -1.8044 0.9746
5.0780 -3.5277 -1.8045 0.9746
5.2016 -3.3433 -1.8046 0.9746
5.3185 -3.1546 -1.8047 0.9746
5.5317 -2.7651 -1.8049 0.9746
5.6276 -2.5649 -1.8049 0.9746
5.7163 -2.3613 -1.8050 0.9746
5.7976 -2.1547 -1.8051 0.9746
5.8714 -1.9453 -1.8052 0.9746
5.9376 -1.7333 -1.8052 0.9746
6.0901 -1.0850 -1.8054 0.9746
6.1253 -0.8657 -1.8054 0.9746
6.1820 0.2419 -1.8056 0.9746
6.1694 0.4636 -1.8056 0.9746
6.1488 0.6848 -1.8056 0.9745
6.1203 0.9051 -1.8056 0.9745
5.8603 1.9834 -1.8056 0.9745
5.7853 2.1924 -1.8056 0.9746
5.7028 2.3986 -1.8056 0.9746
5.6129 2.6018 -1.8056 0.9746
5.0576 3.5618 -1.8054 0.9746
4.7888 3.9153 -1.8053 0.9746
4.6450 4.0845 -1.8052 0.9746
3.9424 4.6249 -1.7736 0.9750
3.5829 4.5225 -1.6839 0.9762
3.1878 4.6778 -1.6521 0.9767
3.0177 4.7890 -1.6520 0.9767
2.8437 4.8940 -1.6519 0.9767
2.6661 4.9927 -1.6518 0.9767
2.4850 5.0849 -1.6518 0.9767
2.3008 5.1705 -1.6517 0.9767
2.1135 5.2495 -1.6516 0.9767
1.7313 5.3870 -1.6514 0.9767
1.5367 5.4453 -1.6513 0.9767
1.3402 5.4967 -1.6512 0.9767
0.9422 5.5779 -1.6510 0.9767
0.3371 5.6458 -1.6507 0.9767
-0.0689 5.6547 -1.6504 0.9767
-0.2718 5.6482 -1.6503 0.9767
-0.4743 5.6344 -1.6502 0.9767
-0.6762 5.6134 -1.6501 0.9767
-0.8773 5.5851 -1.6500 0.9767
-1.0771 5.5496 -1.6499 0.9767
-1.4723 5.4573 -1.6497 0.9767
-2.2376 5.1890 -1.6492 0.9767
-2.4222 5.1050 -1.6491 0.9767
-2.6038 5.0145 -1.6490 0.9767
-3.1271 4.7046 -1.6487 0.9767
-3.2938 4.5890 -1.6486 0.9767
-3.4562 4.4675 -1.6485 0.9767
-3.6141 4.3403 -1.6484 0.9767
-4.3483 4.2057 -1.7655 0.9751
-4.5693 4.1124 -1.7941 0.9747
-5.0011 3.6091 -1.7999 0.9746
-5.1271 3.4271 -1.7998 0.9746
-5.2466 3.2406 -1.7998 0.9746
-1.1548 0.6572 -0.3878 0.9945
-1.1645 0.5562 -0.3766 0.9946
-1.1672 0.5069 -0.3714 0.9947
-1.1686 0.4583 -0.3663 0.9948
-1.1696 0.3187 -0.3538 0.9950
-1.1720 0.2746 -0.3513 0.9950
-1.1819 0.1887 -0.3493 0.9950
-1.1852 0.1459 -0.3485 0.9950
-1.1874 0.1030 -0.3478 0.9950
-1.1882 0.0175 -0.3468 0.9951
-1.1871 -0.1107 -0.3480 0.9950
-1.1812 -0.1964 -0.3495 0.9950
-1.1766 -0.2393 -0.3504 0.9950
-1.1709 -0.2823 -0.3515 0.9950
-1.1697 -0.3269 -0.3544 0.9950
-1.1696 -0.3726 -0.3582 0.9949
-1.1688 -0.4191 -0.3624 0.9948
-1.1684 -0.4669 -0.3672 0.9948
-1.1595 -0.6154 -0.3831 0.9945
-5.2235 -3.2728 -1.7990 0.9746
-4.7018 -3.9872 -1.7992 0.9746
-4.5558 -4.1535 -1.7993 0.9746
-4.4040 -4.3145 -1.7993 0.9746
-3.9151 -4.7635 -1.7995 0.9746
-3.0023 -5.3873 -1.7999 0.9746
-2.4061 -5.6797 -1.8002 0.9746
-2.2008 -5.7628 -1.8003 0.9746
-1.9927 -5.8384 -1.8004 0.9746
-1.7819 -5.9065 -1.8005 0.9746
-1.5688 -5.9670 -1.8007 0.9746
-1.1368 -6.0649 -1.8009 0.9746
-0.9184 -6.1022 -1.8010 0.9746
-0.4526 -5.8220 -1.8013 0.9759
-0.2433 -5.8349 -1.8014 0.9759
-0.0337 -5.8402 -1.8015 0.9758
0.1760 -5.8380 -1.8016 0.9758
0.8027 -5.7864 -1.8020 0.9758
1.0100 -5.7542 -1.8021 0.9758
1.2160 -5.7146 -1.8022 0.9758
2.0218 -5.4832 -1.8026 0.9758
2.2175 -5.4074 -1.8028 0.9758
2.6001 -5.2350 -1.8030 0.9758
2.7865 -5.1386 -1.8031 0.9758
2.9694 -5.0356 -1.8032 0.9758
3.6603 -4.5599 -1.8036 0.9758
3.8219 -4.4258 -1.8037 0.9758
4.1300 -4.1406 -1.8039 0.9758
4.5520 -3.6732 -1.8042 0.9758
4.8042 -3.3375 -1.8044 0.9758
5.1359 -2.8021 -1.8047 0.9758
5.2334 -2.6160 -1.8047 0.9758
5.3241 -2.4266 -1.8048 0.9758
5.6174 -1.6398 -1.8050 0.9758
5.6728 -1.4372 -1.8051 0.9758
5.7209 -1.2326 -1.8052 0.9758
5.8207 -0.6105 -1.8053 0.9758
5.8497 -0.1913 -1.8053 0.9758
5.8529 0.0188 -1.8054 0.9758
5.8171 0.6479 -1.8054 0.9758
5.7557 1.0636 -1.8054 0.9758
5.7138 1.2695 -1.8054 0.9758
5.5442 1.8763 -1.8054 0.9758
5.4732 2.0741 -1.8054 0.9758
5.3951 2.2693 -1.8054 0.9758
5.3101 2.4614 -1.8054 0.9758
5.1197 2.8360 -1.8053 0.9758
4.7848 3.3697 -1.8052 0.9758
4.6607 3.5392 -1.8051 0.9758
2.6904 4.6301 -1.6518 0.9778
2.1767 4.8918 -1.6516 0.9778
1.9996 4.9665 -1.6515 0.9778
1.8200 5.0348 -1.6514 0.9778
1.6380 5.0966 -1.6513 0.9778
1.4539 5.1519 -1.6512 0.9778
0.8914 5.2774 -1.6509 0.9778
0.7014 5.3057 -1.6508 0.9778
0.5105 5.3271 -1.6507 0.9778
0.3189 5.3417 -1.6506 0.9778
0.1269 5.3493 -1.6505 0.9779
-0.0652 5.3501 -1.6504 0.9779
-0.8300 5.2843 -1.6500 0.9779
-1.0191 5.2508 -1.6499 0.9779
-1.3930 5.1635 -1.6497 0.9779
-1.7596 5.0496 -1.6495 0.9779
-2.2919 4.8302 -1.6491 0.9779
-2.4636 4.7446 -1.6490 0.9779
-2.6322 4.6528 -1.6489 0.9779
-2.9589 4.4514 -1.6487 0.9779
-3.1166 4.3421 -1.6486 0.9779
-3.2736 4.2315 -1.6502 0.9779
-3.5129 4.2187 -1.6934 0.9773
-4.0307 4.1888 -1.7931 0.9760
-4.7321 3.4150 -1.8001 0.9759
-4.8514 3.2427 -1.8000 0.9759
-1.1137 0.4837 -0.3745 0.9949
-1.1164 0.4379 -0.3699 0.9950
-1.1191 0.3932 -0.3659 0.9950
-1.1205 0.3491 -0.3620 0.9951
-1.1209 0.3055 -0.3584 0.9951
-1.1262 0.2639 -0.3568 0.9952
-1.1316 0.2226 -0.3557 0.9952
-1.1360 0.1814 -0.3548 0.9952
-1.1414 0.0990 -0.3534 0.9952
-1.1424 0.0579 -0.3528 0.9952
-1.1423 0.0168 -0.3524 0.9952
-1.1424 -0.0242 -0.3524 0.9952
-1.1423 -0.0653 -0.3529 0.9952
-1.1411 -0.1064 -0.3535 0.9952
-1.1387 -0.1476 -0.3542 0.9952
-1.1307 -0.2300 -0.3559 0.9952
-1.1209 -0.3132 -0.3590 0.9951
-1.1204 -0.3569 -0.3627 0.9951
-1.1132 -0.4919 -0.3754 0.9949
-1.1097 -0.5388 -0.3805 0.9948
-1.1048 -0.5863 -0.3858 0.9948
-4.8285 -3.2724 -1.7992 0.9759
-4.4490 -3.7728 -1.7994 0.9759
-4.3109 -3.9302 -1.7994 0.9759
-3.8638 -4.3713 -1.7996 0.9759
-3.7045 -4.5074 -1.7997 0.9759
-3.3719 -4.7619 -1.7998 0.9759
-3.1989 -4.8801 -1.7999 0.9759
-3.0218 -4.9920 -1.8000 0.9759
-2.6561 -5.1965 -1.8002 0.9759
-1.6860 -5.5887 -1.8006 0.9759
-1.2809 -5.6959 -1.8008 0.9759
-0.4293 -5.5220 -1.8013 0.9770
-0.0320 -5.5392 -1.8015 0.9770
0.5638 -5.5116 -1.8019 0.9770
1.3472 -5.3754 -1.8023 0.9770
1.5394 -5.3239 -1.8024 0.9770
1.7296 -5.2656 -1.8025 0.9770
1.9176 -5.2004 -1.8026 0.9770
2.4660 -4.9650 -1.8030 0.9770
2.8162 -4.7759 -1.8032 0.9769
3.4715 -4.3246 -1.8036 0.9769
4.0556 -3.7841 -1.8040 0.9769
4.1890 -3.6362 -1.8040 0.9769
4.3170 -3.4837 -1.8041 0.9769
4.4395 -3.3266 -1.8042 0.9769
4.5563 -3.1652 -1.8043 0.9769
4.8708 -2.6574 -1.8045 0.9769
4.9632 -2.4810 -1.8046 0.9769
5.0493 -2.3013 -1.8047 0.9769
5.2017 -1.9332 -1.8048 0.9769
5.3273 -1.5552 -1.8049 0.9769
5.3799 -1.3630 -1.8050 0.9769
5.4641 -0.9735 -1.8050 0.9769
5.5201 -0.5790 -1.8051 0.9769
5.5476 -0.1815 -1.8052 0.9769
5.5465 0.2170 -1.8052 0.9769
5.5352 0.4160 -1.8052 0.9769
5.4911 0.8121 -1.8053 0.9769
5.4584 1.0086 -1.8053 0.9769
5.3184 1.5896 -1.8053 0.9769
5.2578 1.7795 -1.8053 0.9769
4.6496 3.0308 -1.8051 0.9769
4.2966 3.5129 -1.8049 0.9769
3.4351 4.3360 -1.7991 0.9770
2.9795 4.3721 -1.7207 0.9780
2.7326 4.3365 -1.6670 0.9787
2.3922 4.4797 -1.6516 0.9789
1.5534 4.8337 -1.6512 0.9789
1.3789 4.8860 -1.6511 0.9789
1.2025 4.9321 -1.6510 0.9789
1.0246 4.9718 -1.6510 0.9789
0.8455 5.0051 -1.6509 0.9789
0.6652 5.0320 -1.6508 0.9789
-0.0618 5.0742 -1.6504 0.9789
-0.7872 5.0119 -1.6500 0.9789
-0.9666 4.9801 -1.6499 0.9789
-1.3212 4.8973 -1.6497 0.9789
-1.6689 4.7893 -1.6495 0.9789
-3.2582 4.2115 -1.7317 0.9779
-3.9758 3.8454 -1.7989 0.9770
-4.1148 3.7034 -1.8004 0.9770
-4.3694 3.3983 -1.8002 0.9770
-4.4884 3.2391 -1.8002 0.9770
-4.6016 3.0758 -1.8001 0.9770
-1.0413 0.6432 -0.3981 0.9949
-1.0492 0.5971 -0.3926 0.9949
-1.0556 0.5516 -0.3874 0.9950
-1.0607 0.5066 -0.3823 0.9951
-1.0730 0.3770 -0.3699 0.9952
-1.0834 0.2539 -0.3619 0.9953
-1.0888 0.2142 -0.3609 0.9953
-1.0931 0.1746 -0.3600 0.9954
-1.0984 0.0953 -0.3586 0.9954
-1.0993 0.0162 -0.3576 0.9954
-1.0994 -0.0233 -0.3576 0.9954
-1.0992 -0.0628 -0.3581 0.9954
-1.0958 -0.1420 -0.3594 0.9954
-1.0824 -0.2610 -0.3621 0.9953
-1.0758 -0.3006 -0.3633 0.9953
-1.0649 -0.4706 -0.3786 0.9951
-1.0599 -0.5146 -0.3832 0.9951
-1.0546 -0.5597 -0.3883 0.9950
-1.0479 -0.6053 -0.3936 0.9949
-4.4657 -3.2664 -1.7994 0.9770
-4.2200 -3.5786 -1.7995 0.9770
-4.0890 -3.7279 -1.7996 0.9770
-3.9526 -3.8724 -1.7996 0.9770
-3.5138 -4.2753 -1.7998 0.9770
-3.3582 -4.3989 -1.7999 0.9770
-3.1983 -4.5168 -1.7999 0.9770
-3.0342 -4.6288 -1.8000 0.9770
-2.8662 -4.7350 -1.8001 0.9770
-2.6945 -4.8350 -1.8002 0.9770
-1.9752 -5.1719 -1.8005 0.9770
-1.7883 -5.2397 -1.8006 0.9770
-1.2149 -5.4025 -1.8009 0.9770
-0.8242 -5.4764 -1.8011 0.9770
-0.4080 -5.2488 -1.8014 0.9780
-0.0304 -5.2652 -1.8016 0.9780
0.1587 -5.2632 -1.8017 0.9780
0.5359 -5.2388 -1.8019 0.9780
0.7237 -5.2165 -1.8020 0.9780
1.0962 -5.1518 -1.8022 0.9780
1.8227 -4.9430 -1.8026 0.9780
2.6767 -4.5394 -1.8031 0.9780
2.8381 -4.4406 -1.8032 0.9780
3.1497 -4.2260 -1.8034 0.9780
3.7229 -3.7325 -1.8038 0.9780
3.8547 -3.5966 -1.8039 0.9780
4.1032 -3.3111 -1.8040 0.9780
4.2196 -3.1618 -1.8041 0.9780
4.3305 -3.0084 -1.8042 0.9780
4.5356 -2.6902 -1.8043 0.9780
4.7990 -2.1873 -1.8045 0.9780
4.8746 -2.0137 -1.8046 0.9779
5.1133 -1.2954 -1.8048 0.9779
5.1566 -1.1111 -1.8049 0.9779
5.2232 -0.7383 -1.8049 0.9779
5.2465 -0.5503 -1.8050 0.9779
5.2629 -0.3616 -1.8050 0.9779
5.2755 0.0169 -1.8051 0.9779
5.1879 0.9586 -1.8051 0.9779
5.1501 1.1443 -1.8051 0.9779
5.1057 1.3284 -1.8051 0.9779
4.9972 1.6912 -1.8051 0.9779
4.8629 2.0454 -1.8051 0.9779
4.7863 2.2186 -1.8051 0.9779
4.7035 2.3890 -1.8050 0.9779
4.4192 2.8806 -1.8049 0.9779
4.3129 3.0373 -1.8049 0.9779
4.0836 3.3387 -1.8048 0.9779
3.4209 4.0131 -1.8043 0.9780
3.2700 4.1275 -1.8018 0.9780
2.2835 4.2762 -1.6587 0.9797
1.9621 4.4095 -1.6514 0.9798
0.9739 4.7256 -1.6509 0.9798
0.8036 4.7573 -1.6508 0.9798
0.6323 4.7828 -1.6507 0.9798
0.4602 4.8021 -1.6506 0.9798
0.2875 4.8153 -1.6505 0.9798
-0.5768 4.7879 -1.6501 0.9798
-0.7482 4.7638 -1.6500 0.9798
-0.9187 4.7336 -1.6499 0.9798
-1.2558 4.6550 -1.6497 0.9798
-1.7487 4.4922 -1.6494 0.9798
-1.9087 4.4263 -1.6493 0.9798
-2.0662 4.3547 -1.6492 0.9798
-2.3898 4.2244 -1.6607 0.9797
-2.7995 4.2117 -1.7304 0.9788
-3.0176 4.2042 -1.7707 0.9784
-3.5053 3.9149 -1.7980 0.9780
-3.7826 3.6586 -1.8006 0.9780
-0.9850 0.6584 -0.4054 0.9950
-1.0026 0.5706 -0.3947 0.9951
-1.0097 0.5276 -0.3898 0.9952
-1.0224 0.4440 -0.3814 0.9953
-1.0269 0.4028 -0.3774 0.9953
-1.0487 0.2063 -0.3657 0.9955
-1.0529 0.1682 -0.3648 0.9955
-1.0560 0.1300 -0.3641 0.9955
-1.0591 0.0156 -0.3624 0.9955
-1.0590 -0.0605 -0.3629 0.9955
-1.0556 -0.1368 -0.3642 0.9955
-1.0523 -0.1750 -0.3650 0.9955
-1.0479 -0.2131 -0.3659 0.9955
-1.0424 -0.2513 -0.3669 0.9955
-1.0359 -0.2895 -0.3680 0.9955
-1.0298 -0.3693 -0.3743 0.9954
-1.0215 -0.4514 -0.3821 0.9953
-1.0155 -0.4931 -0.3863 0.9952
-1.0083 -0.5351 -0.3906 0.9952
-0.9929 -0.6221 -0.4009 0.9951
-4.0115 -3.4017 -1.7996 0.9780
-3.8869 -3.5436 -1.7997 0.9780
-3.0402 -4.2935 -1.8001 0.9780
-2.8842 -4.4000 -1.8001 0.9780
-2.7245 -4.5009 -1.8002 0.9780
-2.5613 -4.5960 -1.8003 0.9780
-2.3948 -4.6852 -1.8004 0.9780
-2.0527 -4.8454 -1.8005 0.9780
-1.8775 -4.9162 -1.8006 0.9780
-1.6999 -4.9806 -1.8007 0.9780
-0.7835 -5.2055 -1.8012 0.9780
-0.3886 -4.9990 -1.8014 0.9789
0.5104 -4.9894 -1.8019 0.9789
1.0440 -4.9064 -1.8022 0.9789
1.3935 -4.8194 -1.8024 0.9789
1.7358 -4.7075 -1.8026 0.9789
1.9038 -4.6424 -1.8027 0.9789
2.0693 -4.5713 -1.8028 0.9789
2.3922 -4.4116 -1.8030 0.9789
2.5492 -4.3231 -1.8031 0.9789
2.7029 -4.2290 -1.8032 0.9789
2.8531 -4.1295 -1.8033 0.9789
3.1423 -3.9145 -1.8034 0.9789
3.4154 -3.6794 -1.8036 0.9789
3.5454 -3.5546 -1.8037 0.9789
3.9075 -3.1532 -1.8039 0.9789
4.0184 -3.0110 -1.8040 0.9789
4.1241 -2.8650 -1.8041 0.9789
4.2244 -2.7152 -1.8042 0.9789
4.4087 -2.4053 -1.8043 0.9789
4.5702 -2.0830 -1.8044 0.9789
4.6422 -1.9176 -1.8045 0.9789
4.8694 -1.2336 -1.8047 0.9789
4.9741 -0.7030 -1.8048 0.9789
4.9962 -0.5241 -1.8048 0.9789
5.0119 -0.3444 -1.8049 0.9789
5.0211 -0.1643 -1.8049 0.9789
5.0238 0.0161 -1.8049 0.9789
5.0201 0.1964 -1.8049 0.9789
5.0098 0.3765 -1.8050 0.9789
4.9700 0.7350 -1.8050 0.9789
4.9044 1.0897 -1.8050 0.9789
4.8136 1.4387 -1.8050 0.9789
4.7588 1.6106 -1.8050 0.9789
4.6979 1.7803 -1.8050 0.9789
4.4792 2.2750 -1.8049 0.9789
4.2084 2.7432 -1.8048 0.9789
4.1071 2.8924 -1.8048 0.9789
3.8888 3.1795 -1.8047 0.9789
3.7721 3.3170 -1.8046 0.9789
3.5242 3.5789 -1.8045 0.9789
3.2582 3.8222 -1.8044 0.9789
3.1185 3.9363 -1.8042 0.9789
2.8210 4.1395 -1.7997 0.9789
2.2750 4.2603 -1.7352 0.9797
2.0750 4.2460 -1.6979 0.9801
1.7166 4.2635 -1.6512 0.9807
1.4081 4.3813 -1.6534 0.9806
1.2481 4.4227 -1.6510 0.9807
0.9275 4.5004 -1.6508 0.9807
0.2738 4.5859 -1.6505 0.9807
0.1090 4.5925 -1.6504 0.9807
-0.2208 4.5880 -1.6502 0.9807
-0.3853 4.5768 -1.6501 0.9807
-1.0362 4.4736 -1.6498 0.9807
-1.1960 4.4333 -1.6497 0.9807
-1.3543 4.3872 -1.6496 0.9807
-1.8231 4.2278 -1.6541 0.9806
-2.0028 4.2210 -1.6785 0.9803
-2.3818 4.2101 -1.7378 0.9797
-2.5817 4.2038 -1.7724 0.9793
-3.3436 3.7343 -1.8008 0.9789
-3.6026 3.4845 -1.8007 0.9789
-3.7252 3.3528 -1.8006 0.9789
-3.8430 3.2167 -1.8005 0.9789
-0.9416 0.6294 -0.4069 0.9952
-0.9513 0.5876 -0.4017 0.9953
-0.9690 0.5063 -0.3928 0.9954
-0.9761 0.4662 -0.3886 0.9954
-0.9820 0.4265 -0.3846 0.9955
-0.9904 0.3480 -0.3771 0.9955
-0.9998 0.2725 -0.3723 0.9956
-1.0059 0.2357 -0.3712 0.9956
-1.0182 0.1253 -0.3686 0.9956
-1.0213 0.0151 -0.3670 0.9957
-1.0214 -0.0216 -0.3670 0.9957
-1.0178 -0.1319 -0.3687 0.9956
-1.0146 -0.1687 -0.3695 0.9956
-1.0103 -0.2055 -0.3704 0.9956
-1.0049 -0.2423 -0.3714 0.9956
-0.9925 -0.3162 -0.3742 0.9956
-0.9898 -0.3549 -0.3778 0.9955
-0.9860 -0.3940 -0.3815 0.9955
-0.9811 -0.4335 -0.3853 0.9955
-0.9591 -0.5540 -0.3979 0.9953
-0.9398 -0.6369 -0.4079 0.9952
-4.0431 -2.9573 -1.7997 0.9789
-3.8207 -3.2399 -1.7998 0.9789
-3.5786 -3.5059 -1.7999 0.9789
-3.4505 -3.6322 -1.7999 0.9789
-3.1812 -3.8707 -1.8000 0.9789
-3.0404 -3.9825 -1.8001 0.9789
-2.8955 -4.0892 -1.8002 0.9789
-2.5949 -4.2868 -1.8003 0.9789
-2.4394 -4.3773 -1.8004 0.9789
-2.1193 -4.5414 -1.8005 0.9789
-1.6190 -4.7436 -1.8008 0.9789
-1.0998 -4.8909 -1.8010 0.9789
-0.9236 -4.9275 -1.8011 0.9789
-0.5678 -4.9815 -1.8013 0.9789
-0.3708 -4.7694 -1.8014 0.9798
0.1442 -4.7824 -1.8017 0.9798
0.3157 -4.7743 -1.8018 0.9798
0.4869 -4.7602 -1.8019 0.9798
0.6575 -4.7399 -1.8020 0.9798
0.8273 -4.7135 -1.8021 0.9798
1.3294 -4.5980 -1.8024 0.9798
1.4937 -4.5475 -1.8025 0.9797
1.8163 -4.4291 -1.8027 0.9797
1.9742 -4.3613 -1.8028 0.9797
2.1296 -4.2878 -1.8028 0.9797
2.2823 -4.2088 -1.8029 0.9797
2.4320 -4.1244 -1.8030 0.9797
2.7219 -3.9396 -1.8032 0.9797
2.8617 -3.8396 -1.8033 0.9797
3.5021 -3.2677 -1.8037 0.9797
3.6173 -3.1400 -1.8038 0.9797
3.8336 -2.8726 -1.8039 0.9797
4.0301 -2.5904 -1.8041 0.9797
4.1207 -2.4441 -1.8041 0.9797
4.2059 -2.2947 -1.8042 0.9797
4.3600 -1.9871 -1.8043 0.9797
4.4286 -1.8294 -1.8044 0.9797
4.4916 -1.6693 -1.8044 0.9797
4.6000 -1.3428 -1.8045 0.9797
4.6454 -1.1769 -1.8046 0.9797
4.6847 -1.0094 -1.8046 0.9797
4.7453 -0.6707 -1.8047 0.9797
4.7901 -0.1567 -1.8048 0.9797
4.7891 0.1874 -1.8048 0.9797
4.7634 0.5305 -1.8048 0.9797
4.5921 1.3725 -1.8049 0.9797
4.5399 1.5365 -1.8048 0.9797
4.3483 2.0156 -1.8048 0.9797
4.1924 2.3223 -1.8047 0.9797
4.0148 2.6170 -1.8047 0.9797
3.8166 2.8982 -1.8046 0.9797
3.7100 3.0333 -1.8046 0.9797
3.5986 3.1644 -1.8045 0.9797
3.3621 3.4142 -1.8044 0.9797
3.1083 3.6464 -1.8043 0.9797
2.9753 3.7555 -1.8043 0.9797
2.8385 3.8598 -1.8042 0.9797
2.6954 3.9553 -1.8024 0.9797
2.5490 4.0452 -1.8005 0.9798
2.3997 4.1299 -1.7987 0.9798
2.2477 4.2092 -1.7969 0.9798
2.0680 4.2317 -1.7736 0.9801
1.3567 4.2215 -1.6698 0.9812
0.8848 4.2935 -1.6508 0.9814
0.7301 4.3223 -1.6507 0.9814
0.5745 4.3455 -1.6506 0.9814
0.1040 4.3814 -1.6504 0.9814
-0.0534 4.3821 -1.6503 0.9814
-0.2106 4.3771 -1.6502 0.9814
-0.3676 4.3665 -1.6501 0.9814
-0.5241 4.3503 -1.6500 0.9814
-0.9886 4.2681 -1.6498 0.9814
-1.1416 4.2315 -1.6504 0.9814
-1.3037 4.2234 -1.6644 0.9813
-1.8162 4.2119 -1.7273 0.9806
-1.9962 4.2071 -1.7536 0.9803
-2.6423 3.9751 -1.7974 0.9798
-3.0603 3.6753 -1.8010 0.9798
-3.1901 3.5629 -1.8009 0.9798
-3.7742 2.9354 -1.8005 0.9798
-0.9227 0.5251 -0.3998 0.9955
-0.9383 0.4481 -0.3916 0.9956
-0.9492 0.3723 -0.3840 0.9957
-0.9531 0.3349 -0.3804 0.9957
-0.9575 0.2983 -0.3777 0.9957
-0.9707 0.2274 -0.3754 0.9957
-0.9856 -0.0563 -0.3717 0.9958
-0.9844 -0.0918 -0.3723 0.9958
-0.9822 -0.1273 -0.3730 0.9958
-0.9790 -0.1628 -0.3737 0.9958
-0.9696 -0.2338 -0.3756 0.9957
-0.9634 -0.2692 -0.3767 0.9957
-0.9525 -0.3415 -0.3810 0.9957
-0.9484 -0.3790 -0.3846 0.9956
-0.9433 -0.4169 -0.3884 0.9956
-0.9296 -0.4934 -0.3963 0.9955
-0.9210 -0.5320 -0.4005 0.9955
-0.9112 -0.5709 -0.4049 0.9954
-0.9001 -0.6100 -0.4095 0.9954
-3.7539 -2.9584 -1.7998 0.9798
-3.5321 -3.2202 -1.7999 0.9798
-2.6209 -3.9984 -1.8003 0.9798
-2.4758 -4.0900 -1.8004 0.9798
-2.0220 -4.3330 -1.8006 0.9798
-1.8652 -4.4030 -1.8007 0.9798
-1.7061 -4.4673 -1.8008 0.9798
-1.3813 -4.5786 -1.8009 0.9798
-0.8812 -4.7012 -1.8012 0.9798
-0.3543 -4.5577 -1.8015 0.9805
-0.0264 -4.5718 -1.8017 0.9805
0.6283 -4.5294 -1.8020 0.9805
0.9518 -4.4731 -1.8022 0.9805
1.2704 -4.3937 -1.8024 0.9805
1.4274 -4.3455 -1.8025 0.9805
2.1809 -4.0218 -1.8029 0.9805
2.3240 -3.9411 -1.8030 0.9805
2.4641 -3.8554 -1.8031 0.9805
2.6010 -3.7646 -1.8032 0.9805
2.7346 -3.6690 -1.8033 0.9805
2.8646 -3.5686 -1.8033 0.9805
3.3465 -3.1224 -1.8036 0.9805
3.4566 -3.0004 -1.8037 0.9805
3.6632 -2.7449 -1.8039 0.9805
3.8510 -2.4752 -1.8040 0.9805
3.9375 -2.3354 -1.8041 0.9805
4.0952 -2.0471 -1.8042 0.9805
4.1662 -1.8988 -1.8042 0.9805
4.2919 -1.5951 -1.8043 0.9805
4.3465 -1.4401 -1.8044 0.9805
4.3955 -1.2831 -1.8044 0.9805
4.5083 -0.8032 -1.8045 0.9805
4.5343 -0.6409 -1.8046 0.9805
4.5544 -0.4777 -1.8046 0.9805
4.5687 -0.3139 -1.8046 0.9805
4.5771 -0.1497 -1.8047 0.9805
4.5305 0.6700 -1.8047 0.9805
4.4707 0.9933 -1.8047 0.9805
4.4322 1.1531 -1.8047 0.9805
4.2825 1.6229 -1.8047 0.9805
4.2214 1.7756 -1.8047 0.9805
4.1549 1.9259 -1.8047 0.9805
3.8363 2.5006 -1.8046 0.9805
3.6468 2.7693 -1.8045 0.9805
2.9701 3.4843 -1.8042 0.9805
2.7123 3.6882 -1.8041 0.9805
2.1512 4.0285 -1.7997 0.9806
2.0036 4.0999 -1.7983 0.9806
1.8538 4.1662 -1.7970 0.9806
1.6957 4.2117 -1.7892 0.9807
1.1885 4.2114 -1.7244 0.9814
0.4045 4.2215 -1.6712 0.9819
0.1002 4.2229 -1.6646 0.9820
-0.0514 4.2229 -1.6643 0.9820
-0.3554 4.2221 -1.6697 0.9819
-0.6628 4.2197 -1.6832 0.9818
-0.8186 4.2179 -1.6932 0.9817
-0.9764 4.2157 -1.7053 0.9816
-1.6359 4.2026 -1.7772 0.9808
-1.9531 4.1163 -1.7954 0.9806
-2.2463 3.9706 -1.7977 0.9806
-2.3890 3.8902 -1.7990 0.9806
-2.6653 3.7133 -1.8012 0.9805
-2.7967 3.6150 -1.8011 0.9805
-2.9245 3.5122 -1.8010 0.9805
-3.2847 3.1770 -1.8008 0.9805
-3.3965 3.0569 -1.8007 0.9805
-0.8547 0.6168 -0.4153 0.9955
-0.8667 0.5793 -0.4108 0.9955
-0.8871 0.5049 -0.4022 0.9956
-0.8956 0.4679 -0.3982 0.9957
-0.9090 0.3947 -0.3905 0.9957
-0.9141 0.3585 -0.3869 0.9958
-0.9315 0.2539 -0.3804 0.9959
-0.9374 0.2196 -0.3794 0.9959
-0.9423 0.1854 -0.3784 0.9959
-0.9461 0.1511 -0.3776 0.9959
-0.9491 0.1168 -0.3768 0.9959
-0.9511 0.0825 -0.3762 0.9959
-0.9523 0.0140 -0.3753 0.9959
-0.9523 -0.0201 -0.3754 0.9959
-0.9520 -0.0544 -0.3758 0.9959
-0.9508 -0.0887 -0.3763 0.9959
-0.9016 -0.4378 -0.3950 0.9957
-0.8942 -0.4745 -0.3989 0.9957
-0.8855 -0.5115 -0.4030 0.9956
-0.8646 -0.5860 -0.4116 0.9955
-3.3755 -3.0774 -1.8000 0.9806
-3.2629 -3.1967 -1.8001 0.9806
-3.1462 -3.3118 -1.8001 0.9806
-2.9006 -3.5292 -1.8002 0.9806
-2.7722 -3.6312 -1.8003 0.9806
-2.6401 -3.7285 -1.8003 0.9805
-2.2242 -3.9911 -1.8005 0.9805
-2.0796 -4.0686 -1.8006 0.9805
-1.9323 -4.1408 -1.8007 0.9805
-1.7825 -4.2076 -1.8007 0.9805
-1.6304 -4.2691 -1.8008 0.9805
-1.4761 -4.3250 -1.8009 0.9805
-1.1621 -4.4202 -1.8011 0.9805
-0.6803 -4.5201 -1.8013 0.9805
-0.5176 -4.5418 -1.8014 0.9805
-0.1823 -4.3713 -1.8016 0.9813
-0.0252 -4.3753 -1.8017 0.9813
0.2888 -4.3662 -1.8018 0.9812
0.4453 -4.3532 -1.8019 0.9812
0.6013 -4.3346 -1.8020 0.9812
0.9109 -4.2807 -1.8022 0.9812
1.3660 -4.1586 -1.8025 0.9812
1.6610 -4.0503 -1.8026 0.9812
1.8054 -3.9882 -1.8027 0.9812
2.0871 -3.8488 -1.8029 0.9812
2.6169 -3.5111 -1.8032 0.9812
2.7414 -3.4151 -1.8033 0.9812
2.8623 -3.3146 -1.8034 0.9812
2.9796 -3.2098 -1.8034 0.9812
3.0930 -3.1009 -1.8035 0.9812
3.2025 -2.9880 -1.8036 0.9812
3.3078 -2.8713 -1.8037 0.9812
3.4088 -2.7508 -1.8037 0.9812
3.5055 -2.6267 -1.8038 0.9812
3.5977 -2.4993 -1.8039 0.9812
3.6852 -2.3686 -1.8039 0.9812
3.8459 -2.0983 -1.8040 0.9812
3.9189 -1.9589 -1.8041 0.9812
4.2837 -0.9230 -1.8044 0.9812
4.3390 -0.6133 -1.8045 0.9812
4.3583 -0.4571 -1.8045 0.9812
4.3824 0.0140 -1.8046 0.9812
4.3791 0.1713 -1.8046 0.9812
4.3556 0.4851 -1.8046 0.9812
4.3095 0.7963 -1.8046 0.9812
4.2782 0.9505 -1.8046 0.9812
4.2413 1.1035 -1.8046 0.9812
4.1990 1.2550 -1.8046 0.9812
4.1512 1.4049 -1.8046 0.9812
4.0980 1.5530 -1.8046 0.9812
4.0396 1.6991 -1.8046 0.9812
3.9072 1.9845 -1.8046 0.9812
3.8334 2.1235 -1.8045 0.9812
3.7547 2.2597 -1.8045 0.9812
3.5828 2.5231 -1.8044 0.9812
3.4898 2.6501 -1.8044 0.9812
3.2905 2.8935 -1.8043 0.9812
3.0743 3.1220 -1.8042 0.9812
2.9602 3.2302 -1.8042 0.9812
2.5955 3.5294 -1.8040 0.9812
2.3355 3.7063 -1.8039 0.9812
2.2008 3.7875 -1.8038 0.9812
2.0618 3.8610 -1.8024 0.9812
1.6313 4.0518 -1.7986 0.9813
1.4839 4.1052 -1.7975 0.9813
1.1844 4.1970 -1.7957 0.9813
1.0243 4.2011 -1.7806 0.9815
0.8663 4.2036 -1.7673 0.9816
0.5562 4.2073 -1.7476 0.9818
0.0999 4.2100 -1.7341 0.9819
-0.2026 4.2098 -1.7355 0.9819
-0.3544 4.2092 -1.7394 0.9819
-0.8161 4.2048 -1.7638 0.9816
-1.2857 4.1651 -1.7950 0.9813
-1.5826 4.0656 -1.7965 0.9813
-2.2894 3.7278 -1.8014 0.9813
-2.6765 3.4596 -1.8012 0.9813
-2.7988 3.3612 -1.8011 0.9813
-2.9175 3.2584 -1.8010 0.9813
-3.0325 3.1515 -1.8009 0.9813
-3.1435 3.0405 -1.8009 0.9813
-3.2505 2.9255 -1.8008 0.9813
-0.8089 0.6291 -0.4220 0.9956
-0.8335 0.5571 -0.4129 0.9957
-0.8443 0.5215 -0.4086 0.9957
-0.8811 0.3456 -0.3897 0.9959
-0.8934 0.2783 -0.3853 0.9960
-0.9145 0.1460 -0.3813 0.9960
-0.9194 0.0798 -0.3800 0.9960
-0.9204 0.0467 -0.3795 0.9960
-0.9203 -0.0526 -0.3796 0.9960
-0.9191 -0.0857 -0.3801 0.9960
-0.9170 -0.1188 -0.3807 0.9960
-0.9099 -0.1851 -0.3823 0.9960
-0.9049 -0.2182 -0.3833 0.9960
-0.8921 -0.2842 -0.3855 0.9960
-0.8802 -0.3518 -0.3903 0.9959
-0.8749 -0.3866 -0.3939 0.9959
-0.8684 -0.4216 -0.3975 0.9958
-0.8425 -0.5278 -0.4094 0.9957
-0.8315 -0.5635 -0.4136 0.9957
-0.8194 -0.5993 -0.4180 0.9956
-0.8075 -0.6363 -0.4233 0.9956
-0.7988 -0.6774 -0.4313 0.9955
-3.2305 -2.9452 -1.8001 0.9813
-3.1227 -3.0593 -1.8002 0.9813
-2.7760 -3.3776 -1.8003 0.9813
-2.6530 -3.4752 -1.8004 0.9813
-2.1286 -3.8196 -1.8006 0.9813
-1.9902 -3.8937 -1.8007 0.9813
-1.2633 -4.1873 -1.8010 0.9813
-1.1122 -4.2302 -1.8011 0.9813
-0.4954 -4.3466 -1.8014 0.9813
-0.1747 -4.1889 -1.8016 0.9819
-0.0242 -4.1927 -1.8017 0.9819
0.1263 -4.1910 -1.8018 0.9819
0.2767 -4.1840 -1.8019 0.9819
0.4267 -4.1716 -1.8019 0.9819
0.7250 -4.1306 -1.8021 0.9819
0.8728 -4.1021 -1.8022 0.9819
1.0196 -4.0683 -1.8023 0.9819
1.3089 -3.9850 -1.8024 0.9819
1.5916 -3.8812 -1.8026 0.9819
1.7300 -3.8217 -1.8027 0.9819
1.8662 -3.7573 -1.8028 0.9819
1.9999 -3.6881 -1.8029 0.9819
2.1311 -3.6141 -1.8029 0.9819
2.3851 -3.4522 -1.8031 0.9819
2.5076 -3.3645 -1.8032 0.9819
2.6269 -3.2724 -1.8032 0.9819
2.9638 -2.9714 -1.8035 0.9819
3.1696 -2.7513 -1.8036 0.9819
3.4474 -2.3949 -1.8038 0.9819
3.6106 -2.1415 -1.8039 0.9819
3.6852 -2.0106 -1.8040 0.9819
4.0702 -1.0312 -1.8043 0.9819
4.1339 -0.7365 -1.8044 0.9819
4.1762 -0.4380 -1.8044 0.9819
4.1970 -0.1373 -1.8045 0.9819
4.1992 0.0135 -1.8045 0.9819
4.1961 0.1642 -1.8045 0.9819
4.1875 0.3147 -1.8045 0.9819
4.1735 0.4648 -1.8045 0.9819
4.0994 0.9108 -1.8045 0.9819
4.0235 1.2026 -1.8045 0.9819
3.9777 1.3462 -1.8045 0.9819
3.8099 1.7660 -1.8045 0.9819
3.6732 2.0347 -1.8044 0.9819
3.5177 2.2929 -1.8044 0.9819
3.2506 2.6577 -1.8043 0.9819
3.1530 2.7726 -1.8042 0.9819
2.8365 3.0953 -1.8041 0.9819
2.2379 3.5515 -1.8038 0.9819
1.9772 3.7026 -1.8037 0.9819
1.8429 3.7710 -1.8036 0.9819
1.4241 3.9398 -1.8002 0.9819
0.8442 4.0963 -1.7973 0.9820
0.6964 4.1228 -1.7967 0.9820
0.5478 4.1441 -1.7963 0.9820
0.2490 4.1713 -1.7957 0.9820
0.0991 4.1772 -1.7955 0.9820
-0.0509 4.1778 -1.7954 0.9820
-0.2008 4.1733 -1.7954 0.9820
-0.4998 4.1487 -1.7957 0.9820
-0.6485 4.1287 -1.7959 0.9820
-0.7964 4.1035 -1.7963 0.9820
