ply
format ascii 1.0
element vertex 1549
property float32 x
property float32 y
property float32 z
property float32 I
end_header
29.9044 56.0011 6.1751 0.7748
30.6760 62.7700 6.7956 0.7552
30.4802 75.7048 7.9381 0.7204
29.8005 82.4422 8.5268 0.7031
1.7637 13.3416 1.3090 0.9474
0.8023 13.4390 1.3095 0.9473
0.3194 13.4618 1.3098 0.9473
-0.1427 11.7097 1.1391 0.9540
-0.9890 11.7478 1.1467 0.9537
-2.2819 11.7571 1.1649 0.9530
-2.6912 11.6191 1.1601 0.9532
-4.0996 11.7643 1.2118 0.9512
-5.5871 11.7750 1.2677 0.9490
-6.1162 11.7788 1.2909 0.9481
-6.6491 11.7531 1.3135 0.9472
-7.7476 11.6556 1.3613 0.9453
-10.4537 11.6751 1.5243 0.9390
-60.5413 54.4883 7.9225 0.7208
-55.0812 39.7497 6.6070 0.7611
-54.4772 36.4132 6.3736 0.7685
-74.5108 35.5887 8.0318 0.7176
-81.5147 35.3987 8.6441 0.6997
-82.7948 32.4742 8.6506 0.6995
-81.8593 28.7617 8.4394 0.7056
-73.0206 19.9007 7.3616 0.7377
-74.2837 17.4063 7.4211 0.7359
-79.8471 12.7515 7.8650 0.7226
-31.6851 -8.8540 3.2000 0.8762
-84.8546 -41.1994 9.1750 0.6845
-77.7284 -41.2508 8.5592 0.7021
-71.7948 -41.4712 8.0646 0.7166
-66.3577 -41.5767 7.6167 0.7300
-43.5848 -31.8802 5.2524 0.8049
-42.7945 -36.2898 5.4577 0.7981
-33.6057 -32.9232 4.5760 0.8277
-34.9801 -39.5747 5.1375 0.8087
-26.2142 -31.8952 4.0157 0.8471
-24.3335 -31.8739 3.9005 0.8512
-23.5883 -33.3124 3.9703 0.8487
-17.7786 -31.9017 3.5523 0.8635
-16.1438 -31.5838 3.4501 0.8671
-15.3560 -36.2482 3.8291 0.8537
-15.1521 -44.3947 4.5627 0.8282
-11.4630 -43.5993 4.3849 0.8343
-4.7901 -42.0290 4.1145 0.8437
-3.4576 -44.4791 3.6542 0.8361
-1.8552 -44.4907 3.6473 0.8363
-0.2411 -41.7762 3.4219 0.8456
1.2578 -41.7293 3.4195 0.8457
2.9446 -44.5253 3.6550 0.8360
7.8212 -44.5605 3.7057 0.8340
9.4506 -44.4152 3.7194 0.8334
10.5546 -42.1149 3.5562 0.8401
14.6573 -44.6234 3.8471 0.8282
15.6262 -42.3778 3.6995 0.8342
17.2115 -41.9704 3.7155 0.8336
51.9798 -81.3298 7.9059 0.6788
52.0231 -75.2972 7.4963 0.6926
52.2329 -65.0691 6.8344 0.7154
52.1064 -56.1334 6.2733 0.7354
52.2326 -48.7357 5.8514 0.7507
50.0134 -43.4136 5.4246 0.7666
50.0528 -40.3906 5.2681 0.7725
50.1506 -37.5789 5.1330 0.7776
52.0212 -36.1393 5.1883 0.7755
56.1350 -36.0806 5.4658 0.7650
64.6196 -38.3280 6.1539 0.7397
79.4209 -36.1977 7.1490 0.7045
30.8498 10.4408 2.6676 0.8775
30.3633 12.7711 2.6980 0.8762
30.3425 16.8078 2.8411 0.8700
30.4466 21.4420 3.0502 0.8612
29.9444 22.7390 3.0797 0.8599
30.4721 24.9139 3.2239 0.8539
30.4143 26.7445 3.3173 0.8500
30.4613 33.2402 3.6930 0.8345
30.4679 35.7428 3.8469 0.8282
30.8048 41.8887 4.2589 0.8117
29.2791 46.4649 4.4984 0.8022
30.5516 52.5788 4.9809 0.7834
30.0193 56.2163 5.2199 0.7743
30.4869 75.7215 6.6860 0.7206
1.9617 11.6130 0.9647 0.9538
1.8386 13.9079 1.1491 0.9453
1.3330 13.9115 1.1447 0.9455
0.3303 13.9188 1.1404 0.9457
-0.1426 11.7098 0.9592 0.9541
-0.9890 11.7478 0.9656 0.9538
-1.4157 11.7509 0.9695 0.9536
-1.8462 11.7540 0.9746 0.9534
-2.2819 11.7571 0.9810 0.9531
-3.6404 11.7929 1.0109 0.9517
-4.5933 11.7998 1.0371 0.9505
-7.7476 11.6556 1.1464 0.9454
-9.1292 11.8005 1.2220 0.9419
-12.0831 11.6869 1.3769 0.9348
-54.4349 42.3359 5.6484 0.7582
-54.4569 39.2992 5.5007 0.7637
-54.4778 36.4135 5.3672 0.7688
-62.3794 35.5011 5.8789 0.7497
-68.0207 35.5418 6.2862 0.7349
-75.3012 35.9662 6.8352 0.7154
-73.0693 28.6596 6.4289 0.7298
-72.3573 22.5396 6.2075 0.7377
-77.6503 15.2775 6.4821 0.7279
-78.8926 9.7096 6.5107 0.7269
-84.8500 -41.1971 7.7258 0.6849
-77.7633 -41.2693 7.2108 0.7024
-71.8924 -41.5276 6.8004 0.7166
-66.2312 -41.4975 6.4017 0.7308
-61.3005 -41.5450 6.0655 0.7429
-43.5853 -31.8805 4.4231 0.8052
-42.1186 -33.1926 4.3924 0.8064
-34.9158 -31.8324 3.8700 0.8273
-34.9823 -39.5772 4.3265 0.8090
-26.2142 -31.8952 3.3816 0.8473
-23.5883 -33.3124 3.3433 0.8489
-24.2375 -40.0402 3.8337 0.8287
-16.1438 -31.5838 2.9053 0.8673
-15.3563 -36.2490 3.2245 0.8539
-15.3853 -40.2857 3.5322 0.8411
-13.3971 -44.4074 3.7992 0.8301
-11.4630 -43.5993 3.6925 0.8345
-8.1676 -43.5743 3.6312 0.8370
-4.7873 -42.0045 3.4628 0.8439
-3.4576 -44.4791 2.9707 0.8362
-1.8552 -44.4906 2.9651 0.8365
-0.2409 -41.7457 2.7798 0.8459
2.1570 -15.5489 1.0453 0.9390
14.6573 -44.6234 3.1275 0.8284
15.6238 -42.3712 3.0071 0.8344
17.2233 -41.9991 3.0226 0.8336
19.1969 -42.4078 3.0996 0.8298
22.1900 -44.6777 3.3217 0.8187
23.0036 -42.4215 3.2133 0.8241
24.7276 -41.9349 3.2416 0.8227
51.9791 -81.3286 6.4270 0.6791
50.3291 -67.5269 5.6079 0.7135
50.0049 -57.9064 5.0945 0.7359
50.0604 -50.1891 4.7201 0.7526
50.1414 -43.5247 4.4212 0.7663
50.1295 -40.4524 4.2892 0.7724
52.0692 -36.1726 4.2217 0.7756
56.3261 -36.2033 4.4585 0.7646
61.1706 -36.2822 4.7357 0.7519
72.4145 -36.1981 5.3907 0.7229
34.8360 10.4121 2.4210 0.8644
30.8499 10.4408 2.1687 0.8776
30.3020 11.4834 2.1577 0.8782
30.3630 12.7710 2.1933 0.8763
30.3823 15.4314 2.2691 0.8723
30.3422 16.8076 2.3097 0.8702
30.3528 18.2672 2.3589 0.8676
30.4587 23.1296 2.5466 0.8579
30.4644 26.7886 2.7013 0.8499
29.4362 37.1555 3.1564 0.8269
30.5511 52.5779 4.0491 0.7837
30.6748 62.7677 4.6519 0.7557
30.8661 69.3661 5.0555 0.7376
30.5292 75.8266 5.4429 0.7206
1.9616 11.6129 0.7842 0.9539
1.8386 13.9079 0.9341 0.9453
0.8307 13.9152 0.9282 0.9456
-0.1427 11.7098 0.7798 0.9541
-0.5652 11.7448 0.7830 0.9540
-0.9890 11.7478 0.7850 0.9538
-1.4157 11.7509 0.7881 0.9537
-1.8462 11.7540 0.7923 0.9534
-2.6912 11.6191 0.7942 0.9533
-4.1107 11.7963 0.8318 0.9512
-5.6023 11.8071 0.8702 0.9490
-7.2583 11.8190 0.9235 0.9459
-9.1541 11.8327 0.9962 0.9418
-12.4037 13.8529 1.2382 0.9282
-53.3054 55.3965 5.1191 0.7348
-54.3613 52.5785 5.0359 0.7385
-54.3876 48.9498 4.8723 0.7458
-54.4354 42.3363 4.5919 0.7585
-54.4783 36.4139 4.3633 0.7690
-62.3794 35.5011 4.7792 0.7500
-68.0207 35.5418 5.1103 0.7352
-76.9195 30.1697 5.5017 0.7180
-89.4986 24.3916 6.1768 0.6894
-77.7219 -41.2473 5.8589 0.7028
-43.5857 -31.8808 3.5957 0.8053
-42.7954 -36.2905 3.7363 0.7986
-33.6065 -32.9239 3.1327 0.8281
-34.5215 -36.3391 3.3375 0.8180
-26.2142 -31.8952 2.7491 0.8475
-23.5883 -33.3124 2.7180 0.8491
-24.2156 -36.9421 2.9412 0.8377
-17.7743 -31.8940 2.4312 0.8638
-16.1438 -31.5838 2.3619 0.8675
-15.3323 -32.8557 2.4142 0.8647
-15.3566 -36.2498 2.6214 0.8540
-15.3856 -40.2867 2.8715 0.8412
-15.1521 -44.3947 3.1235 0.8286
-13.3970 -44.4074 3.0886 0.8303
-11.4630 -43.5993 3.0018 0.8347
-9.8070 -43.6112 2.9765 0.8359
-6.3192 -41.9856 2.8272 0.8435
-1.8552 -44.4906 2.2842 0.8366
-0.2491 -43.1660 2.2143 0.8412
1.0799 -16.3295 0.8395 0.9366
3.4841 -16.3741 0.8587 0.9351
12.8986 -44.6107 2.3821 0.8303
14.6572 -44.6234 2.4093 0.8285
19.1934 -42.4002 2.3874 0.8299
49.8597 -78.0126 4.7493 0.6902
50.0431 -67.1431 4.2956 0.7150
50.0331 -53.8999 3.7725 0.7449
50.0539 -43.4487 3.4000 0.7668
52.0691 -36.1726 3.2522 0.7757
56.2420 -36.1493 3.4296 0.7651
66.4889 -36.2756 3.8853 0.7383
44.9733 -22.4809 2.5791 0.8176
38.6461 10.0548 2.0484 0.8522
33.8343 10.1127 1.8115 0.8681
30.3020 11.4834 1.6623 0.8783
30.3820 15.4313 1.7480 0.8724
30.5528 16.9243 1.7916 0.8695
30.3525 18.2670 1.8172 0.8677
30.3635 19.7921 1.8592 0.8649
30.6404 21.5784 1.9224 0.8606
30.4583 23.1293 1.9618 0.8580
30.8549 25.2268 2.0444 0.8525
30.5898 26.8988 2.0895 0.8495
30.6901 29.0056 2.1662 0.8444
30.4440 30.9160 2.2257 0.8405
30.5612 35.8523 2.4166 0.8280
30.5815 38.6011 2.5262 0.8210
30.5786 41.5810 2.6476 0.8132
30.6106 48.5780 2.9453 0.7946
30.5508 52.5774 3.1193 0.7838
29.9349 56.0581 3.2599 0.7753
30.4631 75.6623 4.1840 0.7213
29.7976 82.4339 4.4964 0.7039
1.9616 11.6128 0.6041 0.9539
1.8386 13.9079 0.7196 0.9454
1.3330 13.9115 0.7169 0.9456
0.8307 13.9152 0.7151 0.9457
-0.9863 11.7158 0.6031 0.9540
-1.4118 11.7189 0.6055 0.9538
-1.8412 11.7220 0.6087 0.9536
-3.1720 11.7576 0.6247 0.9524
-4.5808 11.7677 0.6478 0.9507
-5.5871 11.7750 0.6686 0.9491
-8.4896 11.8279 0.7468 0.9434
-9.8571 11.8377 0.7902 0.9402
-53.3441 55.4368 3.9464 0.7348
-69.4380 62.4955 4.7921 0.6879
-65.1362 54.5215 4.3573 0.7116
-55.0829 39.7509 3.4845 0.7618
-68.7423 35.9189 3.9786 0.7330
-75.8463 36.2265 4.3117 0.7142
-82.0779 35.6433 4.5902 0.6988
-81.8642 28.7634 4.4509 0.7064
-73.0223 19.9012 3.8824 0.7385
-74.2854 17.4067 3.9138 0.7367
-76.3166 15.0151 3.9898 0.7323
-66.3460 -41.5694 4.0162 0.7308
-61.3294 -41.5645 3.8004 0.7432
-42.1191 -33.1930 2.7509 0.8067
-24.4177 -23.9218 1.7535 0.8720
-34.5219 -36.3395 2.5711 0.8181
-26.2142 -31.8952 2.1178 0.8476
-23.5883 -33.3124 2.0938 0.8492
-15.8730 -24.2150 1.4852 0.8905
-17.6802 -31.7250 1.8630 0.8646
-15.3326 -32.8563 1.8599 0.8648
-15.3860 -40.2876 2.2122 0.8414
-11.4630 -43.5993 2.3125 0.8348
-8.2214 -43.8615 2.2891 0.8363
-6.4900 -43.1210 2.2369 0.8397
-1.6604 -39.8184 1.4359 0.8526
-0.2299 -39.8318 1.4352 0.8526
1.2010 -39.8476 1.4364 0.8525
1.6759 -16.3834 0.5934 0.9362
3.4783 -16.3468 0.6022 0.9353
11.5361 -39.8988 1.4964 0.8468
13.1295 -39.9723 1.5159 0.8450
14.7458 -39.9903 1.5357 0.8432
17.2768 -42.1297 1.6406 0.8334
22.9060 -42.2415 1.7313 0.8250
49.8590 -78.0114 3.3358 0.6903
49.9382 -67.0025 3.0109 0.7157
49.9724 -62.2532 2.8763 0.7265
50.0841 -46.7311 2.4681 0.7602
50.1414 -43.5247 2.3923 0.7666
50.1491 -37.5778 2.2579 0.7782
61.0955 -36.2377 2.5594 0.7525
66.4889 -36.2756 2.7290 0.7385
72.6587 -36.3201 2.9268 0.7224
79.4209 -36.1977 3.1448 0.7051
86.4237 -35.7006 3.3691 0.6878
91.4011 -30.2823 3.4692 0.6802
75.8476 -2.4811 2.7343 0.7380
44.9433 9.9855 1.6588 0.8317
33.8930 10.1302 1.2745 0.8680
30.8499 10.4408 1.1735 0.8778
30.3020 11.4834 1.1676 0.8784
30.3817 15.4311 1.2278 0.8725
30.5525 16.9241 1.2584 0.8695
30.3522 18.2668 1.2764 0.8678
30.6898 29.0053 1.5215 0.8445
30.4436 30.9157 1.5633 0.8406
30.4604 33.2393 1.6244 0.8349
30.6022 44.9057 1.9579 0.8045
30.5295 52.5409 2.1895 0.7841
30.7902 76.4747 2.9703 0.7189
29.7718 82.3626 3.1555 0.7043
1.8344 13.8760 0.5043 0.9455
1.3300 13.8796 0.5024 0.9457
0.8288 13.8832 0.5011 0.9459
-0.1426 11.7098 0.4219 0.9542
-1.8462 11.7540 0.4287 0.9535
-2.6912 11.6191 0.4297 0.9534
-4.5933 11.7998 0.4562 0.9506
-5.0898 11.8034 0.4631 0.9499
-5.6023 11.8071 0.4709 0.9490
-9.1292 11.8006 0.5376 0.9420
-9.8304 11.8056 0.5535 0.9404
-53.3448 55.4374 2.7719 0.7350
-54.4366 42.3372 2.4847 0.7588
-54.4585 39.3003 2.4197 0.7643
-54.4794 36.4146 2.3610 0.7693
-57.4186 35.4653 2.4316 0.7633
-75.8114 32.9220 2.9779 0.7183
-73.0228 19.9013 2.7270 0.7386
-79.8499 12.7520 2.9135 0.7235
-77.7245 -41.2487 3.1704 0.7031
-71.7730 -41.4586 2.9864 0.7177
-66.3123 -41.5483 2.8195 0.7311
-43.5866 -31.8815 1.9457 0.8056
-42.7963 -36.2913 2.0217 0.7988
-34.9158 -31.8324 1.7024 0.8277
-34.5223 -36.3400 1.8060 0.8182
-34.9823 -39.5772 1.9032 0.8094
-23.5883 -33.3124 1.4707 0.8493
-15.8732 -24.2154 1.0432 0.8906
-24.2387 -40.0421 1.6865 0.8292
-17.5531 -31.4971 1.2992 0.8656
-15.2370 -32.6515 1.2982 0.8657
-7.6476 -20.0248 0.7723 0.9178
-15.1521 -44.3947 1.6901 0.8288
-8.9241 -39.6845 1.4655 0.8498
-5.9862 -39.7730 1.4492 0.8513
-3.1045 -39.9368 0.8324 0.8519
1.2660 -42.0020 0.8732 0.8453
2.6440 -39.9810 0.8326 0.8519
1.6760 -16.3834 0.3422 0.9362
2.2734 -16.3877 0.3438 0.9360
3.4782 -16.3468 0.3473 0.9353
10.5430 -42.0689 0.9013 0.8407
11.5361 -39.8988 0.8631 0.8469
14.6573 -44.6234 0.9760 0.8287
14.7892 -40.1081 0.8883 0.8428
18.1976 -40.2005 0.9170 0.8382
5.2692 -10.6090 0.2462 0.9537
49.9811 -67.0599 1.7380 0.7156
50.1279 -40.4512 1.3386 0.7728
52.0691 -36.1726 1.3175 0.7760
60.5989 -35.9432 1.4641 0.7544
66.4888 -36.2756 1.5739 0.7386
72.6586 -36.3201 1.6880 0.7225
86.4487 -32.1291 1.9165 0.6914
75.8435 -2.4809 1.5769 0.7382
44.9434 9.9855 0.9567 0.8318
38.6414 10.0535 0.8297 0.8524
33.8930 10.1302 0.7351 0.8680
30.8499 10.4408 0.6768 0.8778
30.3622 12.7707 0.6845 0.8765
30.3814 15.4310 0.7081 0.8726
30.3414 16.8071 0.7208 0.8704
30.3519 18.2667 0.7361 0.8679
30.6699 21.5993 0.7795 0.8606
30.4575 23.1287 0.7947 0.8581
30.8549 25.2268 0.8282 0.8526
30.4433 30.9153 0.9016 0.8406
30.4601 33.2388 0.9369 0.8350
30.5604 35.8514 0.9790 0.8282
30.5423 41.5317 1.0714 0.8136
30.6734 62.7648 1.4517 0.7562
30.8284 69.2815 1.5758 0.7383
30.9864 76.9620 1.7240 0.7175
30.8873 85.4487 1.8881 0.6952
8.5369 41.4235 0.8789 0.8443
1.9616 11.6126 0.2447 0.9540
1.3330 13.9115 0.2904 0.9456
0.8307 13.9152 0.2897 0.9458
0.3302 13.9188 0.2893 0.9458
-0.5652 11.7448 0.2443 0.9540
-0.9890 11.7478 0.2450 0.9539
-1.8462 11.7540 0.2472 0.9535
-2.2819 11.7571 0.2489 0.9532
-3.6404 11.7929 0.2565 0.9518
-5.0898 11.8034 0.2671 0.9499
-5.6023 11.8071 0.2716 0.9491
-6.6840 11.8149 0.2821 0.9471
-7.2583 11.8190 0.2882 0.9460
-8.4896 11.8279 0.3026 0.9434
-9.1541 11.8327 0.3109 0.9419
-9.8571 11.8378 0.3201 0.9402
-53.3454 55.4381 1.5987 0.7351
-54.3893 48.9514 1.5206 0.7462
-54.4799 36.4150 1.3617 0.7694
-57.4186 35.4653 1.4025 0.7634
-62.3794 35.5011 1.4915 0.7504
-79.1582 24.6581 1.7229 0.7177
-79.8505 12.7521 1.6804 0.7236
-93.3317 -18.9851 1.9792 0.6831
-68.3329 -39.4714 1.6399 0.7293
-42.7877 -31.2971 1.1016 0.8089
-34.3951 -31.3577 0.9672 0.8301
-24.6950 -24.1934 0.7184 0.8708
-34.9823 -39.5772 1.0977 0.8095
-24.2391 -40.0427 0.9727 0.8292
-17.5432 -31.4793 0.7489 0.8657
-16.0957 -31.4897 0.7349 0.8681
-15.3576 -36.2521 0.8182 0.8543
-15.1521 -44.3946 0.9748 0.8289
-12.0150 -39.8260 0.8645 0.8467
-7.4777 -39.8932 0.8435 0.8501
-6.0290 -40.0578 0.8418 0.8504
-4.5282 -39.7308 0.8310 0.8522
-3.3686 -43.3346 0.2408 0.8404
-1.8552 -44.4906 0.2467 0.8368
-0.2491 -43.1660 0.2392 0.8414
2.9446 -44.5252 0.2472 0.8365
2.2734 -16.3877 0.0917 0.9360
10.5430 -42.0689 0.2403 0.8407
15.5306 -42.1184 0.2487 0.8356
5.2267 -9.6388 0.0608 0.9571
5.6756 -9.6252 0.0619 0.9563
6.6268 -9.5915 0.0646 0.9544
7.1363 -9.5748 0.0662 0.9534
49.9711 -62.2515 0.4423 0.7266
50.0025 -57.9035 0.4239 0.7364
31.8669 -31.9488 0.2500 0.8349
50.0830 -46.7301 0.3795 0.7603
50.1414 -43.5247 0.3679 0.7668
50.1274 -40.4507 0.3569 0.7729
50.1481 -37.5770 0.3472 0.7783
72.6586 -36.3201 0.4501 0.7226
79.4208 -36.1976 0.4836 0.7053
86.4730 -28.6496 0.5047 0.6946
87.1876 -25.4518 0.5032 0.6954
43.8609 9.7450 0.2489 0.8355
37.3226 9.7104 0.2137 0.8570
30.3619 12.7705 0.1825 0.8766
30.3811 15.4309 0.1888 0.8726
30.3626 19.7916 0.2008 0.8650
30.4451 21.4409 0.2063 0.8616
30.8549 25.2269 0.2208 0.8526
30.4631 26.7874 0.2248 0.8502
30.4777 28.8048 0.2324 0.8456
30.4429 30.9149 0.2404 0.8407
30.5602 35.8511 0.2610 0.8283
30.6013 44.9043 0.3011 0.8046
30.5493 52.5748 0.3369 0.7841
30.6520 57.4011 0.3605 0.7708
30.6728 62.7636 0.3871 0.7562
14.3818 32.3205 0.1960 0.8681
13.0008 32.2906 0.1929 0.8700
30.2266 83.6208 0.4926 0.7007
8.5369 41.4235 0.2343 0.8444
0.8307 13.9152 0.0772 0.9458
-0.1426 11.7098 0.0649 0.9542
-0.5652 11.7448 0.0652 0.9541
-0.9890 11.7478 0.0653 0.9539
-2.2819 11.7571 0.0664 0.9532
-3.1806 11.7896 0.0677 0.9523
-4.5933 11.7998 0.0702 0.9506
-5.6023 11.8071 0.0724 0.9491
-6.6840 11.8149 0.0752 0.9471
-7.7476 11.6556 0.0775 0.9456
-9.1541 11.8327 0.0829 0.9419
-12.4325 13.8851 0.1033 0.9282
-54.7330 52.9380 0.4219 0.7374
-66.6641 55.8004 0.4817 0.7063
-54.8295 39.5681 0.3746 0.7630
-58.0277 35.8416 0.3779 0.7612
-63.0412 35.8778 0.4019 0.7482
-89.5016 24.3924 0.5140 0.6900
-88.7535 20.7969 0.5051 0.6944
-95.2400 18.7382 0.5378 0.6782
-74.1362 -39.3444 0.4650 0.7148
-68.1557 -39.3691 0.4361 0.7299
-42.5314 -31.1097 0.2920 0.8100
-39.5032 -31.1315 0.2787 0.8178
-36.7352 -31.1515 0.2669 0.8248
-31.8334 -31.1869 0.2469 0.8367
-29.6420 -31.2027 0.2385 0.8418
-25.6686 -31.2314 0.2240 0.8507
-20.4967 -31.2687 0.2072 0.8611
-18.9347 -31.2800 0.2026 0.8639
-17.4381 -31.2908 0.1985 0.8665
-16.0957 -31.4897 0.1959 0.8681
-15.3579 -36.2528 0.2181 0.8543
-7.7202 -20.2149 0.1199 0.9171
-15.1520 -44.3946 0.2599 0.8289
-11.2493 -42.7864 0.2451 0.8378
-9.8070 -43.6112 0.2477 0.8363
-4.9159 -43.1323 0.2405 0.8406
1.6759 -16.3834 -0.1597 0.9362
2.2734 -16.3877 -0.1604 0.9360
3.4783 -16.3468 -0.1621 0.9353
4.0255 -10.9171 -0.1128 0.9545
4.0617 -9.9045 -0.1038 0.9581
4.3319 -9.5697 -0.1019 0.9589
6.5827 -9.5276 -0.1123 0.9547
7.6254 -9.4993 -0.1181 0.9524
8.1826 -9.4756 -0.1214 0.9512
31.8405 -31.9223 -0.4372 0.8350
37.1195 -32.2212 -0.4766 0.8215
29.3542 -20.3925 -0.3466 0.8668
37.1981 -23.9089 -0.4288 0.8379
72.4582 -36.2199 -0.7855 0.7232
79.4207 -36.1976 -0.8463 0.7053
29.5798 -9.8002 -0.3022 0.8828
58.5428 -10.4303 -0.5766 0.7883
64.8227 -6.7992 -0.6320 0.7705
37.1539 0.1191 -0.3603 0.8619
43.8610 9.7450 -0.4357 0.8355
30.3408 16.8068 -0.3363 0.8704
30.5543 19.9165 -0.3537 0.8642
30.4451 21.4409 -0.3611 0.8616
28.6912 25.2293 -0.3704 0.8583
30.4426 30.9146 -0.4207 0.8407
30.5601 35.8509 -0.4568 0.8282
30.5796 38.5988 -0.4775 0.8212
30.6088 48.5751 -0.5567 0.7948
29.1657 50.1938 -0.5629 0.7928
22.4719 42.0823 -0.4626 0.8263
12.6159 31.3346 -0.3275 0.8736
22.2222 78.7454 -0.7934 0.7209
1.9616 11.6125 -0.1142 0.9540
1.8386 13.9079 -0.1360 0.9454
0.8307 13.9152 -0.1352 0.9458
-0.5652 11.7448 -0.1140 0.9541
-1.4157 11.7509 -0.1148 0.9538
-1.8462 11.7540 -0.1154 0.9535
-2.6912 11.6191 -0.1156 0.9534
-3.1806 11.7896 -0.1184 0.9523
-3.6404 11.7929 -0.1197 0.9518
-4.1107 11.7963 -0.1211 0.9513
-7.2584 11.8190 -0.1345 0.9460
-7.7476 11.6556 -0.1357 0.9456
-9.1541 11.8327 -0.1451 0.9419
-9.8571 11.8378 -0.1494 0.9402
-54.3643 52.5814 -0.7334 0.7389
-54.9409 49.4478 -0.7167 0.7440
-70.1495 54.5577 -0.8617 0.7008
-54.4602 39.3015 -0.6512 0.7644
-57.4187 35.4653 -0.6544 0.7634
-75.8148 32.9235 -0.8015 0.7185
-78.8409 24.5593 -0.8007 0.7187
-81.2075 -19.5788 -0.8100 0.7159
-71.1891 -19.8927 -0.7167 0.7440
-62.4314 -19.8876 -0.6353 0.7694
-52.4005 -20.9413 -0.5472 0.7979
-52.3895 -23.1510 -0.5554 0.7952
-52.3867 -25.4352 -0.5647 0.7922
-43.9977 -23.3498 -0.4830 0.8193
-42.4728 -24.5338 -0.4756 0.8218
-34.5537 -23.4179 -0.4047 0.8462
-33.9802 -24.8549 -0.4082 0.8450
-24.2951 -23.8017 -0.3298 0.8728
-24.3220 -27.5166 -0.3561 0.8634
-7.5913 -9.9436 -0.1213 0.9512
-7.0348 -9.9349 -0.1180 0.9525
-6.5141 -9.9376 -0.1152 0.9536
-16.2783 -34.8829 -0.3733 0.8573
-7.1371 -20.9112 -0.2143 0.9154
-0.1164 -20.1621 -0.5028 0.9225
1.6759 -16.3834 -0.4107 0.9362
3.4783 -16.3468 -0.4168 0.9353
3.4943 -10.6381 -0.2792 0.9562
3.5711 -9.6846 -0.2574 0.9595
3.9084 -9.5306 -0.2569 0.9596
4.3077 -9.5161 -0.2605 0.9591
6.0613 -9.4837 -0.2807 0.9560
6.5509 -9.4816 -0.2874 0.9549
8.1822 -9.4751 -0.3122 0.9511
23.7036 -20.5757 -0.7828 0.8820
27.7908 -20.8242 -0.8660 0.8703
32.5380 -20.9136 -0.9646 0.8566
35.1823 -20.8677 -1.0201 0.8490
63.8768 -31.9303 -1.7809 0.7515
26.7838 -9.9544 -0.7126 0.8920
65.5032 -19.1217 -1.7017 0.7611
27.3097 -6.9187 -0.7026 0.8934
64.5563 -6.7713 -1.6188 0.7713
37.9895 -1.2427 -0.9479 0.8589
73.0281 10.7997 -1.8410 0.7442
43.8610 9.7450 -1.1205 0.8355
32.8696 9.8243 -0.8555 0.8717
30.3614 12.7703 -0.8214 0.8765
30.3806 15.4306 -0.8498 0.8725
22.1323 12.2598 -0.6310 0.9037
22.1398 13.3243 -0.6444 0.9018
22.0212 14.3542 -0.6555 0.9002
17.4515 12.2902 -0.5323 0.9181
16.5216 12.5461 -0.5174 0.9203
16.4890 13.4813 -0.5312 0.9183
21.9256 22.2655 -0.7793 0.8825
21.9651 23.9689 -0.8108 0.8780
21.8905 25.6804 -0.8415 0.8737
17.1238 23.2852 -0.7208 0.8908
16.4464 24.1335 -0.7283 0.8897
21.8844 37.6627 -1.0863 0.8401
14.3534 29.3704 -0.8152 0.8774
12.5569 34.7381 -0.9212 0.8626
12.7466 39.6619 -1.0389 0.8465
19.7288 69.9097 -1.8115 0.7478
1.9616 11.6124 -0.2937 0.9540
1.8386 13.9079 -0.3499 0.9454
0.3303 13.9188 -0.3472 0.9458
-0.1426 11.7098 -0.2920 0.9542
-0.9890 11.7478 -0.2940 0.9539
-1.4156 11.7509 -0.2952 0.9537
-1.8462 11.7540 -0.2967 0.9535
-2.2819 11.7571 -0.2987 0.9532
-3.1806 11.7896 -0.3045 0.9523
-3.6404 11.7929 -0.3078 0.9518
-4.1107 11.7963 -0.3115 0.9512
-5.6023 11.8071 -0.3259 0.9491
-6.1329 11.8109 -0.3319 0.9481
-6.6840 11.8149 -0.3385 0.9471
-7.7476 11.6556 -0.3490 0.9455
-8.4896 11.8279 -0.3631 0.9434
-9.8571 11.8378 -0.3842 0.9402
-46.8091 45.2740 -1.6240 0.7706
-33.1450 27.7437 -1.0779 0.8412
-33.2556 25.8641 -1.0506 0.8449
-23.6134 15.7834 -0.7083 0.8926
-23.5828 14.5662 -0.6913 0.8950
-57.5235 30.0568 -1.6186 0.7713
-59.4956 25.8367 -1.6176 0.7714
-61.1652 21.4908 -1.6168 0.7715
-63.9678 10.2156 -1.6155 0.7717
-64.2882 7.9122 -1.6153 0.7717
-63.6973 5.5271 -1.5945 0.7743
-47.2181 0.6963 -1.1777 0.8278
-70.7365 -1.4968 -1.7645 0.7534
-70.6415 -4.0353 -1.7646 0.7534
-70.4564 -6.5689 -1.7647 0.7534
-70.1831 -9.0949 -1.7649 0.7534
-69.8205 -11.6098 -1.7651 0.7534
-69.3701 -14.1109 -1.7654 0.7533
-63.0112 -15.1919 -1.6164 0.7716
-62.4384 -17.4475 -1.6168 0.7715
-61.7866 -19.6822 -1.6172 0.7715
-55.5114 -19.9049 -1.4707 0.7898
-52.5070 -23.2030 -1.4316 0.7948
-52.5914 -25.5346 -1.4580 0.7914
-43.9977 -23.3498 -1.2422 0.8193
-42.4883 -26.6213 -1.2504 0.8182
-34.5536 -23.4179 -1.0410 0.8462
-33.9805 -24.8551 -1.0499 0.8450
-51.7136 -43.8533 -1.6909 0.7624
-24.3083 -25.5882 -0.8802 0.8683
-24.3223 -27.5170 -0.9159 0.8633
-8.1127 -9.8708 -0.3186 0.9502
-6.9859 -9.8658 -0.3015 0.9528
-6.2375 -10.3044 -0.3004 0.9529
-15.6710 -28.1198 -0.8028 0.8791
-32.0778 -62.7572 -1.7577 0.7543
-29.8897 -64.0510 -1.7627 0.7537
-27.6462 -65.2596 -1.7675 0.7531
-5.2875 -20.1110 -0.5186 0.9202
-4.5242 -20.1188 -0.5143 0.9208
-0.8601 -20.6269 -0.8298 0.9207
-0.1171 -20.2794 -0.8151 0.9220
0.6062 -20.1115 -0.8087 0.9226
1.6759 -16.3834 -0.6619 0.9362
2.8771 -16.3921 -0.6689 0.9355
3.4972 -9.4842 -0.4063 0.9603
3.8896 -9.4848 -0.4120 0.9598
4.2944 -9.4867 -0.4185 0.9592
4.7143 -9.4919 -0.4260 0.9585
5.5902 -9.4802 -0.4423 0.9569
6.0576 -9.4780 -0.4521 0.9560
7.0597 -9.4720 -0.4748 0.9538
7.6026 -9.4709 -0.4881 0.9525
6.2383 -7.2240 -0.3836 0.9625
6.2709 -6.7555 -0.3705 0.9638
7.5238 -6.5309 -0.4004 0.9609
25.2206 -20.3521 -1.3025 0.8783
27.7173 -20.7691 -1.3921 0.8705
29.3542 -20.3925 -1.4366 0.8667
32.2584 -20.7340 -1.5412 0.8577
27.7929 -15.1635 -1.2725 0.8810
37.1652 -18.5779 -1.6700 0.8468
28.9541 -9.5929 -1.2259 0.8851
26.3685 -6.6803 -1.0933 0.8968
28.9622 -6.2403 -1.1908 0.8882
44.7333 -7.9699 -1.8262 0.8337
45.3367 -3.1151 -1.8265 0.8337
41.3397 4.6041 -1.6718 0.8466
41.1447 6.0847 -1.6717 0.8466
40.8959 7.5570 -1.6715 0.8466
40.5937 9.0191 -1.6713 0.8466
30.8500 10.4409 -1.3090 0.8778
28.6319 10.8505 -1.2306 0.8846
28.0623 11.8033 -1.2236 0.8853
30.3803 15.4304 -1.3695 0.8725
21.8440 12.1001 -1.0037 0.9049
21.7247 13.0745 -1.0191 0.9035
17.1409 11.1731 -0.8224 0.9214
16.5189 11.6334 -0.8120 0.9223
16.3000 13.3268 -0.8462 0.9192
21.8327 20.6343 -1.2074 0.8867
21.9001 22.2396 -1.2545 0.8825
21.8930 23.8902 -1.3024 0.8783
21.8997 25.6911 -1.3568 0.8736
17.3570 21.9087 -1.1234 0.8941
16.4100 22.3144 -1.1133 0.8950
16.3553 23.9997 -1.1673 0.8902
16.3343 25.9219 -1.2314 0.8846
21.9266 37.7354 -1.7541 0.8397
21.2464 39.7876 -1.8129 0.8348
14.6660 30.0099 -1.3425 0.8748
18.3211 41.1734 -1.8113 0.8349
12.5617 34.7516 -1.4852 0.8625
7.9879 28.3054 -1.1821 0.8889
7.8434 38.0585 -1.5618 0.8559
1.3330 13.9115 -0.5617 0.9456
0.8307 13.9152 -0.5603 0.9457
-0.1426 11.7098 -0.4707 0.9542
-0.5652 11.7448 -0.4726 0.9540
-4.1107 11.7963 -0.5021 0.9512
-4.5933 11.7998 -0.5089 0.9506
-5.0898 11.8034 -0.5166 0.9498
-6.1329 11.8109 -0.5349 0.9481
-7.2583 11.8190 -0.5575 0.9460
-8.4896 11.8279 -0.5852 0.9434
-9.8572 11.8378 -0.6191 0.9402
-12.4326 13.8851 -0.7491 0.9281
-30.0428 31.2213 -1.7414 0.8408
-30.3432 27.3094 -1.6407 0.8492
-32.2055 25.0474 -1.6398 0.8493
-30.6505 22.1191 -1.5192 0.8596
-23.4811 13.3634 -1.0859 0.8975
-27.2616 13.0210 -1.2143 0.8861
-27.8273 12.0843 -1.2193 0.8856
-41.7751 14.6779 -1.7796 0.8376
-43.4269 8.5441 -1.7789 0.8376
-43.7025 6.9793 -1.7787 0.8376
-44.0870 3.8255 -1.7786 0.8377
-44.2428 -0.9362 -1.7786 0.8377
-44.1822 -2.5239 -1.7787 0.8376
-43.8923 -5.6879 -1.7789 0.8376
-43.3792 -8.8240 -1.7792 0.8376
-42.6449 -11.9165 -1.7796 0.8376
-42.1960 -13.4416 -1.7799 0.8375
-40.9650 -14.6890 -1.7491 0.8401
-35.8450 -19.0231 -1.6310 0.8501
-35.1476 -20.3025 -1.6314 0.8500
-10.2828 -6.4427 -0.4877 0.9526
-9.5487 -6.4714 -0.4636 0.9549
-9.2421 -6.7601 -0.4602 0.9552
-9.1997 -7.2501 -0.4708 0.9542
-25.7559 -23.4814 -1.4008 0.8698
-24.2957 -23.8022 -1.3670 0.8727
-9.4961 -9.9961 -0.5542 0.9463
-7.4677 -9.7818 -0.4946 0.9519
-6.9266 -9.7820 -0.4817 0.9531
-6.4149 -9.7863 -0.4703 0.9542
-6.1410 -10.1448 -0.4766 0.9536
-5.8777 -10.5469 -0.4853 0.9528
-19.1339 -37.4328 -1.6896 0.8451
-17.8079 -38.1608 -1.6925 0.8449
-7.6499 -20.0308 -0.8618 0.9177
-6.8983 -20.2117 -0.8584 0.9181
-4.5506 -20.2359 -0.8336 0.9203
-3.0477 -20.2492 -0.8230 0.9213
-0.8592 -20.6058 -1.1439 0.9207
-0.1171 -20.2794 -1.1248 0.9220
1.3420 -20.2923 -1.1279 0.9218
3.4782 -16.3468 -0.9270 0.9352
2.7088 -10.8087 -0.6180 0.9563
2.7345 -9.4576 -0.5460 0.9613
3.0998 -9.4373 -0.5509 0.9610
3.4830 -9.4459 -0.5584 0.9605
3.9433 -9.6159 -0.5764 0.9592
4.2785 -9.4517 -0.5754 0.9593
4.6995 -9.4619 -0.5860 0.9586
5.5875 -9.4758 -0.6101 0.9569
7.0570 -9.4684 -0.6550 0.9538
6.0286 -6.4946 -0.4915 0.9651
6.3994 -6.4159 -0.5026 0.9643
6.8777 -6.4173 -0.5217 0.9630
7.3744 -6.4013 -0.5416 0.9616
23.9935 -17.9788 -1.6629 0.8868
24.6281 -17.1092 -1.6632 0.8868
25.8014 -15.3037 -1.6638 0.8868
26.9995 -14.7307 -1.7059 0.8841
29.8322 -13.5966 -1.8184 0.8769
26.7596 -11.0541 -1.6058 0.8905
30.7384 -11.4241 -1.8188 0.8769
26.4028 -7.7075 -1.5255 0.8957
32.2973 -5.7542 -1.8195 0.8768
32.7318 -2.2490 -1.8197 0.8768
32.7916 -1.0727 -1.8197 0.8768
32.8088 0.1051 -1.8197 0.8768
32.7151 2.4587 -1.8196 0.8768
29.5281 5.4564 -1.6655 0.8867
29.3108 6.5123 -1.6653 0.8867
29.0554 7.5595 -1.6652 0.8867
28.7624 8.5967 -1.6650 0.8867
28.4320 9.6225 -1.6648 0.8867
27.8449 10.5523 -1.6516 0.8875
27.2213 12.6180 -1.6641 0.8867
26.7465 13.5848 -1.6638 0.8868
21.9079 12.1355 -1.3891 0.9045
17.7274 10.6688 -1.1476 0.9205
16.2466 11.4416 -1.1021 0.9235
16.2663 12.3523 -1.1328 0.9214
21.8428 20.6439 -1.6669 0.8866
21.8369 23.8290 -1.7927 0.8785
16.4007 22.3018 -1.5354 0.8950
6.9772 11.0726 -0.7259 0.9489
14.3235 29.3092 -1.8093 0.8775
13.2580 29.7950 -1.8088 0.8775
7.6990 19.1222 -1.1433 0.9207
7.0302 21.8753 -1.2744 0.9121
7.0599 28.9561 -1.6531 0.8875
6.0139 29.1810 -1.6525 0.8875
1.9615 11.6123 -0.6532 0.9539
1.3171 13.7447 -0.7658 0.9462
-0.1427 11.7098 -0.6495 0.9542
-2.6912 11.6191 -0.6615 0.9533
-4.5808 11.7678 -0.7004 0.9507
-5.0760 11.7713 -0.7110 0.9499
-5.5871 11.7750 -0.7229 0.9491
-6.1162 11.7788 -0.7361 0.9482
-6.6659 11.7828 -0.7509 0.9472
-7.7476 11.6556 -0.7763 0.9455
-10.4537 11.6751 -0.8692 0.9391
-22.3756 23.2534 -1.7899 0.8787
-23.9753 21.5781 -1.7890 0.8788
-26.1398 18.8639 -1.7879 0.8789
-23.4757 15.6914 -1.5661 0.8930
-23.4754 14.4999 -1.5304 0.8954
-23.5081 12.2833 -1.4711 0.8992
-29.0640 13.8819 -1.7864 0.8789
-30.1289 10.5860 -1.7712 0.8799
-30.3381 9.4504 -1.7624 0.8805
-31.0588 8.4646 -1.7855 0.8790
-31.3403 7.3437 -1.7853 0.8790
-31.5818 6.2136 -1.7852 0.8790
-31.7829 5.0757 -1.7851 0.8790
-32.1420 1.6294 -1.7850 0.8790
-32.1764 -0.6809 -1.7850 0.8790
-32.0466 -2.9878 -1.7851 0.8790
-31.9203 -4.1365 -1.7852 0.8790
-31.2975 -7.5457 -1.7856 0.8790
-28.9829 -14.0721 -1.7870 0.8789
-27.6942 -14.6974 -1.7389 0.8820
-10.9605 -6.3312 -0.7020 0.9506
-9.3839 -6.3597 -0.6287 0.9556
-8.8707 -6.4885 -0.6096 0.9569
-8.6685 -6.8314 -0.6121 0.9567
-8.7242 -7.3981 -0.6344 0.9552
-21.8307 -19.9028 -1.6385 0.8884
-8.5637 -9.6885 -0.7172 0.9495
-6.8588 -9.6863 -0.6583 0.9536
-6.3598 -9.7021 -0.6434 0.9546
-5.8083 -10.4224 -0.6618 0.9533
-13.7902 -26.9792 -1.6805 0.8857
-11.8376 -27.9429 -1.6832 0.8855
-4.5505 -20.2359 -1.1504 0.9203
-3.7617 -20.0687 -1.1325 0.9215
-3.0477 -20.2492 -1.1358 0.9212
-2.3111 -20.2772 -1.1319 0.9215
-0.8633 -20.7031 -1.4663 0.9203
-0.1171 -20.2794 -1.4350 0.9219
0.6062 -20.1115 -1.4238 0.9225
1.3420 -20.2923 -1.4391 0.9217
1.6233 -15.8687 -1.1288 0.9380
2.2007 -15.8637 -1.1333 0.9378
3.3747 -15.8603 -1.1474 0.9370
2.7279 -9.4346 -0.6950 0.9614
4.0272 -9.8204 -0.7511 0.9583
5.5845 -9.4706 -0.7780 0.9569
6.0527 -9.4704 -0.7953 0.9559
7.0558 -9.4669 -0.8355 0.9538
5.6959 -7.0957 -0.6439 0.9642
5.7505 -6.6592 -0.6226 0.9653
5.9104 -6.3672 -0.6148 0.9658
6.8098 -6.3539 -0.6591 0.9633
7.2947 -6.3321 -0.6835 0.9620
19.6461 -14.7212 -1.7372 0.9062
20.9865 -14.5794 -1.8082 0.9026
21.5643 -13.8604 -1.8140 0.9023
22.0510 -13.0792 -1.8142 0.9023
22.9382 -11.4662 -1.8146 0.9023
24.0452 -8.9365 -1.8152 0.9022
24.3524 -8.0683 -1.8153 0.9022
24.6282 -7.1894 -1.8155 0.9022
24.8719 -6.3012 -1.8156 0.9022
25.0835 -5.4046 -1.8157 0.9022
25.6421 1.0033 -1.8159 0.9022
25.5889 1.9231 -1.8158 0.9022
25.2306 4.6622 -1.8156 0.9022
23.7489 7.0983 -1.7540 0.9054
22.7200 8.6101 -1.7193 0.9072
22.0751 10.2325 -1.7217 0.9070
21.8782 11.1121 -1.7364 0.9063
21.7857 12.0679 -1.7623 0.9050
17.5731 10.5760 -1.4513 0.9210
16.4681 10.7346 -1.3910 0.9242
16.2933 12.3727 -1.4477 0.9212
16.3138 13.3381 -1.4911 0.9190
18.6087 17.5873 -1.8118 0.9024
17.2920 18.8695 -1.8111 0.9025
15.8868 20.0530 -1.8103 0.9025
12.8415 22.1000 -1.8087 0.9026
7.7736 15.9066 -1.2528 0.9315
7.4326 16.7034 -1.2937 0.9293
7.0080 21.8059 -1.6208 0.9122
1.8165 13.7411 -0.9808 0.9459
-0.1426 11.7098 -0.8287 0.9541
-0.5652 11.7448 -0.8320 0.9539
-0.9890 11.7478 -0.8342 0.9538
-1.4157 11.7509 -0.8375 0.9536
-3.1355 11.6223 -0.8518 0.9529
-5.0176 11.6359 -0.8967 0.9505
-5.5228 11.6396 -0.9117 0.9496
-6.0458 11.6433 -0.9284 0.9488
-6.5892 11.6472 -0.9469 0.9478
-8.3692 11.6601 -1.0156 0.9441
-9.0242 11.6648 -1.0436 0.9426
-9.7173 11.6698 -1.0746 0.9409
-10.4538 11.6751 -1.1089 0.9391
-16.0790 16.7097 -1.6409 0.9112
-17.2302 15.5074 -1.6403 0.9112
-18.7882 13.5587 -1.6395 0.9113
-21.5274 13.2967 -1.7905 0.9035
-21.9880 12.5137 -1.7902 0.9035
-23.1980 10.0740 -1.7896 0.9036
-23.8567 8.3822 -1.7893 0.9036
-24.3932 6.6480 -1.7891 0.9036
-24.6146 5.7678 -1.7890 0.9036
-24.9628 3.9866 -1.7888 0.9036
-25.1833 2.1852 -1.7887 0.9036
-25.1700 -2.3467 -1.7888 0.9036
-24.7754 -5.0397 -1.7891 0.9036
-24.3535 -6.8052 -1.7893 0.9036
-24.0955 -7.6757 -1.7895 0.9036
-23.4874 -9.3865 -1.7898 0.9035
-23.1379 -10.2247 -1.7900 0.9035
-11.6628 -6.1895 -0.9343 0.9484
-10.6655 -6.1608 -0.8716 0.9518
-9.8809 -6.1909 -0.8251 0.9543
-9.2252 -6.2522 -0.7886 0.9563
-8.2855 -6.5296 -0.7465 0.9586
-8.0802 -6.8520 -0.7497 0.9584
-8.1195 -7.4024 -0.7775 0.9569
-9.9148 -9.7134 -0.9822 0.9459
-9.1491 -9.6308 -0.9400 0.9481
-6.3154 -9.6345 -0.8152 0.9549
-6.0566 -10.0054 -0.8276 0.9542
-9.8543 -21.1172 -1.6490 0.9108
-9.1298 -21.5634 -1.6571 0.9104
-6.1066 -20.2417 -1.4961 0.9187
-3.7617 -20.0687 -1.4448 0.9214
-0.7983 -19.1453 -1.6497 0.9260
-0.1106 -19.1659 -1.6501 0.9259
1.9517 -19.0794 -1.6512 0.9259
2.6359 -19.0012 -1.6515 0.9259
3.4782 -16.3468 -1.4388 0.9351
2.7086 -10.8077 -0.9592 0.9563
3.4564 -9.3736 -0.8601 0.9607
4.2770 -9.4484 -0.8929 0.9592
4.6969 -9.4567 -0.9090 0.9585
5.1313 -9.4628 -0.9267 0.9577
6.0492 -9.4648 -0.9671 0.9559
5.3629 -7.1955 -0.7726 0.9646
5.5463 -6.4227 -0.7306 0.9665
6.7343 -6.2835 -0.7930 0.9637
7.2073 -6.2563 -0.8217 0.9624
7.7316 -6.2391 -0.8553 0.9609
16.8376 -12.6168 -1.8114 0.9190
17.2818 -12.0057 -1.8116 0.9190
18.4785 -10.0817 -1.8122 0.9190
18.8303 -9.4128 -1.8124 0.9190
19.1578 -8.7315 -1.8126 0.9189
20.2160 -5.9015 -1.8131 0.9189
20.4158 -5.1722 -1.8132 0.9189
20.9486 -2.1973 -1.8134 0.9189
21.0475 0.8236 -1.8134 0.9189
21.0039 1.5785 -1.8134 0.9189
20.3800 5.3024 -1.8130 0.9189
20.1752 6.0301 -1.8129 0.9189
19.6875 7.4609 -1.8126 0.9189
19.0979 8.8525 -1.8122 0.9190
18.7659 9.5313 -1.8121 0.9190
18.4096 10.1977 -1.8119 0.9190
18.0295 10.8507 -1.8116 0.9190
17.6262 11.4895 -1.8114 0.9190
16.2821 13.3122 -1.8107 0.9190
15.2804 14.4417 -1.8101 0.9191
12.4455 16.9235 -1.8086 0.9191
11.8277 17.3560 -1.8082 0.9191
7.0050 11.1167 -1.1312 0.9486
9.8876 18.5162 -1.8072 0.9192
6.5381 13.3784 -1.2820 0.9420
7.6210 17.1267 -1.6139 0.9275
7.1724 17.8142 -1.6533 0.9258
6.5269 18.0564 -1.6530 0.9258
5.8733 18.2752 -1.6526 0.9258
4.5450 18.6414 -1.6519 0.9259
3.8721 18.7884 -1.6515 0.9259
1.8165 13.7411 -1.1933 0.9459
1.3171 13.7447 -1.1887 0.9461
0.8208 13.7483 -1.1857 0.9462
-0.1426 11.7098 -1.0082 0.9541
-1.8462 11.7540 -1.0243 0.9534
-2.2819 11.7572 -1.0311 0.9531
-2.6912 11.6191 -1.0268 0.9532
-3.5888 11.6256 -1.0475 0.9523
-4.0524 11.6290 -1.0602 0.9518
-4.5281 11.6324 -1.0747 0.9511
-6.0459 11.6433 -1.1295 0.9487
-7.1554 11.6513 -1.1772 0.9466
-9.7173 11.6698 -1.3074 0.9409
-13.7113 13.2616 -1.6423 0.9263
-14.6232 12.2402 -1.6418 0.9263
-15.0512 11.7058 -1.6416 0.9263
-16.2164 10.0163 -1.6410 0.9263
-16.8898 8.8252 -1.6406 0.9263
-17.4764 7.5893 -1.6403 0.9264
-19.3745 7.5992 -1.7917 0.9198
-19.6334 6.8983 -1.7916 0.9198
-19.8671 6.1887 -1.7915 0.9199
-20.0754 5.4713 -1.7914 0.9199
-20.2579 4.7469 -1.7913 0.9199
-20.5448 3.2810 -1.7912 0.9199
-20.6488 2.5413 -1.7911 0.9199
-20.7774 1.0533 -1.7911 0.9199
-20.8019 0.3068 -1.7911 0.9199
-20.7707 -1.1865 -1.7911 0.9199
-20.6332 -2.6738 -1.7912 0.9199
-19.5917 -7.0251 -1.7919 0.9198
-19.0405 -8.4141 -1.7922 0.9198
-18.7281 -9.0930 -1.7924 0.9198
-11.5294 -6.1187 -1.1237 0.9489
-8.5523 -6.2556 -0.9122 0.9584
-8.1636 -6.4335 -0.8948 0.9591
-8.0270 -6.8069 -0.9061 0.9586
-9.7444 -9.5465 -1.1744 0.9467
-6.3050 -9.6185 -0.9901 0.9549
-5.8340 -10.4685 -1.0318 0.9530
-8.6987 -17.0182 -1.6455 0.9261
-8.0839 -17.3230 -1.6458 0.9261
-7.4583 -17.6056 -1.6461 0.9261
-6.8230 -17.8658 -1.6465 0.9261
-6.1786 -18.1030 -1.6468 0.9261
-5.5260 -18.3170 -1.6472 0.9261
-3.5271 -18.8172 -1.6482 0.9260
-2.1689 -19.0302 -1.6490 0.9260
-1.2599 -16.2071 -1.6494 0.9367
1.0735 -16.2329 -1.6507 0.9367
2.2362 -16.1201 -1.6513 0.9367
2.8140 -16.0324 -1.6516 0.9367
3.1552 -9.6060 -1.0259 0.9602
4.2758 -9.4458 -1.0520 0.9592
5.1284 -9.4574 -1.0916 0.9577
5.5791 -9.4614 -1.1145 0.9568
4.8664 -7.0436 -0.8687 0.9662
5.1051 -6.3597 -0.8275 0.9677
6.6443 -6.1995 -0.9220 0.9641
14.2757 -10.6971 -1.8100 0.9308
15.3476 -9.1032 -1.8106 0.9308
15.6659 -8.5471 -1.8107 0.9308
16.4977 -6.8150 -1.8111 0.9307
17.1377 -5.0028 -1.8114 0.9307
17.4539 -3.7607 -1.8116 0.9307
17.7583 -1.8627 -1.8117 0.9307
17.8464 -0.5838 -1.8117 0.9307
17.8421 0.6981 -1.8117 0.9307
17.6623 2.6120 -1.8116 0.9307
17.5565 3.2442 -1.8115 0.9307
17.1034 5.1120 -1.8112 0.9307
16.9078 5.7223 -1.8111 0.9307
16.6904 6.3251 -1.8110 0.9308
16.4513 6.9196 -1.8109 0.9308
16.1910 7.5051 -1.8107 0.9308
15.9097 8.0807 -1.8106 0.9308
15.6079 8.6458 -1.8104 0.9308
13.8057 11.2875 -1.8094 0.9308
13.3899 11.7743 -1.8091 0.9308
12.0416 13.1401 -1.8084 0.9308
8.0609 10.1748 -1.3171 0.9491
10.5544 14.3520 -1.8076 0.9309
6.6308 12.4173 -1.4283 0.9450
5.5365 15.3165 -1.6525 0.9366
3.8557 15.8142 -1.6516 0.9367
3.2850 15.9395 -1.6513 0.9367
1.3171 13.7447 -1.4010 0.9460
0.3263 13.7519 -1.3957 0.9462
-0.5652 11.7448 -1.1931 0.9538
-1.8462 11.7540 -1.2072 0.9533
-2.2819 11.7572 -1.2152 0.9530
-4.5281 11.6324 -1.2665 0.9511
-5.0176 11.6359 -1.2857 0.9503
-6.0458 11.6433 -1.3312 0.9486
-7.1554 11.6513 -1.3873 0.9465
-9.0242 11.6648 -1.4964 0.9424
-9.7173 11.6698 -1.5408 0.9408
-11.2319 11.6725 -1.6436 0.9369
-11.6421 11.2603 -1.6434 0.9370
-12.0373 10.8338 -1.6432 0.9370
-13.7709 8.5058 -1.6423 0.9370
-15.0625 5.9079 -1.6417 0.9370
-16.8726 5.2559 -1.7931 0.9314
-17.0496 4.6466 -1.7930 0.9314
-17.2047 4.0314 -1.7929 0.9314
-17.4485 2.7865 -1.7928 0.9314
-17.5370 2.1583 -1.7928 0.9314
-17.6029 1.5274 -1.7928 0.9314
-17.6462 0.8946 -1.7928 0.9314
-17.6405 -1.0077 -1.7928 0.9314
-17.5933 -1.6403 -1.7928 0.9314
-16.6381 -5.9660 -1.7934 0.9314
-11.5079 -6.1073 -1.3219 0.9490
-10.5673 -6.1041 -1.2382 0.9521
-9.7361 -6.1002 -1.1658 0.9549
-8.4644 -6.1913 -1.0641 0.9587
-8.1283 -6.4058 -1.0501 0.9592
-7.9921 -6.7774 -1.0632 0.9587
-9.2068 -9.6915 -1.3563 0.9477
-7.9115 -9.6260 -1.2642 0.9511
-6.2858 -9.5893 -1.1634 0.9549
-5.9102 -9.7635 -1.1580 0.9552
-7.5234 -14.7189 -1.6772 0.9357
-5.2440 -15.3647 -1.6473 0.9368
-4.6900 -15.5458 -1.6476 0.9368
-4.1297 -15.7070 -1.6479 0.9368
0.9731 -14.7145 -1.7236 0.9423
1.5052 -14.7138 -1.7288 0.9422
2.0410 -14.7127 -1.7361 0.9419
2.5821 -14.7112 -1.7458 0.9416
3.1298 -14.7092 -1.7577 0.9412
3.6857 -14.7069 -1.7721 0.9408
2.7279 -9.4346 -1.1479 0.9612
3.1080 -9.4623 -1.1641 0.9607
4.2758 -9.4458 -1.2119 0.9591
5.1254 -9.4520 -1.2568 0.9576
5.5758 -9.4559 -1.2831 0.9568
4.7657 -7.4567 -1.0344 0.9650
4.7489 -6.8735 -0.9765 0.9669
4.8416 -6.4960 -0.9470 0.9679
5.7640 -6.2095 -0.9903 0.9665
6.1714 -6.1873 -1.0214 0.9654
6.6319 -6.1879 -1.0602 0.9641
7.1309 -6.1899 -1.1037 0.9627
7.6895 -6.2051 -1.1549 0.9610
13.0217 -8.3696 -1.8093 0.9396
13.3149 -7.8975 -1.8094 0.9396
13.8492 -6.9229 -1.8097 0.9396
14.0897 -6.4217 -1.8098 0.9395
14.3120 -5.9121 -1.8099 0.9395
14.5158 -5.3949 -1.8100 0.9395
14.8669 -4.3399 -1.8102 0.9395
15.0136 -3.8036 -1.8103 0.9395
15.1410 -3.2623 -1.8103 0.9395
15.4049 -1.6158 -1.8105 0.9395
15.4813 -0.5064 -1.8105 0.9395
15.4895 0.0496 -1.8105 0.9395
15.4776 0.6056 -1.8105 0.9395
15.3218 2.2659 -1.8103 0.9395
15.2301 2.8143 -1.8103 0.9395
14.8374 4.4347 -1.8100 0.9395
14.4793 5.4871 -1.8098 0.9395
14.2720 6.0030 -1.8097 0.9396
13.8025 7.0104 -1.8095 0.9396
13.5409 7.5008 -1.8093 0.9396
13.2617 7.9813 -1.8091 0.9396
12.9655 8.4514 -1.8090 0.9396
11.6176 10.2158 -1.8082 0.9396
11.2421 10.6251 -1.8080 0.9396
10.0310 11.7677 -1.8074 0.9396
8.3840 11.4007 -1.6541 0.9446
5.7482 12.9181 -1.6526 0.9446
5.2800 13.1141 -1.6524 0.9447
2.8513 13.8352 -1.6511 0.9447
1.9615 11.6119 -1.3765 0.9537
1.2762 13.3181 -1.5638 0.9475
0.7971 13.3531 -1.5635 0.9476
-0.1427 11.7098 -1.3688 0.9539
-0.9890 11.7478 -1.3780 0.9536
-1.8462 11.7540 -1.3907 0.9532
-2.6912 11.6191 -1.3940 0.9531
-3.1355 11.6223 -1.4070 0.9527
-5.0176 11.6359 -1.4811 0.9502
-6.0459 11.6433 -1.5334 0.9485
-6.5892 11.6473 -1.5641 0.9475
-7.7476 11.6556 -1.6359 0.9452
-8.2077 11.4351 -1.6452 0.9449
-9.0048 10.8140 -1.6448 0.9449
-9.3861 10.4826 -1.6446 0.9449
-9.7550 10.1377 -1.6444 0.9449
-10.1115 9.7799 -1.6442 0.9449
-10.4549 9.4096 -1.6441 0.9449
-11.9615 7.3882 -1.6433 0.9450
-12.2180 6.9535 -1.6432 0.9450
-12.6836 6.0581 -1.6429 0.9450
-12.8921 5.5985 -1.6428 0.9450
-13.2591 4.6586 -1.6426 0.9450
-14.9452 3.5020 -1.7942 0.9401
-15.0608 2.9632 -1.7941 0.9401
-15.1572 2.4206 -1.7941 0.9401
-15.3290 0.7771 -1.7940 0.9401
-15.3453 -0.3247 -1.7940 0.9401
-15.2829 -1.4249 -1.7941 0.9401
-15.2223 -1.9726 -1.7941 0.9401
-14.4525 -5.1823 -1.7946 0.9400
-14.0453 -6.2067 -1.7948 0.9400
-11.5079 -6.1073 -1.5228 0.9489
-10.5895 -6.1169 -1.4294 0.9519
-9.7409 -6.1032 -1.3436 0.9548
-8.4425 -6.1752 -1.2226 0.9588
-8.1185 -6.3980 -1.2082 0.9592
-7.9719 -7.2679 -1.2609 0.9575
-7.3019 -9.5647 -1.4065 0.9527
-6.7719 -9.5636 -1.3697 0.9539
-6.2767 -9.5754 -1.3382 0.9549
-6.7550 -11.1591 -1.5247 0.9488
-6.5086 -13.9473 -1.7990 0.9399
-6.0046 -14.1741 -1.7992 0.9399
-3.3068 -14.7053 -1.7617 0.9411
-2.7569 -14.7079 -1.7490 0.9415
-2.2140 -14.7101 -1.7387 0.9419
-1.6767 -14.7119 -1.7307 0.9421
-1.0551 -13.5728 -1.8019 0.9466
-0.0786 -13.6174 -1.8024 0.9465
0.4103 -13.6135 -1.8027 0.9465
1.8722 -13.4963 -1.8034 0.9465
2.3558 -13.4223 -1.8037 0.9465
2.8365 -13.3310 -1.8039 0.9465
3.3137 -13.2224 -1.8042 0.9465
3.0960 -9.4256 -1.3131 0.9608
3.4610 -9.3861 -1.3241 0.9604
3.8485 -9.3846 -1.3425 0.9599
5.6252 -12.4266 -1.8054 0.9464
6.9311 -11.7543 -1.8061 0.9464
4.6822 -7.3260 -1.1508 0.9655
4.6964 -6.7975 -1.0936 0.9672
5.3338 -6.1767 -1.0802 0.9676
6.1603 -6.1762 -1.1546 0.9654
7.1148 -6.1759 -1.2470 0.9627
11.4940 -7.3877 -1.8085 0.9464
12.4363 -5.6681 -1.8089 0.9463
12.6325 -5.2183 -1.8090 0.9463
12.9755 -4.2989 -1.8092 0.9463
13.1219 -3.8306 -1.8093 0.9463
13.2514 -3.3572 -1.8093 0.9463
13.4588 -2.3979 -1.8094 0.9463
13.5365 -1.9133 -1.8095 0.9463
13.6641 -0.4470 -1.8095 0.9463
13.6608 0.5345 -1.8095 0.9463
13.6326 1.0245 -1.8095 0.9463
13.4425 2.4840 -1.8093 0.9463
13.2287 3.4418 -1.8092 0.9463
12.1831 6.1879 -1.8086 0.9464
10.5735 8.6449 -1.8077 0.9464
9.9241 9.3793 -1.8073 0.9464
9.5800 9.7285 -1.8071 0.9464
9.2236 10.0650 -1.8070 0.9464
7.7590 9.7937 -1.6538 0.9508
7.4016 10.0647 -1.6536 0.9508
7.0347 10.3227 -1.6534 0.9508
6.6588 10.5672 -1.6532 0.9509
5.8820 11.0150 -1.6528 0.9509
5.4821 11.2175 -1.6525 0.9509
5.0752 11.4055 -1.6523 0.9509
4.6618 11.5788 -1.6521 0.9509
4.2426 11.7371 -1.6519 0.9509
3.8180 11.8802 -1.6516 0.9509
3.3887 12.0079 -1.6514 0.9509
2.9550 12.1201 -1.6512 0.9509
0.2802 11.8078 -1.5633 0.9535
-0.5637 11.7128 -1.5521 0.9538
-1.4118 11.7189 -1.5623 0.9535
-2.2545 11.6160 -1.5662 0.9534
-3.5887 11.6256 -1.6104 0.9521
-4.0524 11.6290 -1.6300 0.9515
-4.5145 11.5973 -1.6472 0.9510
-4.9272 11.4263 -1.6470 0.9510
-6.5086 10.5981 -1.6461 0.9511
-7.6075 9.8336 -1.6456 0.9511
-8.2917 9.2604 -1.6452 0.9511
-8.6179 8.9559 -1.6450 0.9511
-9.2364 8.3129 -1.6447 0.9511
-5.7601 4.4798 -0.9658 0.9710
-10.3276 6.9031 -1.6442 0.9511
-10.5679 6.5274 -1.6440 0.9511
-10.7947 6.1434 -1.6439 0.9511
-11.3905 4.9464 -1.6436 0.9511
-12.0985 4.2509 -1.6973 0.9496
-12.9328 4.0286 -1.7929 0.9468
-13.0857 3.5663 -1.7952 0.9467
-13.3922 2.1387 -1.7950 0.9467
-13.4601 1.6566 -1.7950 0.9468
-13.5108 1.1723 -1.7950 0.9468
-13.5600 0.2000 -1.7950 0.9468
-13.5033 -1.2590 -1.7950 0.9467
-13.4497 -1.7429 -1.7951 0.9467
-13.3788 -2.2247 -1.7951 0.9467
-13.2908 -2.7036 -1.7952 0.9467
-13.1856 -3.1790 -1.7952 0.9467
-12.5973 -5.0344 -1.7956 0.9467
-12.2052 -5.9260 -1.7958 0.9467
-11.6559 -6.1858 -1.7465 0.9481
-11.7503 -6.7873 -1.7960 0.9467
-9.7483 -6.1079 -1.5226 0.9546
-9.0127 -6.1082 -1.4410 0.9570
-8.4402 -6.1736 -1.3841 0.9587
-7.9909 -6.7763 -1.3867 0.9586
-9.6993 -9.5023 -1.7972 0.9467
-9.3529 -9.8454 -1.7974 0.9467
-8.6244 -10.4934 -1.7978 0.9467
-5.7489 -12.3193 -1.7993 0.9466
-5.3036 -12.5193 -1.7996 0.9466
-4.8515 -12.7034 -1.7998 0.9466
-4.3930 -12.8712 -1.8001 0.9466
-3.4592 -13.1568 -1.8006 0.9466
-2.9851 -13.2744 -1.8008 0.9466
-2.5070 -13.3749 -1.8011 0.9466
-2.0256 -13.4582 -1.8014 0.9466
-0.9443 -12.1472 -1.8019 0.9519
-0.0704 -12.1868 -1.8024 0.9519
0.3672 -12.1830 -1.8026 0.9519
0.8044 -12.1636 -1.8028 0.9519
1.6754 -12.0776 -1.8033 0.9519
2.1082 -12.0112 -1.8035 0.9519
2.5383 -11.9293 -1.8038 0.9519
2.9652 -11.8320 -1.8040 0.9519
3.3885 -11.7194 -1.8042 0.9519
3.1392 -9.5572 -1.4877 0.9601
3.4593 -9.3815 -1.4788 0.9604
5.0333 -11.1191 -1.8051 0.9518
4.6442 -7.2665 -1.2754 0.9657
4.9736 -6.1959 -1.1750 0.9684
5.3148 -6.1546 -1.2026 0.9677
5.7211 -6.1633 -1.2437 0.9666
6.1493 -6.1651 -1.2878 0.9654
6.6076 -6.1652 -1.3365 0.9641
7.1021 -6.1649 -1.3909 0.9627
7.6594 -6.1808 -1.4556 0.9610
10.7319 -5.8552 -1.8080 0.9518
10.9358 -5.4665 -1.8081 0.9518
11.3009 -4.6683 -1.8083 0.9518
11.4617 -4.2598 -1.8084 0.9518
11.6077 -3.8458 -1.8085 0.9518
11.8544 -3.0033 -1.8086 0.9518
11.9549 -2.5758 -1.8086 0.9518
12.1632 -1.2758 -1.8087 0.9518
12.2012 -0.8384 -1.8087 0.9518
12.2234 -0.3998 -1.8087 0.9518
12.2205 0.4782 -1.8087 0.9518
12.1953 0.9165 -1.8087 0.9518
12.1544 1.3537 -1.8087 0.9518
12.0254 2.2221 -1.8086 0.9518
11.9375 2.6522 -1.8085 0.9518
11.8342 3.0790 -1.8085 0.9518
11.7156 3.5016 -1.8084 0.9518
11.5818 3.9197 -1.8083 0.9518
11.0916 5.1413 -1.8080 0.9518
10.8992 5.5358 -1.8079 0.9518
10.6928 5.9231 -1.8078 0.9518
10.4726 6.3027 -1.8077 0.9518
10.2388 6.6741 -1.8076 0.9518
9.9919 7.0368 -1.8074 0.9518
9.7321 7.3903 -1.8073 0.9518
9.4597 7.7342 -1.8071 0.9518
9.1752 8.0681 -1.8070 0.9518
7.5545 8.2437 -1.6537 0.9558
6.9422 8.7627 -1.6534 0.9558
6.2942 9.2362 -1.6530 0.9558
5.9580 9.4551 -1.6528 0.9558
5.6141 9.6618 -1.6526 0.9558
5.2630 9.8559 -1.6524 0.9558
4.9053 10.0374 -1.6522 0.9558
4.1715 10.3609 -1.6518 0.9558
3.7964 10.5027 -1.6516 0.9558
2.6444 10.8459 -1.6510 0.9559
1.8589 11.0048 -1.6506 0.9559
1.4625 11.0631 -1.6504 0.9559
-0.1359 11.1527 -1.6495 0.9559
-0.9354 11.1113 -1.6491 0.9559
-1.3335 11.0692 -1.6489 0.9559
-2.9026 10.7589 -1.6481 0.9559
-3.2865 10.6465 -1.6479 0.9559
-4.0409 10.3808 -1.6475 0.9560
-5.1317 9.8827 -1.6469 0.9560
-6.4905 9.0426 -1.6462 0.9560
-6.8102 8.8029 -1.6460 0.9560
-7.1211 8.5520 -1.6459 0.9560
-7.7149 8.0175 -1.6455 0.9560
-7.9970 7.7347 -1.6454 0.9560
-8.2688 7.4421 -1.6453 0.9560
-9.2460 6.1801 -1.6448 0.9560
-10.0329 4.7920 -1.6444 0.9560
-11.4291 4.0156 -1.7916 0.9522
-11.8226 2.7703 -1.7958 0.9521
-11.9904 1.9148 -1.7958 0.9521
-12.0512 1.4832 -1.7957 0.9521
-12.0966 1.0496 -1.7957 0.9521
-12.1264 0.6147 -1.7957 0.9521
-12.1406 0.1792 -1.7957 0.9521
-12.1224 -0.6925 -1.7957 0.9521
-12.0899 -1.1272 -1.7958 0.9521
-12.0418 -1.5605 -1.7958 0.9521
-11.9783 -1.9918 -1.7958 0.9521
-11.8995 -2.4205 -1.7959 0.9521
-11.6959 -3.2683 -1.7960 0.9521
-11.2783 -4.5073 -1.7963 0.9521
-10.9271 -5.3054 -1.7965 0.9521
-10.7303 -5.6946 -1.7966 0.9521
-10.5196 -6.0765 -1.7967 0.9521
-10.2955 -6.4507 -1.7968 0.9521
-9.0625 -7.6850 -1.7573 0.9531
-8.9819 -8.1887 -1.7975 0.9520
-8.6829 -8.5066 -1.7977 0.9520
-7.7204 -9.3935 -1.7982 0.9520
-6.7719 -9.5636 -1.7331 0.9537
-6.2992 -10.4062 -1.7990 0.9520
-5.9223 -10.6269 -1.7992 0.9520
-5.5376 -10.8338 -1.7994 0.9520
-5.1458 -11.0270 -1.7996 0.9520
-4.3424 -11.3705 -1.8001 0.9520
-3.9320 -11.5204 -1.8003 0.9520
-3.0961 -11.7758 -1.8008 0.9520
-2.2438 -11.9706 -1.8012 0.9519
-1.3795 -12.1039 -1.8017 0.9519
-0.8541 -10.9879 -1.8019 0.9563
-0.4592 -11.0127 -1.8021 0.9563
0.3321 -11.0199 -1.8026 0.9563
0.7276 -11.0021 -1.8028 0.9563
1.5154 -10.9241 -1.8032 0.9563
2.2958 -10.7897 -1.8036 0.9563
2.6820 -10.7016 -1.8038 0.9563
3.4436 -10.4839 -1.8042 0.9563
3.4571 -9.3756 -1.6338 0.9603
3.8447 -9.3754 -1.6568 0.9598
4.5522 -10.0562 -1.8048 0.9562
4.9107 -9.8874 -1.8050 0.9562
5.2630 -9.7057 -1.8052 0.9562
5.6086 -9.5115 -1.8054 0.9562
4.6542 -7.2822 -1.4130 0.9656
4.9700 -6.1915 -1.2981 0.9683
5.3175 -6.1578 -1.3302 0.9676
5.7096 -6.1509 -1.3722 0.9666
6.5964 -6.1548 -1.4751 0.9641
7.0926 -6.1567 -1.5356 0.9626
7.6563 -6.1783 -1.6085 0.9609
8.8446 -6.6275 -1.8070 0.9562
9.2985 -5.9766 -1.8073 0.9562
9.5076 -5.6393 -1.8074 0.9562
9.7045 -5.2946 -1.8075 0.9562
9.8888 -4.9431 -1.8076 0.9562
10.2189 -4.2213 -1.8077 0.9562
10.3642 -3.8519 -1.8078 0.9562
10.4962 -3.4775 -1.8079 0.9562
10.7193 -2.7157 -1.8080 0.9562
10.8869 -1.9397 -1.8080 0.9562
10.9497 -1.5477 -1.8081 0.9562
11.0528 -0.3616 -1.8081 0.9562
11.0587 0.0354 -1.8081 0.9562
11.0502 0.4324 -1.8081 0.9562
10.9392 1.6177 -1.8080 0.9562
10.7010 2.7841 -1.8079 0.9562
10.5938 3.1664 -1.8078 0.9562
10.0298 4.6491 -1.8075 0.9562
9.6693 5.3562 -1.8073 0.9562
9.2589 6.0353 -1.8070 0.9562
8.8008 6.6831 -1.8068 0.9562
8.5545 6.9941 -1.8066 0.9562
6.5593 7.6948 -1.6532 0.9598
6.2782 7.9246 -1.6530 0.9599
5.6924 8.3530 -1.6527 0.9599
5.0774 8.7381 -1.6524 0.9599
4.1073 9.2304 -1.6518 0.9599
3.7729 9.3708 -1.6517 0.9599
3.4337 9.4992 -1.6515 0.9599
3.0901 9.6152 -1.6513 0.9599
2.3918 9.8099 -1.6509 0.9599
2.0379 9.8883 -1.6507 0.9599
1.3229 10.0067 -1.6503 0.9599
0.9627 10.0466 -1.6501 0.9599
0.6014 10.0735 -1.6499 0.9599
-0.1229 10.0883 -1.6496 0.9599
-0.4849 10.0762 -1.6494 0.9599
-0.8462 10.0511 -1.6492 0.9599
-1.2063 10.0131 -1.6490 0.9599
-1.9212 9.8985 -1.6486 0.9600
-2.9731 9.6313 -1.6480 0.9600
-3.3166 9.5174 -1.6479 0.9600
-3.6557 9.3911 -1.6477 0.9600
-4.3191 9.1027 -1.6473 0.9600
-4.6426 8.9409 -1.6472 0.9600
-5.5752 8.3875 -1.6467 0.9600
-5.8722 8.1812 -1.6465 0.9600
-6.1615 7.9644 -1.6464 0.9600
-6.7159 7.5005 -1.6461 0.9600
-8.1603 5.8889 -1.6453 0.9600
-8.7445 4.9766 -1.6450 0.9600
-8.9170 4.6593 -1.6450 0.9600
-9.0781 4.3360 -1.6449 0.9600
-9.7022 4.2133 -1.7294 0.9580
-10.2060 4.0030 -1.7924 0.9565
-10.4908 3.2679 -1.7965 0.9564
-10.6010 2.8892 -1.7965 0.9564
-10.6977 2.5067 -1.7964 0.9564
-10.7805 2.1210 -1.7964 0.9564
-10.8495 1.7327 -1.7964 0.9564
-10.9046 1.3421 -1.7964 0.9564
-10.9457 0.9498 -1.7963 0.9564
-10.9843 -0.2325 -1.7963 0.9564
-10.9690 -0.6266 -1.7964 0.9564
-10.9396 -1.0200 -1.7964 0.9564
-10.8386 -1.8023 -1.7964 0.9564
-10.7672 -2.1902 -1.7965 0.9564
-10.5830 -2.9573 -1.7966 0.9564
-10.2050 -4.0783 -1.7968 0.9564
-9.3154 -5.8366 -1.7973 0.9564
-9.0127 -6.1081 -1.7801 0.9568
-8.6358 -6.8056 -1.7977 0.9564
-8.3866 -7.1118 -1.7978 0.9564
-7.8560 -7.6964 -1.7981 0.9564
-7.5753 -7.9742 -1.7983 0.9564
-6.9849 -8.4986 -1.7986 0.9564
-6.3584 -8.9796 -1.7990 0.9564
-6.0326 -9.2029 -1.7991 0.9564
-5.6989 -9.4145 -1.7993 0.9564
-5.3578 -9.6140 -1.7995 0.9564
-4.6552 -9.9757 -1.7999 0.9564
-3.5570 -10.4218 -1.8005 0.9563
-3.1810 -10.5440 -1.8007 0.9563
-2.8008 -10.6526 -1.8009 0.9563
-2.4168 -10.7475 -1.8011 0.9563
-1.6399 -10.8957 -1.8015 0.9563
-0.7794 -10.0262 -1.8020 0.9600
-0.0581 -10.0584 -1.8023 0.9599
0.3031 -10.0551 -1.8025 0.9599
