ply
format ascii 1.0
element vertex 1587
property float32 x
property float32 y
property float32 z
property float32 I
end_header
9.1534 12.4469 -1.8059 0.9397
7.9638 11.6861 -1.6529 0.9446
7.5380 11.9626 -1.6527 0.9446
7.1026 12.2236 -1.6524 0.9447
6.6173 12.3921 -1.6420 0.9450
5.7447 12.9102 -1.6516 0.9447
4.8021 13.2848 -1.6511 0.9447
3.8353 13.5907 -1.6506 0.9447
3.3445 13.7174 -1.6503 0.9447
2.8494 13.8263 -1.6500 0.9447
2.3509 13.9174 -1.6498 0.9447
1.8495 13.9905 -1.6495 0.9448
0.7966 13.3446 -1.5625 0.9476
-1.4152 11.7468 -1.3829 0.9535
-1.8455 11.7493 -1.3901 0.9532
-2.7226 11.7546 -1.4103 0.9526
-3.5867 11.6188 -1.4213 0.9522
-4.0499 11.6216 -1.4385 0.9516
-5.5185 11.6304 -1.5047 0.9495
-6.0408 11.6336 -1.5322 0.9486
-7.1485 11.6402 -1.5966 0.9465
-9.3819 10.4780 -1.6439 0.9449
-9.7510 10.1335 -1.6437 0.9449
-10.4509 9.4061 -1.6434 0.9449
-11.6860 7.8110 -1.6429 0.9450
-12.4558 6.5084 -1.6426 0.9450
-12.6808 6.0567 -1.6426 0.9450
-12.8895 5.5974 -1.6425 0.9450
-13.0817 5.1310 -1.6424 0.9450
-13.2570 4.6579 -1.6424 0.9450
-14.5949 4.5464 -1.7868 0.9403
-14.8088 4.0359 -1.7940 0.9401
-14.9439 3.5017 -1.7940 0.9401
-15.2337 1.8749 -1.7940 0.9401
-15.2914 1.3269 -1.7940 0.9401
-15.3254 -0.8754 -1.7942 0.9401
-15.2244 -1.9729 -1.7944 0.9400
-15.1446 -2.5182 -1.7945 0.9400
-14.7888 -4.1325 -1.7948 0.9400
-14.2622 -5.6997 -1.7952 0.9400
-14.0497 -6.2086 -1.7954 0.9400
-12.8210 -6.2250 -1.6659 0.9442
-11.5532 -6.1313 -1.5288 0.9487
-9.8273 -6.1573 -1.3555 0.9544
-9.3972 -6.3687 -1.3269 0.9553
-9.2286 -6.7503 -1.3364 0.9550
-8.4560 -9.5667 -1.4924 0.9499
-9.3366 -12.2297 -1.7984 0.9399
-7.9064 -11.1657 -1.5991 0.9464
-8.4376 -12.8719 -1.7989 0.9399
-7.0081 -13.7107 -1.7998 0.9399
-6.5125 -13.9556 -1.8000 0.9399
-5.4899 -14.3750 -1.7986 0.9399
-4.9633 -14.5422 -1.7960 0.9400
-4.4325 -14.6925 -1.7937 0.9401
-3.8661 -14.7045 -1.7771 0.9406
-3.3072 -14.7069 -1.7619 0.9411
-2.2140 -14.7104 -1.7388 0.9418
-0.5676 -13.6115 -1.8031 0.9465
0.8994 -13.5994 -1.8039 0.9465
1.3871 -13.5603 -1.8042 0.9465
1.6545 -9.4265 -1.2667 0.9621
4.2572 -12.9608 -1.8056 0.9464
5.1774 -12.6251 -1.8061 0.9464
5.6279 -12.4327 -1.8063 0.9464
4.5996 -6.1713 -1.0187 0.9694
4.9542 -6.1716 -1.0475 0.9686
5.3296 -6.1717 -1.0793 0.9676
5.7294 -6.1722 -1.1146 0.9666
6.1531 -6.1689 -1.1532 0.9655
6.6247 -6.1812 -1.1992 0.9641
10.3183 -8.9567 -1.8085 0.9464
11.4970 -7.3896 -1.8089 0.9463
11.7555 -6.9725 -1.8090 0.9463
12.4386 -5.6691 -1.8093 0.9463
12.8141 -4.7624 -1.8094 0.9463
13.3646 -2.8796 -1.8095 0.9463
13.5967 -1.4261 -1.8095 0.9463
13.6389 -0.9371 -1.8095 0.9463
13.6635 -0.4469 -1.8094 0.9463
13.6313 1.0244 -1.8093 0.9463
13.5852 1.5130 -1.8092 0.9463
13.5215 1.9996 -1.8091 0.9463
13.4404 2.4836 -1.8090 0.9463
13.2261 3.4411 -1.8088 0.9464
12.9434 4.3806 -1.8086 0.9464
12.7769 4.8420 -1.8085 0.9464
11.9484 6.6187 -1.8079 0.9464
11.4406 7.4574 -1.8075 0.9464
11.1644 7.8625 -1.8074 0.9464
10.8738 8.2573 -1.8072 0.9464
10.2511 9.0142 -1.8068 0.9464
9.5757 9.7242 -1.8063 0.9464
7.3980 10.0598 -1.6528 0.9509
6.6554 10.5619 -1.6523 0.9509
5.8789 11.0092 -1.6519 0.9509
5.0724 11.3994 -1.6514 0.9509
4.6593 11.5725 -1.6512 0.9509
4.2403 11.7306 -1.6510 0.9509
3.3867 12.0012 -1.6505 0.9509
1.6333 12.3552 -1.6495 0.9510
1.1263 11.7540 -1.5629 0.9535
0.2800 11.8011 -1.5624 0.9535
-0.1438 11.8019 -1.5622 0.9535
-1.4891 12.3608 -1.6479 0.9510
-1.8304 11.6533 -1.5613 0.9535
-2.6899 11.6135 -1.5778 0.9530
-3.1338 11.6161 -1.5924 0.9526
-4.5122 11.5915 -1.6464 0.9510
-7.2474 10.0972 -1.6451 0.9511
-7.6044 9.8296 -1.6449 0.9511
-8.9297 8.6369 -1.6443 0.9511
-9.2333 8.3101 -1.6442 0.9511
-6.2862 4.5364 -1.0260 0.9692
-10.3248 6.9012 -1.6437 0.9511
-11.2040 5.3514 -1.6434 0.9511
-11.5583 4.5335 -1.6433 0.9511
-12.9185 4.0242 -1.7909 0.9469
-13.0844 3.5660 -1.7950 0.9468
-13.4599 1.6566 -1.7950 0.9468
-13.5108 1.1724 -1.7950 0.9468
-13.5444 0.6866 -1.7950 0.9467
-13.5594 -0.2869 -1.7951 0.9467
-13.5047 -1.2591 -1.7952 0.9467
-13.4514 -1.7431 -1.7953 0.9467
-13.3807 -2.2250 -1.7954 0.9467
-13.2929 -2.7040 -1.7954 0.9467
-13.1880 -3.1796 -1.7955 0.9467
-13.0662 -3.6511 -1.7956 0.9467
-12.6005 -5.0357 -1.7960 0.9467
-12.4126 -5.4851 -1.7962 0.9467
-11.7541 -6.7895 -1.7966 0.9467
-9.9210 -6.2161 -1.5496 0.9539
-10.9593 -8.0162 -1.7972 0.9467
-10.3582 -8.7837 -1.7975 0.9467
-10.0373 -9.1509 -1.7977 0.9467
-9.7035 -9.5064 -1.7980 0.9467
-9.3571 -9.8497 -1.7982 0.9467
-7.8550 -11.0931 -1.7991 0.9466
-7.4527 -11.3694 -1.7993 0.9466
-7.0407 -11.6312 -1.7996 0.9466
-4.8541 -12.7103 -1.8008 0.9466
-3.9308 -13.0295 -1.8013 0.9466
-3.4611 -13.1641 -1.8016 0.9466
-2.9867 -13.2818 -1.8018 0.9466
-2.0267 -13.4657 -1.8024 0.9465
-1.5423 -13.5318 -1.8026 0.9465
1.2413 -12.1344 -1.8040 0.9519
1.6763 -12.0835 -1.8042 0.9519
2.1092 -12.0170 -1.8044 0.9519
4.2235 -11.4540 -1.8055 0.9518
4.6325 -11.2963 -1.8057 0.9518
3.6646 -6.2147 -1.0670 0.9712
4.5922 -6.1614 -1.1365 0.9694
4.9460 -6.1615 -1.1685 0.9686
5.7185 -6.1605 -1.2431 0.9666
6.1566 -6.1724 -1.2893 0.9654
6.6047 -6.1625 -1.3359 0.9641
10.0407 -6.9753 -1.8081 0.9518
10.7339 -5.8563 -1.8084 0.9518
11.1273 -5.0715 -1.8085 0.9518
11.3025 -4.6689 -1.8086 0.9518
11.4631 -4.2603 -1.8086 0.9518
11.7397 -3.4270 -1.8087 0.9518
12.0404 -2.1452 -1.8087 0.9518
12.1096 -1.7116 -1.8087 0.9518
12.2010 -0.8383 -1.8087 0.9518
12.2292 0.0392 -1.8086 0.9518
12.0962 1.7889 -1.8084 0.9518
12.0236 2.2218 -1.8083 0.9518
11.8321 3.0784 -1.8081 0.9518
11.7133 3.5010 -1.8080 0.9518
11.4305 4.3318 -1.8078 0.9518
11.2669 4.7390 -1.8077 0.9518
10.8962 5.5343 -1.8074 0.9518
10.4694 6.3008 -1.8071 0.9518
10.2356 6.6719 -1.8070 0.9518
9.9885 7.0344 -1.8068 0.9518
9.4563 7.7315 -1.8065 0.9518
9.1718 8.0651 -1.8063 0.9518
6.9392 8.7589 -1.6526 0.9558
6.6195 9.0013 -1.6525 0.9558
6.2914 9.2321 -1.6523 0.9558
5.9553 9.4508 -1.6521 0.9558
5.6115 9.6573 -1.6519 0.9558
5.2606 9.8513 -1.6517 0.9558
4.9029 10.0326 -1.6515 0.9559
4.5391 10.2008 -1.6513 0.9559
3.4148 10.6256 -1.6506 0.9559
3.0309 10.7400 -1.6504 0.9559
2.6430 10.8404 -1.6502 0.9559
2.2519 10.9269 -1.6500 0.9559
1.8580 10.9993 -1.6498 0.9559
0.2645 11.1462 -1.6489 0.9559
-0.5358 11.1336 -1.6485 0.9559
-1.3329 11.0637 -1.6481 0.9559
-2.1227 10.9369 -1.6477 0.9560
-2.9012 10.7538 -1.6473 0.9560
-3.6644 10.5155 -1.6469 0.9560
-4.0391 10.3761 -1.6467 0.9560
-4.7721 10.0573 -1.6464 0.9560
-5.1295 9.8785 -1.6462 0.9560
-5.8238 9.4832 -1.6459 0.9560
-7.7123 8.0149 -1.6450 0.9560
-7.9945 7.7323 -1.6449 0.9560
-8.2663 7.4398 -1.6448 0.9560
-9.2437 6.1786 -1.6444 0.9560
-10.0311 4.7912 -1.6441 0.9560
-10.1963 4.4279 -1.6440 0.9560
-10.7279 4.2078 -1.7043 0.9545
-11.4265 4.0148 -1.7912 0.9522
-11.5928 3.6112 -1.7958 0.9521
-11.8217 2.7701 -1.7957 0.9521
-12.1266 0.6147 -1.7958 0.9521
-12.1233 -0.6925 -1.7959 0.9521
-12.0432 -1.5606 -1.7960 0.9521
-11.9799 -1.9920 -1.7961 0.9521
-11.4347 -4.1002 -1.7965 0.9521
-11.2809 -4.5083 -1.7967 0.9521
-11.1126 -4.9107 -1.7968 0.9521
-10.5227 -6.0783 -1.7972 0.9521
-10.2986 -6.4526 -1.7974 0.9520
-10.0612 -6.8187 -1.7975 0.9520
-9.5479 -7.5244 -1.7979 0.9520
-8.6863 -8.5098 -1.7984 0.9520
-8.3761 -8.8171 -1.7986 0.9520
-8.0551 -9.1131 -1.7988 0.9520
-7.7236 -9.3974 -1.7990 0.9520
-5.9250 -10.6317 -1.8000 0.9520
-5.1482 -11.0322 -1.8005 0.9520
-4.7495 -11.2112 -1.8007 0.9520
-0.8545 -10.9928 -1.8028 0.9563
-0.4595 -11.0177 -1.8030 0.9563
-0.0637 -11.0284 -1.8032 0.9563
0.3323 -11.0248 -1.8034 0.9563
1.9921 -9.3623 -1.5650 0.9619
2.7073 -9.3633 -1.5936 0.9613
3.4450 -10.4883 -1.8050 0.9562
4.1895 -10.2161 -1.8053 0.9562
3.3297 -6.7041 -1.2239 0.9701
3.4543 -6.3701 -1.1848 0.9711
3.6486 -6.1875 -1.1744 0.9713
4.2486 -6.1494 -1.2221 0.9702
4.9380 -6.1515 -1.2897 0.9685
5.3119 -6.1512 -1.3288 0.9676
6.1419 -6.1576 -1.4220 0.9654
6.6059 -6.1636 -1.4772 0.9640
8.3474 -7.2458 -1.8073 0.9562
9.0794 -6.3075 -1.8076 0.9562
9.3004 -5.9778 -1.8076 0.9562
9.7062 -5.2956 -1.8078 0.9562
10.0618 -4.5859 -1.8079 0.9562
10.3654 -3.8523 -1.8080 0.9562
10.4972 -3.4779 -1.8080 0.9562
10.8106 -2.3293 -1.8081 0.9562
10.8873 -1.9397 -1.8081 0.9562
10.9499 -1.5476 -1.8081 0.9562
10.9983 -1.1536 -1.8081 0.9562
11.0525 -0.3615 -1.8080 0.9562
11.0495 0.4324 -1.8080 0.9562
10.9893 1.2239 -1.8079 0.9562
10.6993 2.7837 -1.8076 0.9562
10.3363 3.9171 -1.8073 0.9562
9.6667 5.3547 -1.8068 0.9562
9.4675 5.6979 -1.8067 0.9562
9.0329 6.3614 -1.8064 0.9562
8.2945 7.2937 -1.8059 0.9562
8.0266 7.5860 -1.8057 0.9562
7.7484 7.8685 -1.8056 0.9562
7.4602 8.1408 -1.8054 0.9562
7.1396 8.3757 -1.7994 0.9564
5.9868 8.1409 -1.6522 0.9599
5.6901 8.3496 -1.6520 0.9599
4.7579 8.9100 -1.6515 0.9599
4.1055 9.2263 -1.6511 0.9599
3.4321 9.4949 -1.6507 0.9599
2.7414 9.7145 -1.6503 0.9599
2.3907 9.8054 -1.6502 0.9599
1.3222 10.0021 -1.6496 0.9599
0.9622 10.0420 -1.6494 0.9599
0.6011 10.0688 -1.6492 0.9599
0.2392 10.0828 -1.6490 0.9599
-0.1229 10.0837 -1.6488 0.9600
-0.4847 10.0716 -1.6486 0.9600
-1.5641 9.9578 -1.6481 0.9600
-2.9719 9.6273 -1.6473 0.9600
-3.3152 9.5134 -1.6472 0.9600
-3.6542 9.3873 -1.6470 0.9600
-3.9884 9.2492 -1.6468 0.9600
-4.3174 9.0992 -1.6467 0.9600
-4.6408 8.9375 -1.6465 0.9600
-4.9582 8.7643 -1.6464 0.9600
-5.8701 8.1784 -1.6460 0.9600
-6.4408 7.7349 -1.6457 0.9600
-6.9781 7.2518 -1.6455 0.9600
-7.2334 6.9962 -1.6453 0.9600
-7.4794 6.7316 -1.6452 0.9600
-7.7158 6.4584 -1.6451 0.9600
-8.7428 4.9757 -1.6447 0.9600
-9.6824 4.2047 -1.7259 0.9581
-10.6002 2.8889 -1.7963 0.9564
-10.7800 2.1209 -1.7963 0.9564
-10.8492 1.7326 -1.7963 0.9564
-10.9044 1.3421 -1.7963 0.9564
-10.9457 0.9498 -1.7963 0.9564
-10.9859 0.1620 -1.7964 0.9564
-10.9849 -0.2324 -1.7964 0.9564
-10.9405 -1.0200 -1.7965 0.9564
-10.8972 -1.4121 -1.7966 0.9564
-10.8398 -1.8025 -1.7967 0.9564
-10.7686 -2.1905 -1.7967 0.9564
-10.6835 -2.5757 -1.7968 0.9564
-10.4722 -3.3359 -1.7970 0.9564
-10.2071 -4.0791 -1.7972 0.9564
-10.0547 -4.4432 -1.7973 0.9564
-9.8894 -4.8016 -1.7974 0.9564
-9.5208 -5.4995 -1.7977 0.9564
-8.8765 -6.4927 -1.7981 0.9564
-8.6385 -6.8078 -1.7983 0.9564
-8.3893 -7.1141 -1.7984 0.9564
-7.5780 -7.9770 -1.7989 0.9564
-7.2875 -8.2447 -1.7991 0.9564
-6.6785 -8.7481 -1.7995 0.9564
-6.3609 -8.9831 -1.7997 0.9564
-6.0350 -9.2066 -1.7999 0.9564
-5.0119 -9.8053 -1.8005 0.9563
-4.6572 -9.9800 -1.8007 0.9563
-4.2965 -10.1419 -1.8009 0.9563
-3.9301 -10.2908 -1.8011 0.9563
-2.4179 -10.7523 -1.8019 0.9563
-1.2484 -10.9538 -1.8025 0.9563
-0.4192 -10.0529 -1.8029 0.9599
-0.0581 -10.0625 -1.8031 0.9599
0.3032 -10.0592 -1.8033 0.9599
1.0243 -10.0136 -1.8037 0.9599
1.3833 -9.9714 -1.8038 0.9599
1.7405 -9.9163 -1.8040 0.9599
2.3466 -9.3633 -1.7296 0.9615
2.7973 -9.6746 -1.8046 0.9599
3.4848 -9.4508 -1.8049 0.9599
3.8222 -9.3205 -1.8051 0.9599
3.3571 -7.4161 -1.4587 0.9675
3.3374 -6.7196 -1.3444 0.9700
3.4408 -6.3453 -1.2934 0.9711
3.6349 -6.1643 -1.2823 0.9713
3.9267 -6.1439 -1.3065 0.9708
4.2538 -6.1568 -1.3409 0.9700
4.9300 -6.1416 -1.4112 0.9685
5.7018 -6.1424 -1.5017 0.9665
6.6043 -6.1621 -1.6185 0.9640
7.8476 -6.3327 -1.8069 0.9598
8.0703 -6.0472 -1.8070 0.9598
8.4841 -5.4531 -1.8072 0.9598
8.8541 -4.8307 -1.8073 0.9598
9.0221 -4.5099 -1.8074 0.9598
9.1785 -4.1833 -1.8074 0.9598
9.3230 -3.8512 -1.8075 0.9598
9.4554 -3.5141 -1.8075 0.9598
9.5756 -3.1725 -1.8075 0.9598
9.9314 -1.7694 -1.8076 0.9598
9.9885 -1.4118 -1.8076 0.9598
10.0639 -0.6915 -1.8076 0.9598
10.0821 -0.3298 -1.8075 0.9598
10.0794 0.3944 -1.8075 0.9598
10.0585 0.7559 -1.8074 0.9598
10.0247 1.1165 -1.8074 0.9598
9.4292 3.5734 -1.8068 0.9599
8.8186 4.8849 -1.8064 0.9599
8.6370 5.1980 -1.8063 0.9599
8.2405 5.8034 -1.8060 0.9599
8.0263 6.0950 -1.8059 0.9599
7.8017 6.3787 -1.8057 0.9599
7.3227 6.9208 -1.8054 0.9599
7.0690 7.1786 -1.8053 0.9599
6.7992 7.4195 -1.8033 0.9599
5.9820 7.0176 -1.6523 0.9632
5.7257 7.2271 -1.6521 0.9632
4.9141 7.7985 -1.6517 0.9632
4.6305 7.9691 -1.6515 0.9632
4.3411 8.1294 -1.6513 0.9632
4.0461 8.2791 -1.6512 0.9632
3.4409 8.5463 -1.6508 0.9633
2.8183 8.7693 -1.6505 0.9633
2.5014 8.8639 -1.6503 0.9633
2.1814 8.9470 -1.6501 0.9633
1.8586 9.0186 -1.6499 0.9633
1.5335 9.0785 -1.6498 0.9633
1.2065 9.1267 -1.6496 0.9633
0.8780 9.1631 -1.6494 0.9633
0.2183 9.2006 -1.6491 0.9633
-0.7718 9.1678 -1.6485 0.9633
-1.4273 9.0870 -1.6482 0.9633
-2.3952 8.8782 -1.6477 0.9633
-3.0254 8.6818 -1.6474 0.9633
-3.6398 8.4409 -1.6471 0.9633
-3.9401 8.3040 -1.6470 0.9633
-4.5250 7.9986 -1.6467 0.9633
-5.0864 7.6521 -1.6464 0.9633
-5.6215 7.2664 -1.6462 0.9634
-6.3688 6.6186 -1.6458 0.9634
-6.6018 6.3853 -1.6457 0.9634
-6.8264 6.1438 -1.6456 0.9634
-7.0421 5.8945 -1.6455 0.9634
-7.2488 5.6377 -1.6455 0.9634
-6.2711 4.5256 -1.3857 0.9691
-7.9797 4.5414 -1.6452 0.9634
-8.1371 4.2519 -1.6451 0.9634
-8.7968 4.2017 -1.7468 0.9612
-9.1778 3.9856 -1.7929 0.9602
-9.3360 3.6618 -1.7969 0.9601
-9.5743 2.9825 -1.7969 0.9601
-9.6751 2.6368 -1.7969 0.9601
-9.8392 1.9359 -1.7968 0.9601
-9.9024 1.5814 -1.7968 0.9601
-2.0428 0.2514 -0.3688 0.9917
-2.0522 0.1781 -0.3691 0.9917
-2.0516 -0.1913 -0.3692 0.9917
-2.0396 -0.2643 -0.3685 0.9917
-9.8937 -1.6451 -1.7971 0.9601
-9.6607 -2.6995 -1.7974 0.9601
-9.5580 -3.0447 -1.7974 0.9601
-9.4430 -3.3860 -1.7975 0.9601
-9.0258 -4.3823 -1.7978 0.9600
-8.6893 -5.0192 -1.7981 0.9600
-8.5041 -5.3283 -1.7982 0.9600
-8.1011 -5.9256 -1.7985 0.9600
-7.8838 -6.2130 -1.7986 0.9600
-7.6563 -6.4926 -1.7988 0.9600
-7.4190 -6.7638 -1.7989 0.9600
-6.9158 -7.2799 -1.7992 0.9600
-6.6506 -7.5241 -1.7994 0.9600
-6.3768 -7.7587 -1.7995 0.9600
-6.0948 -7.9834 -1.7997 0.9600
-5.8048 -8.1978 -1.7999 0.9600
-5.5073 -8.4017 -1.8001 0.9600
-4.8913 -8.7769 -1.8004 0.9600
-4.5736 -8.9477 -1.8006 0.9600
-4.2499 -9.1071 -1.8008 0.9600
-3.9206 -9.2547 -1.8010 0.9600
-3.5863 -9.3905 -1.8012 0.9600
-2.9039 -9.6256 -1.8015 0.9600
-2.2063 -9.8112 -1.8019 0.9600
-1.8529 -9.8852 -1.8021 0.9600
-1.1391 -9.9948 -1.8025 0.9599
-0.7166 -9.2187 -1.8027 0.9630
-0.0534 -9.2482 -1.8030 0.9630
0.2787 -9.2450 -1.8032 0.9630
0.6104 -9.2300 -1.8034 0.9630
0.9414 -9.2030 -1.8035 0.9630
1.2713 -9.1641 -1.8037 0.9630
1.5996 -9.1134 -1.8039 0.9630
1.9259 -9.0510 -1.8040 0.9630
2.2497 -8.9768 -1.8042 0.9630
2.5707 -8.8911 -1.8044 0.9630
2.8885 -8.7938 -1.8045 0.9630
3.5126 -8.5654 -1.8048 0.9630
3.3440 -6.7328 -1.4656 0.9698
3.6203 -6.1396 -1.3895 0.9714
4.5724 -6.1349 -1.4917 0.9693
6.3028 -6.7899 -1.8061 0.9629
6.2296 -6.2456 -1.7198 0.9647
7.2112 -5.8192 -1.8065 0.9629
7.4159 -5.5569 -1.8066 0.9629
8.1361 -4.4389 -1.8069 0.9629
8.2904 -4.1442 -1.8069 0.9629
8.5668 -3.5388 -1.8070 0.9629
8.6885 -3.2291 -1.8071 0.9629
9.1258 -1.6259 -1.8072 0.9629
9.2189 -0.9670 -1.8071 0.9629
9.2644 -0.3030 -1.8071 0.9629
9.2691 0.0297 -1.8071 0.9629
9.2427 0.6946 -1.8070 0.9629
8.9687 2.3334 -1.8067 0.9629
8.8788 2.6538 -1.8066 0.9629
8.6647 3.2836 -1.8065 0.9629
8.2601 4.1954 -1.8062 0.9629
7.9368 4.7766 -1.8059 0.9630
7.7597 5.0581 -1.8058 0.9630
7.5726 5.3330 -1.8057 0.9630
7.1695 5.8617 -1.8054 0.9630
6.7294 6.3600 -1.8052 0.9630
6.4962 6.5970 -1.8050 0.9630
6.2450 6.8147 -1.8020 0.9630
5.6172 6.5897 -1.6881 0.9653
5.2619 6.6418 -1.6520 0.9661
5.0196 6.8258 -1.6518 0.9661
4.5162 7.1670 -1.6515 0.9661
4.2556 7.3239 -1.6514 0.9661
3.7185 7.6089 -1.6511 0.9661
3.4426 7.7367 -1.6509 0.9661
3.1624 7.8546 -1.6507 0.9661
2.8781 7.9622 -1.6506 0.9661
2.2990 8.1466 -1.6503 0.9661
-0.4065 8.4476 -1.6488 0.9661
-0.7094 8.4267 -1.6486 0.9661
-1.9075 8.2354 -1.6480 0.9661
-2.2017 8.1609 -1.6479 0.9661
-2.4930 8.0759 -1.6477 0.9661
-3.3458 7.7591 -1.6473 0.9662
-3.6219 7.6334 -1.6472 0.9662
-3.8933 7.4979 -1.6471 0.9662
-4.6757 7.0343 -1.6467 0.9662
-4.9249 6.8614 -1.6466 0.9662
-5.8547 6.0844 -1.6462 0.9662
-6.0690 5.8699 -1.6461 0.9662
-6.2754 5.6480 -1.6460 0.9662
-6.4738 5.4188 -1.6459 0.9662
-6.6638 5.1827 -1.6458 0.9662
-6.2661 4.5220 -1.5065 0.9690
-8.0352 4.1985 -1.7675 0.9637
-8.3023 3.9654 -1.7937 0.9632
-8.4566 3.6724 -1.7974 0.9631
-8.5828 3.3664 -1.7974 0.9631
-8.6979 3.0561 -1.7973 0.9631
-1.7744 0.5527 -0.3623 0.9925
-1.7138 0.3372 -0.3405 0.9929
-1.6984 0.2712 -0.3353 0.9930
-1.7084 0.0866 -0.3335 0.9931
-1.7072 0.0252 -0.3329 0.9931
-1.7076 -0.0361 -0.3330 0.9931
-1.7069 -0.1591 -0.3342 0.9930
-1.7031 -0.2207 -0.3348 0.9930
-1.6971 -0.2822 -0.3354 0.9930
-1.7178 -0.3494 -0.3418 0.9929
-1.7396 -0.4194 -0.3489 0.9927
-1.7595 -0.4916 -0.3562 0.9926
-8.6810 -3.1127 -1.7979 0.9631
-8.4361 -3.7279 -1.7981 0.9631
-8.1479 -4.3241 -1.7983 0.9631
-7.9879 -4.6141 -1.7984 0.9631
-7.8176 -4.8981 -1.7985 0.9631
-7.4471 -5.4471 -1.7988 0.9631
-7.2473 -5.7114 -1.7989 0.9631
-7.0381 -5.9683 -1.7990 0.9631
-5.8617 -7.1319 -1.7998 0.9631
-5.6024 -7.3384 -1.7999 0.9631
-4.7823 -7.9003 -1.8004 0.9631
-4.2039 -8.2245 -1.8007 0.9631
-2.9847 -8.7449 -1.8014 0.9630
-2.6691 -8.8472 -1.8016 0.9630
-1.0470 -9.1862 -1.8025 0.9630
-0.0494 -8.5520 -1.8030 0.9656
0.2577 -8.5490 -1.8031 0.9656
0.8705 -8.5100 -1.8034 0.9656
1.1755 -8.4740 -1.8036 0.9656
2.0803 -8.3006 -1.8041 0.9656
2.3771 -8.2213 -1.8042 0.9656
3.5304 -7.7989 -1.8048 0.9656
3.8083 -7.6677 -1.8049 0.9656
3.4507 -6.3635 -1.5261 0.9708
3.9282 -6.1462 -1.5378 0.9706
5.1180 -6.8668 -1.8055 0.9656
5.5981 -6.4827 -1.8057 0.9656
5.8275 -6.2779 -1.8058 0.9656
6.8565 -5.1377 -1.8063 0.9656
7.2080 -4.6329 -1.8064 0.9656
7.5223 -4.1041 -1.8065 0.9656
7.6650 -3.8315 -1.8066 0.9656
7.7978 -3.5540 -1.8066 0.9656
8.1351 -2.6953 -1.8067 0.9656
8.2267 -2.4015 -1.8067 0.9656
8.4374 -1.5032 -1.8068 0.9656
8.4859 -1.1994 -1.8068 0.9656
8.5234 -0.8940 -1.8068 0.9656
8.5500 -0.5875 -1.8068 0.9656
8.5699 0.0275 -1.8067 0.9656
8.5167 0.9486 -1.8066 0.9656
8.4262 1.5571 -1.8065 0.9656
8.3646 1.8585 -1.8064 0.9656
8.2922 2.1574 -1.8064 0.9656
8.1154 2.7466 -1.8062 0.9656
8.0112 3.0360 -1.8061 0.9656
7.7720 3.6026 -1.8060 0.9656
7.6373 3.8790 -1.8059 0.9656
7.4927 4.1505 -1.8058 0.9656
7.1747 4.6768 -1.8055 0.9656
7.0018 4.9310 -1.8054 0.9656
6.8198 5.1788 -1.8053 0.9656
6.6291 5.4199 -1.8052 0.9656
6.4298 5.6540 -1.8051 0.9656
6.2222 5.8807 -1.8049 0.9656
5.7750 6.3019 -1.8020 0.9657
4.8654 6.1414 -1.6518 0.9685
4.6415 6.3115 -1.6517 0.9685
4.4116 6.4735 -1.6515 0.9685
3.6891 6.9085 -1.6511 0.9685
3.4385 7.0359 -1.6510 0.9685
2.9243 7.2632 -1.6507 0.9685
1.8540 7.6042 -1.6501 0.9685
1.0255 7.7573 -1.6496 0.9685
0.7463 7.7884 -1.6495 0.9685
0.4662 7.8095 -1.6493 0.9685
0.1856 7.8205 -1.6492 0.9685
-0.9353 7.7638 -1.6486 0.9685
-1.4897 7.6754 -1.6483 0.9685
-2.3056 7.4688 -1.6479 0.9686
-2.8350 7.2830 -1.6476 0.9686
-3.6008 6.9345 -1.6473 0.9686
-4.0884 6.6573 -1.6470 0.9686
-4.5549 6.3460 -1.6468 0.9686
-4.7795 6.1780 -1.6467 0.9686
-5.2098 5.8185 -1.6465 0.9686
-6.1635 4.7936 -1.6461 0.9686
-7.3716 4.1953 -1.7881 0.9659
-7.5443 3.9420 -1.7945 0.9658
-7.6950 3.6754 -1.7978 0.9657
-7.8218 3.3967 -1.7978 0.9657
-1.6255 0.5711 -0.3632 0.9930
-1.5836 0.3711 -0.3429 0.9934
-1.5663 0.3082 -0.3365 0.9935
-1.5696 0.1932 -0.3334 0.9936
-1.5728 0.1365 -0.3328 0.9936
-1.5731 0.0232 -0.3317 0.9936
-1.5723 -0.1466 -0.3329 0.9936
-1.5631 -0.2599 -0.3341 0.9935
-1.5695 -0.3193 -0.3377 0.9935
-1.6018 -0.4476 -0.3506 0.9932
-1.6154 -0.5146 -0.3574 0.9931
-7.9210 -3.1655 -1.7983 0.9657
-7.8026 -3.4480 -1.7984 0.9657
-7.6742 -3.7261 -1.7985 0.9657
-7.5359 -3.9993 -1.7986 0.9657
-7.0636 -4.7872 -1.7989 0.9657
-6.8876 -5.0380 -1.7990 0.9657
-6.5093 -5.5199 -1.7993 0.9657
-6.3074 -5.7504 -1.7994 0.9657
-6.0974 -5.9735 -1.7995 0.9657
-5.8795 -6.1890 -1.7997 0.9657
-5.4211 -6.5959 -1.7999 0.9657
-5.1813 -6.7868 -1.8001 0.9657
-4.6818 -7.1422 -1.8004 0.9657
-4.1580 -7.4610 -1.8007 0.9657
-2.7602 -8.0871 -1.8015 0.9657
-2.4683 -8.1817 -1.8016 0.9657
-2.1732 -8.2658 -1.8018 0.9657
-1.8753 -8.3392 -1.8020 0.9657
-0.9682 -8.4948 -1.8025 0.9657
-0.6160 -7.9245 -1.8026 0.9679
0.2395 -7.9468 -1.8031 0.9679
0.8092 -7.9104 -1.8033 0.9679
1.3749 -7.8333 -1.8036 0.9679
1.6553 -7.7795 -1.8038 0.9679
2.2095 -7.6419 -1.8041 0.9679
3.0189 -7.3617 -1.8045 0.9679
4.5246 -6.5488 -1.8052 0.9679
5.2033 -6.0255 -1.8055 0.9679
5.6228 -5.6372 -1.8057 0.9679
6.0133 -5.2197 -1.8058 0.9679
6.1970 -5.0008 -1.8059 0.9679
6.3728 -4.7753 -1.8060 0.9679
6.5403 -4.5436 -1.8061 0.9679
6.6994 -4.3060 -1.8061 0.9679
6.8499 -4.0629 -1.8062 0.9679
6.9915 -3.8145 -1.8062 0.9679
7.2475 -3.3032 -1.8063 0.9679
7.6462 -2.2321 -1.8064 0.9679
7.7867 -1.6778 -1.8065 0.9679
7.8870 -1.1147 -1.8065 0.9679
7.9219 -0.8309 -1.8064 0.9679
7.9610 -0.2604 -1.8064 0.9679
7.9651 0.0255 -1.8064 0.9679
7.9425 0.5969 -1.8063 0.9679
7.8788 1.1652 -1.8062 0.9679
7.8317 1.4472 -1.8062 0.9679
7.7744 1.7273 -1.8061 0.9679
7.7072 2.0052 -1.8061 0.9679
7.4461 2.8218 -1.8059 0.9679
7.3396 3.0871 -1.8058 0.9679
7.2237 3.3485 -1.8057 0.9679
6.9642 3.8577 -1.8055 0.9679
6.8208 4.1050 -1.8054 0.9679
6.6687 4.3470 -1.8053 0.9679
6.5080 4.5833 -1.8052 0.9679
6.3389 4.8136 -1.8051 0.9679
5.9764 5.2553 -1.8049 0.9679
5.7836 5.4661 -1.8047 0.9679
5.5832 5.6698 -1.8046 0.9679
5.1429 6.0333 -1.7979 0.9680
4.5225 5.7085 -1.6517 0.9706
3.6578 6.2951 -1.6511 0.9706
3.1962 6.5402 -1.6509 0.9706
2.9592 6.6502 -1.6507 0.9706
2.4740 6.8442 -1.6505 0.9706
2.2265 6.9280 -1.6503 0.9706
1.9762 7.0029 -1.6502 0.9706
1.7234 7.0687 -1.6501 0.9706
1.4685 7.1255 -1.6499 0.9706
1.2116 7.1730 -1.6498 0.9706
0.9533 7.2112 -1.6496 0.9706
0.6938 7.2402 -1.6495 0.9706
0.4334 7.2598 -1.6494 0.9706
-0.0886 7.2710 -1.6491 0.9706
-0.3495 7.2625 -1.6489 0.9706
-0.6099 7.2447 -1.6488 0.9706
-1.3849 7.1354 -1.6484 0.9706
-2.6357 6.7709 -1.6478 0.9706
-3.8010 6.1894 -1.6472 0.9706
-4.0205 6.0486 -1.6471 0.9707
-4.2348 5.9000 -1.6470 0.9707
-4.8437 5.4096 -1.6467 0.9707
-5.0345 5.2320 -1.6467 0.9707
-5.5670 4.6598 -1.6464 0.9707
-5.7305 4.4568 -1.6464 0.9707
-5.8865 4.2481 -1.6463 0.9707
-6.2975 4.2093 -1.7178 0.9694
-6.7205 4.1510 -1.7914 0.9681
-6.8802 3.9156 -1.7953 0.9681
-7.0274 3.6719 -1.7982 0.9680
-7.2724 3.1581 -1.7981 0.9680
-1.4942 0.5860 -0.3640 0.9934
-1.4872 0.5225 -0.3575 0.9936
-1.4783 0.4605 -0.3511 0.9937
-1.4552 0.3410 -0.3390 0.9939
-1.4491 0.2314 -0.3328 0.9940
-1.4542 0.1790 -0.3323 0.9940
-1.4573 0.1264 -0.3317 0.9940
-1.4585 0.0739 -0.3312 0.9940
-1.4584 -0.0833 -0.3313 0.9940
-1.4534 -0.1883 -0.3324 0.9940
-1.4480 -0.2408 -0.3329 0.9940
-1.4575 -0.3514 -0.3400 0.9939
-1.4695 -0.4106 -0.3460 0.9938
-1.4886 -0.5338 -0.3586 0.9935
-1.4952 -0.5975 -0.3652 0.9934
-7.2544 -3.2057 -1.7987 0.9680
-7.1350 -3.4642 -1.7988 0.9680
-7.0064 -3.7183 -1.7988 0.9680
-6.7223 -4.2119 -1.7990 0.9680
-6.5671 -4.4507 -1.7991 0.9680
-6.4035 -4.6838 -1.7993 0.9680
-6.0517 -5.1319 -1.7995 0.9680
-5.8640 -5.3461 -1.7996 0.9680
-5.6687 -5.5536 -1.7997 0.9680
-5.4661 -5.7538 -1.7998 0.9680
-4.3525 -6.6399 -1.8005 0.9680
-4.1116 -6.7923 -1.8007 0.9680
-3.6143 -7.0710 -1.8009 0.9680
-3.3584 -7.1967 -1.8011 0.9680
-2.0202 -7.6839 -1.8018 0.9679
-1.7433 -7.7521 -1.8020 0.9679
1.8055 -7.2044 -1.8038 0.9699
2.0631 -7.1355 -1.8039 0.9699
2.8188 -6.8738 -1.8043 0.9699
3.3052 -6.6547 -1.8045 0.9699
3.5421 -6.5322 -1.8047 0.9699
3.7746 -6.4012 -1.8048 0.9699
4.2246 -6.1146 -1.8050 0.9699
4.4416 -5.9593 -1.8051 0.9699
4.6529 -5.7964 -1.8052 0.9699
5.2498 -5.2633 -1.8054 0.9699
5.4356 -5.0717 -1.8055 0.9699
6.1065 -4.2422 -1.8058 0.9699
6.3955 -3.7934 -1.8059 0.9699
6.5277 -3.5615 -1.8060 0.9699
6.6515 -3.3249 -1.8060 0.9699
6.8732 -2.8392 -1.8061 0.9699
6.9708 -2.5907 -1.8061 0.9699
7.0594 -2.3389 -1.8061 0.9699
7.2092 -1.8264 -1.8062 0.9699
7.2701 -1.5664 -1.8062 0.9699
7.3217 -1.3045 -1.8062 0.9699
7.3963 -0.7758 -1.8062 0.9699
7.4194 -0.5098 -1.8061 0.9699
7.4328 -0.2431 -1.8061 0.9699
7.4156 0.5573 -1.8061 0.9699
7.3906 0.8231 -1.8060 0.9699
7.2587 1.6128 -1.8059 0.9699
7.1238 2.1292 -1.8058 0.9699
7.0426 2.3835 -1.8057 0.9699
6.9522 2.6346 -1.8056 0.9699
6.8529 2.8824 -1.8055 0.9699
6.2265 4.0587 -1.8051 0.9699
5.5803 4.9070 -1.8047 0.9699
5.4002 5.1038 -1.8046 0.9699
5.0180 5.4758 -1.8038 0.9699
4.0285 5.4780 -1.6514 0.9724
3.8290 5.6186 -1.6513 0.9724
3.6245 5.7520 -1.6512 0.9724
3.4155 5.8780 -1.6511 0.9724
3.2021 5.9964 -1.6509 0.9724
2.7632 6.2097 -1.6507 0.9724
2.3102 6.3910 -1.6504 0.9724
2.0791 6.4693 -1.6503 0.9724
1.6093 6.6007 -1.6500 0.9724
0.8902 6.7339 -1.6496 0.9724
-0.5696 6.7654 -1.6489 0.9724
-0.8120 6.7400 -1.6487 0.9724
-1.5315 6.6122 -1.6484 0.9724
-2.6866 6.2303 -1.6478 0.9725
-2.9083 6.1295 -1.6477 0.9725
-3.7547 5.6487 -1.6473 0.9725
-4.3396 5.2115 -1.6470 0.9725
-4.5236 5.0521 -1.6470 0.9725
-4.7018 4.8863 -1.6469 0.9725
-4.8740 4.7141 -1.6468 0.9725
-5.1992 4.3519 -1.6467 0.9725
-5.8264 4.2047 -1.7450 0.9709
-6.2922 3.8865 -1.7961 0.9700
-6.5632 3.4293 -1.7984 0.9700
-6.6819 3.1915 -1.7984 0.9700
-1.3767 0.5979 -0.3645 0.9938
-1.3699 0.4813 -0.3526 0.9940
-1.3456 0.3153 -0.3356 0.9943
-1.3424 0.2641 -0.3323 0.9944
-1.3570 0.1178 -0.3308 0.9944
-1.3583 0.0689 -0.3303 0.9944
-1.3577 0.0200 -0.3298 0.9944
-1.3582 -0.0776 -0.3304 0.9944
-1.3566 -0.1265 -0.3309 0.9944
-1.3480 -0.2241 -0.3319 0.9944
-1.3410 -0.2728 -0.3323 0.9944
-1.3475 -0.3249 -0.3366 0.9943
-1.3571 -0.3792 -0.3422 0.9942
-1.3709 -0.4916 -0.3537 0.9940
-1.3749 -0.5495 -0.3596 0.9939
-1.3769 -0.6085 -0.3656 0.9938
-6.6635 -3.2353 -1.7990 0.9700
-6.4148 -3.7054 -1.7992 0.9700
-6.2780 -3.9335 -1.7992 0.9700
-5.9803 -4.3742 -1.7994 0.9700
-5.8197 -4.5864 -1.7996 0.9700
-5.6517 -4.7926 -1.7997 0.9700
-5.2939 -5.1864 -1.7999 0.9700
-5.1047 -5.3734 -1.8000 0.9700
-4.9088 -5.5536 -1.8001 0.9700
-4.7066 -5.7266 -1.8002 0.9699
-4.4983 -5.8922 -1.8004 0.9699
-4.2842 -6.0504 -1.8005 0.9699
-3.8396 -6.3430 -1.8008 0.9699
-3.6098 -6.4773 -1.8009 0.9699
-3.1362 -6.7206 -1.8012 0.9699
-2.6464 -6.9293 -1.8014 0.9699
-2.1427 -7.1025 -1.8017 0.9699
-1.6279 -7.2390 -1.8020 0.9699
-1.1045 -7.3383 -1.8023 0.9699
-0.5393 -6.9371 -1.8025 0.9717
-0.0402 -6.9589 -1.8028 0.9717
0.2097 -6.9564 -1.8029 0.9717
0.9565 -6.8950 -1.8033 0.9716
1.2035 -6.8567 -1.8035 0.9716
1.4489 -6.8096 -1.8036 0.9716
1.9340 -6.6890 -1.8038 0.9716
2.1730 -6.6157 -1.8039 0.9716
2.6424 -6.4435 -1.8042 0.9716
3.7516 -5.8699 -1.8047 0.9716
4.1635 -5.5862 -1.8049 0.9716
4.3616 -5.4334 -1.8050 0.9716
4.5540 -5.2736 -1.8051 0.9716
4.9211 -4.9337 -1.8052 0.9716
5.2628 -4.5683 -1.8054 0.9716
5.4236 -4.3766 -1.8055 0.9716
5.7240 -3.9765 -1.8056 0.9716
5.8632 -3.7686 -1.8056 0.9716
5.9949 -3.5558 -1.8057 0.9716
6.3428 -2.8909 -1.8058 0.9716
6.5341 -2.4284 -1.8059 0.9716
6.8146 -1.4683 -1.8059 0.9716
6.9024 -0.9756 -1.8059 0.9716
6.9330 -0.7272 -1.8059 0.9716
6.9654 0.2725 -1.8058 0.9716
6.8541 1.2665 -1.8057 0.9716
6.8040 1.5117 -1.8056 0.9716
6.7452 1.7549 -1.8056 0.9716
6.6776 1.9959 -1.8055 0.9716
6.4236 2.7019 -1.8053 0.9716
6.3223 2.9306 -1.8053 0.9716
6.2127 3.1555 -1.8052 0.9716
6.0952 3.3763 -1.8051 0.9716
5.6960 4.0114 -1.8048 0.9716
5.5481 4.2131 -1.8047 0.9716
5.2309 4.5998 -1.8045 0.9716
4.8868 4.9626 -1.8043 0.9716
4.7053 5.1345 -1.8042 0.9716
4.5105 5.2914 -1.8012 0.9717
4.3078 5.4375 -1.7971 0.9717
3.8555 5.2428 -1.6859 0.9735
3.0017 5.6212 -1.6509 0.9740
2.5903 5.8213 -1.6506 0.9740
2.3795 5.9101 -1.6505 0.9740
2.1657 5.9912 -1.6504 0.9740
1.9491 6.0647 -1.6503 0.9740
1.7300 6.1303 -1.6501 0.9740
1.2855 6.2377 -1.6499 0.9740
1.0607 6.2793 -1.6498 0.9740
0.8346 6.3129 -1.6497 0.9740
0.6074 6.3383 -1.6495 0.9740
0.3794 6.3556 -1.6494 0.9740
0.1510 6.3646 -1.6493 0.9740
-0.3060 6.3581 -1.6491 0.9740
-1.4358 6.1991 -1.6485 0.9740
-1.6573 6.1432 -1.6484 0.9741
-2.5188 5.8412 -1.6479 0.9741
-2.7267 5.7467 -1.6478 0.9741
-3.1316 5.5356 -1.6476 0.9741
-3.3281 5.4193 -1.6475 0.9741
-3.5203 5.2961 -1.6475 0.9741
-3.7080 5.1660 -1.6474 0.9741
-3.8908 5.0293 -1.6473 0.9741
-4.2412 4.7368 -1.6471 0.9741
-4.4083 4.5813 -1.6471 0.9741
-4.5697 4.4199 -1.6470 0.9741
-5.0340 4.2136 -1.7007 0.9732
-5.4003 4.2000 -1.7723 0.9721
-5.6145 4.0518 -1.7937 0.9718
-5.9074 3.6488 -1.7987 0.9717
-1.2893 0.5599 -0.3641 0.9942
-1.2890 0.5056 -0.3587 0.9943
-1.2846 0.4002 -0.3485 0.9945
-1.2805 0.3490 -0.3438 0.9945
-1.2765 0.2991 -0.3397 0.9946
-1.2909 0.0190 -0.3344 0.9947
-1.2910 -0.0273 -0.3345 0.9947
-1.2909 -0.0737 -0.3350 0.9947
-1.2837 -0.2135 -0.3371 0.9946
-1.2771 -0.3079 -0.3403 0.9946
-1.2813 -0.3580 -0.3446 0.9945
-1.2852 -0.4094 -0.3494 0.9944
-1.2878 -0.4618 -0.3544 0.9944
-1.2892 -0.5152 -0.3597 0.9943
-1.2892 -0.5697 -0.3651 0.9942
-1.2879 -0.6253 -0.3709 0.9941
-5.4564 -4.3000 -1.7997 0.9717
-5.1344 -4.6809 -1.7999 0.9717
-4.7859 -5.0379 -1.8001 0.9717
-4.4126 -5.3689 -1.8004 0.9717
-4.2174 -5.5242 -1.8005 0.9717
-4.0166 -5.6724 -1.8006 0.9717
-3.8107 -5.8133 -1.8007 0.9717
-3.5998 -5.9468 -1.8008 0.9717
-3.3842 -6.0726 -1.8010 0.9717
-2.7124 -6.4026 -1.8014 0.9717
-2.0088 -6.6585 -1.8017 0.9717
-1.5261 -6.7865 -1.8020 0.9717
-1.2816 -6.8374 -1.8021 0.9717
-1.0354 -6.8795 -1.8023 0.9717
-0.2727 -6.5402 -1.8027 0.9732
0.1972 -6.5438 -1.8029 0.9732
0.8998 -6.4860 -1.8033 0.9732
1.3630 -6.4056 -1.8035 0.9732
1.5921 -6.3529 -1.8036 0.9732
2.0441 -6.2231 -1.8038 0.9732
2.4856 -6.0612 -1.8041 0.9732
2.7017 -5.9684 -1.8042 0.9732
2.9144 -5.8679 -1.8043 0.9732
3.5289 -5.5215 -1.8046 0.9732
3.7250 -5.3915 -1.8047 0.9732
4.1026 -5.1108 -1.8048 0.9732
4.2836 -4.9605 -1.8049 0.9732
4.6289 -4.6408 -1.8051 0.9732
4.9503 -4.2970 -1.8052 0.9732
5.2462 -3.9311 -1.8053 0.9732
5.5150 -3.5447 -1.8054 0.9732
5.7554 -3.1401 -1.8055 0.9732
5.8645 -2.9315 -1.8056 0.9732
5.9661 -2.7192 -1.8056 0.9732
6.0600 -2.5033 -1.8056 0.9732
6.2241 -2.0621 -1.8057 0.9732
6.2942 -1.8374 -1.8057 0.9732
6.3561 -1.6103 -1.8057 0.9732
6.4099 -1.3811 -1.8057 0.9732
6.4553 -1.1501 -1.8057 0.9732
6.5212 -0.6840 -1.8057 0.9732
6.5533 -0.2144 -1.8057 0.9732
6.5162 0.7257 -1.8056 0.9732
6.4858 0.9591 -1.8055 0.9732
6.4470 1.1913 -1.8055 0.9732
6.1298 2.3230 -1.8052 0.9732
6.0422 2.5414 -1.8051 0.9732
5.9469 2.7566 -1.8051 0.9732
5.8439 2.9682 -1.8050 0.9732
5.7333 3.1759 -1.8049 0.9732
5.4902 3.5787 -1.8048 0.9732
5.3579 3.7733 -1.8047 0.9732
4.9204 4.3268 -1.8044 0.9732
4.4260 4.8298 -1.8041 0.9732
4.2475 4.9829 -1.8031 0.9732
4.0575 5.1215 -1.7994 0.9733
3.8307 5.2090 -1.7806 0.9735
3.4138 5.0094 -1.6694 0.9752
2.8237 5.2878 -1.6508 0.9754
2.6318 5.3854 -1.6507 0.9754
2.4367 5.4760 -1.6506 0.9754
1.8335 5.7051 -1.6502 0.9754
1.4193 5.8211 -1.6500 0.9754
1.2093 5.8679 -1.6499 0.9754
0.7851 5.9387 -1.6497 0.9755
0.3569 5.9789 -1.6494 0.9755
-0.2878 5.9814 -1.6491 0.9755
-0.7161 5.9445 -1.6489 0.9755
-1.1406 5.8771 -1.6487 0.9755
-1.5592 5.7793 -1.6484 0.9755
-2.1710 5.5772 -1.6481 0.9755
-2.3697 5.4953 -1.6480 0.9755
-2.7575 5.3106 -1.6479 0.9755
-3.1311 5.0985 -1.6477 0.9755
-3.4885 4.8602 -1.6475 0.9755
-3.6605 4.7316 -1.6474 0.9755
-3.8278 4.5970 -1.6474 0.9755
-4.1474 4.3101 -1.6472 0.9755
-4.9896 4.1765 -1.7919 0.9734
-5.1447 4.0012 -1.7948 0.9733
-5.2938 3.8203 -1.7978 0.9733
-5.4311 3.6302 -1.7990 0.9733
-5.5578 3.4329 -1.7990 0.9733
-1.2201 0.6375 -0.3791 0.9943
-1.2255 0.5322 -0.3679 0.9945
-1.2261 0.4809 -0.3627 0.9946
-1.2254 0.4306 -0.3577 0.9946
-1.2221 0.3331 -0.3488 0.9948
-1.2268 0.2414 -0.3443 0.9948
-1.2312 0.1966 -0.3434 0.9948
-1.2346 0.1519 -0.3425 0.9949
-1.2368 0.1073 -0.3419 0.9949
-1.2379 0.0628 -0.3413 0.9949
-1.2377 0.0183 -0.3409 0.9949
-1.2378 -0.0262 -0.3409 0.9949
-1.2377 -0.0707 -0.3414 0.9949
-1.2365 -0.1153 -0.3420 0.9949
-1.2261 -0.4900 -0.3636 0.9945
-1.2193 -0.6471 -0.3801 0.9943
-5.5376 -3.4696 -1.7996 0.9733
-5.4098 -3.6663 -1.7997 0.9733
-4.9851 -4.2273 -1.8000 0.9732
-4.8304 -4.4038 -1.8001 0.9732
-4.5025 -4.7395 -1.8003 0.9732
-4.1513 -5.0509 -1.8005 0.9732
-3.9676 -5.1970 -1.8006 0.9732
-3.7787 -5.3364 -1.8007 0.9732
-3.1837 -5.7128 -1.8010 0.9732
-2.9768 -5.8238 -1.8012 0.9732
-2.7660 -5.9273 -1.8013 0.9732
-2.5516 -6.0232 -1.8014 0.9732
-2.3339 -6.1113 -1.8015 0.9732
-1.6638 -6.3281 -1.8019 0.9732
-0.9740 -6.4716 -1.8023 0.9732
-0.7412 -6.5029 -1.8024 0.9732
-0.2573 -6.1712 -1.8026 0.9746
0.6287 -6.1461 -1.8031 0.9746
0.8490 -6.1199 -1.8032 0.9746
1.0682 -6.0859 -1.8033 0.9746
1.5023 -5.9943 -1.8035 0.9746
2.5492 -5.6313 -1.8041 0.9746
2.7498 -5.5365 -1.8042 0.9746
3.1403 -5.3255 -1.8043 0.9746
3.3296 -5.2096 -1.8044 0.9746
3.5146 -5.0870 -1.8045 0.9746
3.6951 -4.9578 -1.8046 0.9746
3.8709 -4.8221 -1.8047 0.9746
4.0416 -4.6803 -1.8048 0.9746
4.2072 -4.5324 -1.8048 0.9746
4.6706 -4.0543 -1.8050 0.9746
4.8133 -3.8841 -1.8051 0.9746
4.9498 -3.7090 -1.8051 0.9746
5.0799 -3.5290 -1.8052 0.9746
5.2034 -3.3445 -1.8052 0.9746
5.3202 -3.1556 -1.8053 0.9746
5.4302 -2.9627 -1.8053 0.9746
5.8724 -1.9456 -1.8055 0.9746
5.9385 -1.7336 -1.8055 0.9746
6.1718 -0.4241 -1.8055 0.9746
6.1830 -0.2022 -1.8055 0.9746
6.1687 0.4636 -1.8054 0.9746
6.1480 0.6847 -1.8054 0.9746
5.4094 2.9965 -1.8048 0.9746
5.2981 3.1886 -1.8047 0.9746
4.7864 3.9133 -1.8044 0.9746
4.1761 4.5571 -1.8040 0.9746
4.0096 4.7038 -1.8039 0.9746
3.8334 4.8387 -1.8016 0.9746
2.6643 4.9893 -1.6507 0.9767
1.7300 5.3832 -1.6502 0.9767
1.5356 5.4414 -1.6501 0.9767
1.3392 5.4927 -1.6500 0.9767
0.5391 5.6263 -1.6496 0.9767
0.3368 5.6417 -1.6495 0.9767
0.1341 5.6498 -1.6493 0.9767
-0.0688 5.6506 -1.6492 0.9767
-0.6758 5.6094 -1.6489 0.9767
-1.0763 5.5457 -1.6487 0.9767
-1.4713 5.4536 -1.6485 0.9767
-1.6660 5.3969 -1.6484 0.9767
-1.8585 5.3333 -1.6483 0.9767
-2.0487 5.2629 -1.6482 0.9767
-2.6021 5.0113 -1.6480 0.9767
-2.7802 4.9144 -1.6479 0.9767
-2.9547 4.8112 -1.6478 0.9767
-3.1254 4.7018 -1.6477 0.9767
-3.2919 4.5864 -1.6476 0.9768
-3.6122 4.3380 -1.6475 0.9768
-3.7818 4.2237 -1.6546 0.9767
-4.3450 4.2025 -1.7642 0.9751
-4.7187 3.9498 -1.7959 0.9747
-4.9991 3.6077 -1.7992 0.9746
-5.1253 3.4258 -1.7992 0.9746
-1.1548 0.6572 -0.3878 0.9945
-1.1604 0.6063 -0.3821 0.9946
-1.1672 0.5069 -0.3714 0.9947
-1.1697 0.3644 -0.3576 0.9949
-1.1696 0.3187 -0.3538 0.9950
-1.1720 0.2746 -0.3513 0.9950
-1.1775 0.2317 -0.3502 0.9950
-1.1819 0.1887 -0.3493 0.9950
-1.1874 0.1030 -0.3478 0.9950
-1.1883 0.0175 -0.3468 0.9951
-1.1883 -0.0679 -0.3474 0.9951
-1.1847 -0.1535 -0.3486 0.9950
-1.1812 -0.1964 -0.3495 0.9950
-1.1709 -0.2823 -0.3515 0.9950
-1.1697 -0.3268 -0.3544 0.9950
-1.1688 -0.4191 -0.3624 0.9948
-5.3396 -3.0843 -1.7997 0.9746
-4.5582 -4.1556 -1.8002 0.9746
-4.2487 -4.4724 -1.8004 0.9746
-4.0857 -4.6223 -1.8005 0.9746
-3.5657 -5.0356 -1.8008 0.9746
-3.3829 -5.1607 -1.8009 0.9746
-3.1957 -5.2791 -1.8010 0.9746
-3.0042 -5.3908 -1.8011 0.9746
-2.6101 -5.5931 -1.8013 0.9746
-2.4078 -5.6836 -1.8014 0.9746
-2.2023 -5.7667 -1.8016 0.9746
-1.1376 -6.0692 -1.8022 0.9746
-0.9191 -6.1066 -1.8023 0.9746
-0.6993 -6.1360 -1.8024 0.9746
-0.4529 -5.8259 -1.8025 0.9758
0.1761 -5.8420 -1.8028 0.9758
0.3857 -5.8322 -1.8029 0.9758
0.5948 -5.8150 -1.8030 0.9758
0.8032 -5.7902 -1.8031 0.9758
1.6241 -5.6169 -1.8036 0.9758
1.8247 -5.5553 -1.8037 0.9758
2.4118 -5.3278 -1.8040 0.9758
2.7881 -5.1416 -1.8041 0.9758
2.9710 -5.0384 -1.8042 0.9758
3.1501 -4.9288 -1.8043 0.9758
3.3251 -4.8127 -1.8044 0.9758
3.8237 -4.4279 -1.8046 0.9758
4.4187 -3.8356 -1.8049 0.9758
4.5537 -3.6746 -1.8049 0.9758
4.9228 -3.1641 -1.8051 0.9758
5.0333 -2.9854 -1.8051 0.9758
5.1373 -2.8029 -1.8052 0.9758
5.3254 -2.4271 -1.8052 0.9758
5.4091 -2.2345 -1.8052 0.9758
5.4859 -2.0389 -1.8053 0.9758
5.7214 -1.2328 -1.8053 0.9758
5.8208 -0.6105 -1.8053 0.9758
5.8525 0.0188 -1.8053 0.9758
5.8480 0.2288 -1.8053 0.9758
5.8360 0.4386 -1.8052 0.9758
5.7547 1.0634 -1.8051 0.9758
5.6066 1.6757 -1.8050 0.9758
5.4716 2.0736 -1.8049 0.9758
5.3934 2.2685 -1.8048 0.9758
5.1177 2.8349 -1.8046 0.9758
5.0125 3.0167 -1.8046 0.9758
4.9008 3.1945 -1.8045 0.9758
4.1035 4.1671 -1.8040 0.9758
3.9510 4.3115 -1.8039 0.9758
3.6311 4.5834 -1.8037 0.9758
3.4584 4.7028 -1.8006 0.9759
3.2818 4.8157 -1.7976 0.9759
3.0417 4.8271 -1.7599 0.9764
2.3495 4.8077 -1.6506 0.9778
1.9983 4.9633 -1.6504 0.9779
1.6369 5.0932 -1.6502 0.9779
1.4529 5.1484 -1.6501 0.9779
1.2671 5.1969 -1.6500 0.9779
1.0796 5.2387 -1.6499 0.9779
0.8908 5.2737 -1.6498 0.9779
0.7009 5.3020 -1.6497 0.9779
0.5101 5.3234 -1.6496 0.9779
0.3187 5.3380 -1.6495 0.9779
0.1268 5.3456 -1.6494 0.9779
-0.2570 5.3403 -1.6492 0.9779
-0.4485 5.3273 -1.6491 0.9779
-0.6394 5.3075 -1.6490 0.9779
-0.8295 5.2808 -1.6489 0.9779
-1.2061 5.2071 -1.6487 0.9779
-1.5763 5.1065 -1.6485 0.9779
-2.1158 4.9067 -1.6482 0.9779
-2.2905 4.8273 -1.6481 0.9779
-2.7958 4.5525 -1.6479 0.9779
-2.9572 4.4489 -1.6478 0.9779
-3.1149 4.3397 -1.6478 0.9779
-3.2720 4.2295 -1.6495 0.9779
-3.5110 4.2165 -1.6925 0.9773
-3.7670 4.2071 -1.7419 0.9766
-4.0287 4.1868 -1.7923 0.9760
-4.4735 3.7445 -1.7995 0.9759
-4.8497 3.2416 -1.7993 0.9759
-4.9628 3.0654 -1.7993 0.9759
-1.0997 0.6259 -0.3903 0.9947
-1.1104 0.5304 -0.3796 0.9949
-1.1206 0.3491 -0.3620 0.9951
-1.1209 0.3055 -0.3584 0.9951
-1.1424 0.0579 -0.3528 0.9952
-1.1423 0.0168 -0.3524 0.9952
-1.1411 -0.1064 -0.3535 0.9952
-1.1387 -0.1476 -0.3542 0.9952
-1.1307 -0.2300 -0.3559 0.9952
-1.1204 -0.3569 -0.3627 0.9951
-1.1187 -0.4011 -0.3666 0.9950
-1.1097 -0.5388 -0.3805 0.9948
-1.0985 -0.6345 -0.3913 0.9947
-4.7100 -3.4452 -1.8000 0.9759
-4.4511 -3.7746 -1.8002 0.9759
-4.1693 -4.0846 -1.8004 0.9759
-3.8659 -4.3737 -1.8006 0.9759
-3.7066 -4.5098 -1.8007 0.9759
-3.5425 -4.6402 -1.8008 0.9759
-2.8426 -5.1006 -1.8012 0.9759
-2.4696 -5.2921 -1.8014 0.9759
-2.2782 -5.3776 -1.8015 0.9758
-1.8867 -5.5279 -1.8017 0.9758
-1.4854 -5.6497 -1.8019 0.9758
-1.2817 -5.6997 -1.8020 0.9758
-1.0764 -5.7424 -1.8022 0.9758
-0.8696 -5.7777 -1.8023 0.9758
-0.0320 -5.5428 -1.8027 0.9770
0.1670 -5.5407 -1.8028 0.9770
0.5642 -5.5151 -1.8030 0.9770
0.7618 -5.4916 -1.8031 0.9769
0.9585 -5.4610 -1.8032 0.9769
1.5403 -5.3272 -1.8035 0.9769
1.7306 -5.2687 -1.8036 0.9769
1.9187 -5.2035 -1.8037 0.9769
2.1043 -5.1315 -1.8038 0.9769
2.9875 -4.6744 -1.8042 0.9769
3.4731 -4.3267 -1.8044 0.9769
3.7749 -4.0666 -1.8046 0.9769
3.9186 -3.9286 -1.8046 0.9769
4.1906 -3.6376 -1.8047 0.9769
4.5578 -3.1663 -1.8049 0.9769
4.7734 -2.8312 -1.8050 0.9769
4.9644 -2.4816 -1.8050 0.9769
5.2026 -1.9336 -1.8051 0.9769
5.2687 -1.7456 -1.8051 0.9769
5.4958 -0.7768 -1.8052 0.9769
5.5202 -0.5790 -1.8052 0.9769
5.5374 -0.3805 -1.8051 0.9769
5.5474 -0.1815 -1.8051 0.9769
5.5503 0.0178 -1.8051 0.9769
5.5346 0.4159 -1.8051 0.9769
5.5160 0.6143 -1.8050 0.9769
5.4177 1.2037 -1.8049 0.9769
5.3708 1.3974 -1.8049 0.9769
5.2565 1.7790 -1.8048 0.9769
4.9471 2.5127 -1.8046 0.9769
4.8536 2.6886 -1.8045 0.9769
4.7537 2.8609 -1.8044 0.9769
4.5359 3.1944 -1.8043 0.9769
4.4181 3.3550 -1.8042 0.9769
4.2946 3.5113 -1.8041 0.9769
3.4438 4.3469 -1.8036 0.9769
2.7307 4.6996 -1.7677 0.9774
2.0631 4.6365 -1.6505 0.9789
1.8952 4.7073 -1.6504 0.9789
1.5525 4.8306 -1.6502 0.9789
1.2017 4.9289 -1.6500 0.9789
1.0240 4.9686 -1.6499 0.9789
0.6648 5.0287 -1.6497 0.9789
0.1203 5.0701 -1.6494 0.9789
-0.2437 5.0651 -1.6492 0.9789
-0.6065 5.0340 -1.6490 0.9789
-1.6679 4.7864 -1.6485 0.9789
-2.1725 4.5787 -1.6482 0.9789
-2.4952 4.4106 -1.6481 0.9789
-2.6518 4.3180 -1.6480 0.9789
-2.8106 4.2283 -1.6512 0.9789
-3.6792 4.1090 -1.7938 0.9771
-4.1131 3.7019 -1.7997 0.9770
-4.2432 3.5517 -1.7996 0.9770
-4.3679 3.3970 -1.7996 0.9770
-4.4868 3.2380 -1.7995 0.9770
-1.0700 0.4197 -0.3738 0.9952
-1.0834 0.2539 -0.3619 0.9953
-1.0888 0.2142 -0.3609 0.9953
-1.0984 0.0953 -0.3586 0.9954
-1.0994 0.0557 -0.3580 0.9954
-1.0993 0.0162 -0.3576 0.9954
-1.0994 -0.0232 -0.3576 0.9954
-1.0993 -0.0628 -0.3581 0.9954
-1.0758 -0.3006 -0.3633 0.9953
-1.0747 -0.3423 -0.3668 0.9953
-1.0693 -0.4273 -0.3745 0.9952
-1.0649 -0.4706 -0.3786 0.9951
-1.0479 -0.6053 -0.3936 0.9949
-1.0398 -0.6515 -0.3990 0.9949
-4.4675 -3.2678 -1.8001 0.9770
-3.9545 -3.8742 -1.8005 0.9770
-3.6668 -4.1484 -1.8006 0.9770
-3.3600 -4.4012 -1.8008 0.9770
-3.2000 -4.5192 -1.8009 0.9770
-3.0359 -4.6314 -1.8010 0.9770
-2.6961 -4.8378 -1.8012 0.9770
-1.6002 -5.3041 -1.8018 0.9770
-1.4088 -5.3585 -1.8019 0.9770
-1.2157 -5.4059 -1.8021 0.9770
-1.0209 -5.4464 -1.8022 0.9770
-0.6276 -5.5062 -1.8024 0.9770
-0.4083 -5.2521 -1.8025 0.9780
0.1587 -5.2664 -1.8028 0.9780
0.3477 -5.2576 -1.8029 0.9780
0.7241 -5.2196 -1.8031 0.9780
1.0968 -5.1548 -1.8032 0.9780
1.2812 -5.1123 -1.8033 0.9780
1.4640 -5.0633 -1.8034 0.9780
1.8237 -4.9457 -1.8036 0.9780
2.0001 -4.8773 -1.8037 0.9780
2.1740 -4.8026 -1.8038 0.9780
2.3451 -4.7217 -1.8039 0.9780
2.8395 -4.4428 -1.8041 0.9780
2.9973 -4.3382 -1.8042 0.9780
3.1512 -4.2279 -1.8042 0.9780
3.3010 -4.1123 -1.8043 0.9780
3.4467 -3.9913 -1.8044 0.9780
3.5878 -3.8651 -1.8044 0.9780
3.7244 -3.7339 -1.8045 0.9780
4.5368 -2.6909 -1.8048 0.9779
4.6306 -2.5264 -1.8049 0.9779
4.7183 -2.3586 -1.8049 0.9779
4.8756 -2.0140 -1.8049 0.9779
5.0076 -1.6591 -1.8050 0.9779
5.0639 -1.4783 -1.8050 0.9779
5.1570 -1.1112 -1.8050 0.9779
5.2465 -0.5503 -1.8050 0.9779
5.2711 0.2063 -1.8050 0.9779
5.2603 0.3953 -1.8049 0.9779
5.2182 0.7717 -1.8049 0.9779
5.1492 1.1440 -1.8048 0.9779
5.1047 1.3281 -1.8048 0.9779
5.0536 1.5105 -1.8047 0.9779
4.7848 2.2179 -1.8045 0.9780
4.7020 2.3882 -1.8045 0.9780
4.6131 2.5553 -1.8044 0.9780
4.4175 2.8795 -1.8043 0.9780
4.0819 3.3373 -1.8040 0.9780
3.9593 3.4815 -1.8040 0.9780
3.8316 3.6213 -1.8039 0.9780
3.2732 4.1316 -1.8035 0.9780
2.9666 4.3533 -1.8025 0.9780
2.6393 4.5423 -1.7975 0.9780
2.4590 4.6050 -1.7862 0.9782
2.2163 4.5352 -1.7271 0.9789
1.9960 4.4856 -1.6799 0.9795
1.8014 4.4743 -1.6503 0.9798
1.6396 4.5358 -1.6502 0.9798
1.4756 4.5915 -1.6502 0.9798
0.8031 4.7543 -1.6498 0.9798
0.6319 4.7798 -1.6497 0.9798
0.4599 4.7991 -1.6496 0.9798
0.2873 4.8123 -1.6495 0.9798
0.1143 4.8192 -1.6494 0.9798
-0.5765 4.7850 -1.6491 0.9798
-0.7478 4.7609 -1.6490 0.9798
-0.9182 4.7308 -1.6489 0.9798
-1.0873 4.6945 -1.6488 0.9798
-1.4212 4.6039 -1.6486 0.9798
-1.7477 4.4896 -1.6485 0.9798
-2.0651 4.3523 -1.6483 0.9798
-2.2199 4.2752 -1.6482 0.9798
-2.3893 4.2235 -1.6603 0.9797
-2.7986 4.2103 -1.7298 0.9789
-3.0165 4.2026 -1.7700 0.9784
-3.2072 4.1456 -1.7934 0.9781
-3.3574 4.0320 -1.7953 0.9781
-3.6461 3.7891 -1.7992 0.9780
-4.0335 3.3762 -1.7998 0.9780
-4.1520 3.2291 -1.7997 0.9780
-4.2651 3.0779 -1.7997 0.9780
-1.0224 0.4440 -0.3814 0.9953
-1.0269 0.4028 -0.3774 0.9953
-1.0325 0.3216 -0.3700 0.9954
-1.0487 0.2063 -0.3657 0.9955
-1.0530 0.1682 -0.3648 0.9955
-1.0581 0.0918 -0.3634 0.9955
-1.0591 0.0537 -0.3628 0.9955
-1.0591 0.0156 -0.3624 0.9955
-1.0592 -0.0224 -0.3625 0.9955
-1.0578 -0.0986 -0.3635 0.9955
-1.0479 -0.2131 -0.3659 0.9955
-1.0359 -0.2895 -0.3680 0.9955
-1.0262 -0.4101 -0.3781 0.9953
-1.0084 -0.5351 -0.3906 0.9952
-1.0013 -0.5784 -0.3956 0.9951
-0.9929 -0.6221 -0.4009 0.9951
-0.9832 -0.6663 -0.4064 0.9950
-4.2466 -3.1062 -1.8002 0.9780
-3.8886 -3.5452 -1.8005 0.9780
-3.6246 -3.8154 -1.8006 0.9780
-3.3418 -4.0660 -1.8008 0.9780
-2.8858 -4.4023 -1.8011 0.9780
-2.5627 -4.5985 -1.8013 0.9780
-2.3961 -4.6878 -1.8014 0.9780
-2.2264 -4.7710 -1.8015 0.9780
-1.8786 -4.9190 -1.8017 0.9780
-1.7009 -4.9836 -1.8018 0.9780
-1.3391 -5.0933 -1.8020 0.9780
-1.1555 -5.1384 -1.8021 0.9780
-0.3888 -5.0019 -1.8024 0.9789
-0.2090 -5.0129 -1.8025 0.9789
-0.0290 -5.0174 -1.8026 0.9789
0.1512 -5.0155 -1.8027 0.9789
0.8676 -4.9432 -1.8031 0.9789
1.0446 -4.9091 -1.8032 0.9789
1.3942 -4.8220 -1.8034 0.9789
1.5665 -4.7691 -1.8035 0.9789
1.7367 -4.7100 -1.8035 0.9789
1.9048 -4.6448 -1.8036 0.9789
2.0704 -4.5737 -1.8037 0.9789
2.2333 -4.4966 -1.8038 0.9789
2.5504 -4.3251 -1.8039 0.9789
2.7041 -4.2310 -1.8040 0.9789
2.8544 -4.1313 -1.8041 0.9789
3.1436 -3.9162 -1.8042 0.9789
3.2823 -3.8009 -1.8043 0.9789
3.6722 -3.4264 -1.8044 0.9789
3.7930 -3.2925 -1.8045 0.9789
3.9088 -3.1543 -1.8045 0.9789
4.1253 -2.8658 -1.8046 0.9789
4.2256 -2.7160 -1.8047 0.9789
4.4933 -2.2461 -1.8048 0.9789
4.6430 -1.9180 -1.8048 0.9789
4.7089 -1.7501 -1.8048 0.9789
4.8224 -1.4078 -1.8049 0.9789
4.8699 -1.2337 -1.8049 0.9789
5.0119 -0.3444 -1.8049 0.9789
5.0094 0.3765 -1.8048 0.9789
4.7577 1.6102 -1.8046 0.9789
4.4778 2.2743 -1.8043 0.9789
3.7705 3.3156 -1.8039 0.9789
3.6489 3.4486 -1.8038 0.9789
3.5226 3.5772 -1.8037 0.9789
3.3918 3.7012 -1.8036 0.9789
3.2566 3.8204 -1.8036 0.9789
3.1172 3.9347 -1.8035 0.9789
2.8266 4.1478 -1.8033 0.9789
2.6747 4.2447 -1.8025 0.9789
2.5174 4.3324 -1.8002 0.9789
2.3572 4.4144 -1.7979 0.9790
2.1946 4.4906 -1.7957 0.9790
1.9886 4.4691 -1.7574 0.9794
1.7831 4.4288 -1.7152 0.9799
1.5868 4.3898 -1.6770 0.9804
1.4053 4.3727 -1.6501 0.9807
1.0878 4.4618 -1.6500 0.9807
0.7648 4.5279 -1.6498 0.9807
0.6018 4.5522 -1.6497 0.9807
0.4380 4.5706 -1.6496 0.9807
-0.0559 4.5905 -1.6493 0.9807
-0.5490 4.5571 -1.6491 0.9807
-0.8745 4.5056 -1.6489 0.9807
-1.3536 4.3848 -1.6487 0.9807
-1.6645 4.2760 -1.6485 0.9807
-1.8228 4.2270 -1.6538 0.9806
-2.0026 4.2205 -1.6783 0.9803
-2.5810 4.2027 -1.7719 0.9793
-2.7634 4.1573 -1.7934 0.9790
-3.0601 3.9555 -1.7967 0.9790
-3.2033 3.8469 -1.7985 0.9789
-3.3423 3.7328 -1.8001 0.9789
-3.7238 3.3515 -1.7999 0.9789
-0.9417 0.6294 -0.4069 0.9952
-0.9513 0.5876 -0.4017 0.9953
-0.9607 0.5467 -0.3971 0.9953
-0.9761 0.4662 -0.3886 0.9954
-0.9820 0.4265 -0.3846 0.9955
-0.9998 0.2725 -0.3723 0.9956
-1.0111 0.1989 -0.3702 0.9956
-1.0152 0.1621 -0.3694 0.9956
-1.0182 0.1253 -0.3686 0.9956
-1.0213 0.0518 -0.3674 0.9957
-1.0214 -0.0216 -0.3670 0.9957
-1.0212 -0.0583 -0.3675 0.9957
-1.0200 -0.0951 -0.3680 0.9957
-1.0178 -0.1319 -0.3687 0.9956
-1.0049 -0.2423 -0.3714 0.9956
-0.9986 -0.2790 -0.3725 0.9956
-0.9860 -0.3940 -0.3815 0.9955
-0.9676 -0.5135 -0.3936 0.9954
-0.9497 -0.5950 -0.4026 0.9952
-4.0446 -2.9584 -1.8003 0.9789
-3.9359 -3.1018 -1.8004 0.9789
-3.5801 -3.5074 -1.8006 0.9789
-3.4521 -3.6338 -1.8007 0.9789
-3.3196 -3.7556 -1.8008 0.9789
-2.8970 -4.0912 -1.8010 0.9789
-2.7484 -4.1928 -1.8011 0.9789
-2.4407 -4.3796 -1.8013 0.9789
-2.1204 -4.5439 -1.8015 0.9789
-1.9561 -4.6173 -1.8016 0.9789
-1.7892 -4.6848 -1.8017 0.9789
-1.6199 -4.7462 -1.8018 0.9789
-1.4486 -4.8016 -1.8019 0.9789
-0.5681 -4.9844 -1.8024 0.9789
-0.3710 -4.7720 -1.8024 0.9797
-0.0276 -4.7868 -1.8026 0.9797
0.6579 -4.7425 -1.8030 0.9797
1.3301 -4.6004 -1.8033 0.9797
1.4945 -4.5498 -1.8034 0.9797
3.2596 -3.5115 -1.8042 0.9797
3.5033 -3.2688 -1.8043 0.9797
3.8347 -2.8735 -1.8045 0.9797
3.9355 -2.7340 -1.8045 0.9797
4.1217 -2.4447 -1.8046 0.9797
4.3608 -1.9875 -1.8047 0.9797
4.4294 -1.8297 -1.8047 0.9797
4.4923 -1.6696 -1.8047 0.9797
4.5493 -1.5072 -1.8047 0.9797
4.6006 -1.3430 -1.8047 0.9797
4.6851 -1.0095 -1.8048 0.9797
4.7183 -0.8406 -1.8048 0.9797
4.7900 -0.1567 -1.8047 0.9797
4.7925 0.0154 -1.8047 0.9797
4.7888 0.1874 -1.8047 0.9797
4.7629 0.5304 -1.8047 0.9797
4.6780 1.0394 -1.8046 0.9797
4.5912 1.3723 -1.8045 0.9797
4.5389 1.5361 -1.8044 0.9797
4.4807 1.6980 -1.8044 0.9797
4.4167 1.8577 -1.8044 0.9797
4.3471 2.0150 -1.8043 0.9797
4.2718 2.1697 -1.8042 0.9797
4.1911 2.3216 -1.8042 0.9797
4.1049 2.4704 -1.8041 0.9797
3.9168 2.7584 -1.8040 0.9797
3.7085 3.0321 -1.8039 0.9797
3.5971 3.1631 -1.8038 0.9797
3.3606 3.4128 -1.8037 0.9797
3.2358 3.5310 -1.8036 0.9797
3.1069 3.6448 -1.8035 0.9797
2.8371 3.8579 -1.8033 0.9797
2.6967 3.9571 -1.8033 0.9797
2.5528 4.0512 -1.8032 0.9797
2.0971 4.2911 -1.7985 0.9798
1.7767 4.4128 -1.7914 0.9799
1.2198 4.3223 -1.6912 0.9810
0.7297 4.3199 -1.6498 0.9814
0.2610 4.3726 -1.6495 0.9815
0.1041 4.3875 -1.6527 0.9814
-0.0534 4.3844 -1.6512 0.9814
-0.2109 4.3830 -1.6524 0.9814
-0.3674 4.3641 -1.6492 0.9815
-0.5238 4.3479 -1.6491 0.9815
-0.6795 4.3261 -1.6490 0.9815
-0.8343 4.2987 -1.6490 0.9815
-1.1416 4.2314 -1.6504 0.9814
-2.4948 4.0623 -1.7952 0.9798
-2.6411 3.9734 -1.7966 0.9798
-2.7844 3.8793 -1.7982 0.9798
-3.0591 3.6737 -1.8002 0.9798
-3.1889 3.5615 -1.8002 0.9798
-3.3146 3.4446 -1.8001 0.9798
-3.4360 3.3233 -1.8001 0.9798
-0.8905 0.6426 -0.4135 0.9953
-0.9131 0.5640 -0.4041 0.9954
-0.9311 0.4865 -0.3956 0.9955
-0.9443 0.4101 -0.3877 0.9956
-0.9707 0.2275 -0.3754 0.9957
-0.9757 0.1920 -0.3745 0.9958
-0.9827 0.1209 -0.3728 0.9958
-0.9858 0.0145 -0.3713 0.9958
-0.9844 -0.0918 -0.3723 0.9958
-0.9749 -0.1983 -0.3746 0.9958
-0.9634 -0.2692 -0.3767 0.9957
-0.9525 -0.3415 -0.3810 0.9957
-0.9297 -0.4934 -0.3963 0.9955
-3.7553 -2.9595 -1.8005 0.9798
-3.1672 -3.5831 -1.8009 0.9798
-2.4770 -4.0920 -1.8013 0.9798
-2.3287 -4.1785 -1.8014 0.9798
-2.0231 -4.3352 -1.8015 0.9798
-1.8662 -4.4053 -1.8016 0.9798
-1.5455 -4.5283 -1.8018 0.9798
-1.2168 -4.6279 -1.8020 0.9798
-0.8817 -4.7038 -1.8022 0.9798
-0.7123 -4.7327 -1.8023 0.9798
-0.5420 -4.7554 -1.8023 0.9798
-0.3545 -4.5601 -1.8024 0.9805
-0.1906 -4.5701 -1.8025 0.9805
-0.0264 -4.5742 -1.8026 0.9805
0.1378 -4.5725 -1.8027 0.9805
0.4656 -4.5512 -1.8029 0.9805
0.6287 -4.5318 -1.8029 0.9805
0.9523 -4.4754 -1.8031 0.9805
1.1124 -4.4385 -1.8032 0.9805
