ply
format ascii 1.0
element vertex 1565
property float32 x
property float32 y
property float32 z
property float32 I
end_header
-4.0871 11.7286 -0.3097 0.9515
-5.0856 11.7935 -0.3203 0.9499
-5.5976 11.7971 -0.3256 0.9491
-6.1277 11.8009 -0.3316 0.9482
-7.2520 11.8088 -0.3456 0.9461
-7.8522 11.8130 -0.3537 0.9448
-8.4821 11.8174 -0.3628 0.9435
-10.5944 11.8323 -0.3961 0.9384
-14.1845 13.7193 -0.4921 0.9241
-32.1459 28.9319 -1.0785 0.8411
-14.0150 11.7311 -0.4558 0.9295
-34.7181 25.0546 -1.0677 0.8426
-54.1693 36.2074 -1.6249 0.7705
-55.4059 34.2222 -1.6241 0.7706
-25.0306 14.2453 -0.7182 0.8912
-25.0015 13.0637 -0.7035 0.8933
-28.8182 11.3032 -0.7720 0.8835
-64.0412 10.2274 -1.6173 0.7714
-64.3522 7.9200 -1.6169 0.7715
-47.8418 2.4253 -1.1946 0.8256
-70.6573 -4.0362 -1.7650 0.7534
-70.4616 -6.5694 -1.7648 0.7534
-70.1768 -9.0940 -1.7647 0.7534
-62.9763 -15.1834 -1.6155 0.7717
-62.3942 -17.4351 -1.6156 0.7717
-61.7333 -19.6652 -1.6158 0.7716
-60.3057 -24.1006 -1.6196 0.7712
-44.0293 -23.3665 -1.2431 0.8192
-43.9430 -27.5327 -1.2932 0.8126
-35.4232 -24.0072 -1.0672 0.8426
-51.5766 -43.7369 -1.6865 0.7629
-10.8065 -9.8522 -0.3647 0.9432
-9.3734 -9.8670 -0.3394 0.9470
-8.7653 -10.6648 -0.3443 0.9463
-17.9786 -23.5497 -0.7389 0.8882
-17.1047 -26.0941 -0.7781 0.8826
-31.9467 -62.5006 -1.7505 0.7551
-8.5120 -20.0927 -0.5442 0.9164
-6.8634 -20.1093 -0.5299 0.9185
-6.0691 -20.1174 -0.5240 0.9194
-3.7748 -20.1384 -0.5110 0.9213
-3.0321 -20.1459 -0.5081 0.9217
0.9703 -9.4849 -0.3832 0.9626
1.3149 -9.4785 -0.3846 0.9624
2.7385 -9.4712 -0.3963 0.9613
3.1105 -9.4697 -0.4006 0.9609
3.4912 -9.4681 -0.4056 0.9604
4.2840 -9.4638 -0.4175 0.9593
4.6993 -9.4616 -0.4246 0.9586
3.8959 -7.1844 -0.3285 0.9678
4.0106 -6.8016 -0.3174 0.9689
4.2873 -6.7081 -0.3200 0.9686
17.7000 -20.4969 -1.0885 0.8973
19.0065 -20.4754 -1.1228 0.8942
20.4352 -20.4878 -1.1630 0.8906
23.4698 -20.3727 -1.2491 0.8830
25.4916 -20.5707 -1.3165 0.8771
31.7743 -20.4228 -1.5181 0.8597
34.9392 -20.7236 -1.6327 0.8499
37.1089 -18.5497 -1.6674 0.8470
42.9758 -14.2384 -1.8196 0.8342
23.7954 -6.9464 -0.9963 0.9055
24.1716 -6.1237 -1.0022 0.9050
44.6977 -7.9636 -1.8248 0.8338
45.3140 -3.1136 -1.8255 0.8337
45.4296 0.1456 -1.8259 0.8337
45.3985 1.7764 -1.8260 0.8337
45.3081 3.4050 -1.8261 0.8337
41.3397 4.6041 -1.6718 0.8466
40.9038 7.5584 -1.6718 0.8466
29.5757 10.0096 -1.2549 0.8825
27.5733 10.4493 -1.1851 0.8887
28.9013 12.1562 -1.2602 0.8820
29.1017 13.4896 -1.2892 0.8795
22.1049 12.2447 -1.0156 0.9038
20.4574 13.3349 -0.9815 0.9069
15.4957 10.9128 -0.7617 0.9269
14.9369 11.3427 -0.7538 0.9277
14.9599 13.1548 -0.8007 0.9233
14.9462 14.1258 -0.8266 0.9210
20.4514 25.8144 -1.3237 0.8765
20.4719 38.3371 -1.7468 0.8403
19.8423 40.6019 -1.8163 0.8345
14.9145 37.0436 -1.6050 0.8523
11.0742 30.6364 -1.3093 0.8777
11.1237 34.6124 -1.4612 0.8646
11.2252 39.7768 -1.6611 0.8475
5.2935 31.3376 -1.2774 0.8805
5.4012 40.8568 -1.6564 0.8479
3.9293 41.0056 -1.6556 0.8480
0.3301 13.9100 -0.5592 0.9458
-0.1695 13.9135 -0.5592 0.9458
-1.1719 13.9205 -0.5615 0.9456
-1.3975 11.6007 -0.4696 0.9543
-3.6294 11.7573 -0.4946 0.9519
-4.0871 11.7286 -0.4992 0.9515
-4.5895 11.7900 -0.5085 0.9506
-5.5976 11.7971 -0.5248 0.9491
-7.2520 11.8088 -0.5570 0.9460
-7.8521 11.8130 -0.5701 0.9448
-8.4821 11.8174 -0.5846 0.9434
-14.1845 13.7193 -0.7931 0.9240
-14.0151 11.7312 -0.7346 0.9294
-32.0788 24.9489 -1.6333 0.8499
-34.7430 21.4594 -1.6413 0.8492
-24.8951 13.0081 -1.1289 0.8936
-25.1640 10.9278 -1.1026 0.8960
-41.8242 14.6952 -1.7817 0.8374
-42.7522 11.6516 -1.7810 0.8375
-43.1348 10.1074 -1.7806 0.8375
-43.7339 6.9843 -1.7800 0.8375
-43.9501 5.4091 -1.7798 0.8376
-44.1103 3.8275 -1.7795 0.8376
-44.2141 2.2414 -1.7793 0.8376
-44.2619 0.6528 -1.7792 0.8376
-44.2531 -0.9364 -1.7790 0.8376
-40.9825 -14.6953 -1.7499 0.8401
-37.6310 -15.0388 -1.6288 0.8502
-13.1307 -6.3753 -0.5867 0.9432
-11.4514 -7.1749 -0.5431 0.9473
-12.3505 -9.7331 -0.6320 0.9390
-11.4685 -9.7253 -0.6044 0.9416
-10.6568 -9.7157 -0.5796 0.9439
-9.9368 -9.7349 -0.5591 0.9458
-8.6735 -9.8127 -0.5264 0.9489
-8.3435 -10.9289 -0.5526 0.9464
-17.1050 -26.0945 -1.2540 0.8826
-17.1204 -28.2828 -1.3288 0.8760
-20.3799 -36.5694 -1.6826 0.8457
-9.3464 -20.0284 -0.8883 0.9153
-8.5615 -20.2095 -0.8821 0.9159
-7.8880 -20.6545 -0.8886 0.9153
-5.2761 -20.0674 -0.8340 0.9203
-4.5533 -20.2479 -0.8341 0.9203
-3.8843 -20.7230 -0.8474 0.9191
-2.3538 -20.6532 -0.8355 0.9202
-1.1679 -15.0241 -0.8358 0.9414
-0.0942 -16.3299 -0.9057 0.9367
0.6241 -9.4362 -0.5245 0.9628
0.9659 -9.4423 -0.5264 0.9627
1.3096 -9.4400 -0.5286 0.9625
2.0117 -9.4546 -0.5361 0.9620
3.1087 -9.4643 -0.5525 0.9609
3.4891 -9.4624 -0.5594 0.9604
3.8796 -9.4605 -0.5671 0.9599
3.4503 -6.9468 -0.4302 0.9694
3.5481 -6.5432 -0.4128 0.9706
3.8002 -6.4446 -0.4150 0.9705
4.1237 -6.4521 -0.4247 0.9698
4.4458 -6.4348 -0.4338 0.9692
17.6889 -20.4840 -1.5011 0.8972
19.0065 -20.4755 -1.5495 0.8941
20.4353 -20.4878 -1.6050 0.8905
21.8741 -20.4096 -1.6593 0.8871
23.9604 -17.9540 -1.6606 0.8870
24.5955 -17.0866 -1.6610 0.8869
25.7701 -15.2851 -1.6618 0.8869
26.9884 -14.7246 -1.7052 0.8841
29.1957 -14.5941 -1.8104 0.8774
24.1743 -11.0179 -1.4735 0.8990
26.8473 -11.0903 -1.6111 0.8901
31.1057 -10.3057 -1.8175 0.8770
32.0475 -6.9051 -1.8183 0.8769
32.6152 -3.4210 -1.8189 0.8769
32.7200 -2.2482 -1.8191 0.8769
32.6422 1.2772 -1.8119 0.8773
32.6042 3.6312 -1.8195 0.8768
29.7090 4.3935 -1.6657 0.8866
29.0637 7.5617 -1.6657 0.8866
28.4441 9.6266 -1.6655 0.8867
27.6024 10.4604 -1.6372 0.8885
26.4016 12.2380 -1.6140 0.8900
15.0582 9.8155 -0.9970 0.9305
14.8596 12.1491 -1.0646 0.9260
14.9010 13.1030 -1.1005 0.9236
20.5266 20.8449 -1.6226 0.8894
20.3925 22.2529 -1.6741 0.8861
20.2610 25.5742 -1.8096 0.8775
15.5925 21.2028 -1.4598 0.8999
6.5071 10.3265 -0.6770 0.9523
13.2808 29.8464 -1.8119 0.8773
6.1867 21.9227 -1.2634 0.9128
3.9096 29.5742 -1.6546 0.8874
0.6930 11.6085 -0.6450 0.9545
-1.1579 13.7535 -0.7655 0.9462
-1.3975 11.6007 -0.6481 0.9543
-1.8447 11.7448 -0.6594 0.9535
-2.7217 11.7509 -0.6690 0.9528
-3.1710 11.7541 -0.6752 0.9524
-3.6294 11.7573 -0.6825 0.9519
-4.5770 11.7580 -0.6998 0.9507
-5.5823 11.7650 -0.7223 0.9492
-7.1798 11.6912 -0.7610 0.9465
-9.0160 11.6542 -0.8172 0.9427
-9.7083 11.6591 -0.8415 0.9410
-11.2292 11.6697 -0.8982 0.9372
-12.0715 11.6757 -0.9315 0.9349
-20.5558 18.5006 -1.5339 0.8951
-25.4858 19.8213 -1.7907 0.8787
-26.1744 18.8890 -1.7903 0.8787
-27.4492 16.9544 -1.7894 0.8788
-25.0470 14.2546 -1.5984 0.8910
-25.1017 10.9007 -1.5178 0.8962
-31.0812 8.4708 -1.7868 0.8789
-31.3608 7.3486 -1.7865 0.8789
-31.7994 5.0784 -1.7861 0.8790
-32.0754 2.7832 -1.7857 0.8790
-32.1519 1.6299 -1.7856 0.8790
-32.1875 0.4747 -1.7854 0.8790
-31.9189 -4.1363 -1.7852 0.8790
-31.5396 -6.4156 -1.7851 0.8790
-31.2896 -7.5438 -1.7852 0.8790
-30.9994 -8.6623 -1.7852 0.8790
-30.3007 -10.8650 -1.7854 0.8790
-29.4472 -13.0128 -1.7856 0.8790
-12.7812 -6.2056 -0.7880 0.9447
-11.8356 -6.2812 -0.7432 0.9477
-11.1506 -6.4410 -0.7142 0.9497
-10.8272 -6.7838 -0.7087 0.9501
-10.8367 -7.3443 -0.7261 0.9489
-12.2751 -9.6737 -0.8668 0.9393
-11.4082 -9.6741 -0.8296 0.9418
-10.6117 -9.6746 -0.7965 0.9441
-8.6061 -9.7365 -0.7207 0.9493
-8.3358 -10.9189 -0.7619 0.9465
-17.0914 -24.1373 -1.6404 0.8883
-14.7241 -26.4206 -1.6776 0.8859
-13.7761 -26.9517 -1.6788 0.8858
-9.3464 -20.0284 -1.2259 0.9153
-8.5615 -20.2096 -1.2173 0.9158
-7.8431 -20.5369 -1.2193 0.9157
-4.5533 -20.2480 -1.1511 0.9202
-3.7999 -20.2725 -1.1440 0.9207
-3.0523 -20.2801 -1.1375 0.9211
-2.3568 -20.6791 -1.1544 0.9200
-0.8386 -20.1102 -1.4243 0.9225
0.2841 -9.4246 -0.6672 0.9629
1.0031 -9.8062 -0.6975 0.9612
1.6568 -9.4395 -0.6782 0.9623
2.0104 -9.4482 -0.6835 0.9620
2.3701 -9.4570 -0.6899 0.9617
2.7357 -9.4617 -0.6970 0.9613
3.1079 -9.4618 -0.7047 0.9609
3.8791 -9.4592 -0.7234 0.9598
3.2086 -7.0881 -0.5506 0.9693
3.2817 -6.6075 -0.5221 0.9708
3.4654 -6.3907 -0.5144 0.9713
3.7696 -6.3928 -0.5252 0.9707
4.4097 -6.3824 -0.5489 0.9694
17.1237 -15.9773 -1.6572 0.9104
18.2592 -14.7345 -1.6603 0.9102
19.6398 -14.7165 -1.7366 0.9063
20.9666 -14.5655 -1.8065 0.9027
21.5429 -13.8466 -1.8121 0.9024
22.4888 -12.2696 -1.8128 0.9024
23.3186 -10.6279 -1.8134 0.9023
23.6886 -9.7855 -1.8136 0.9023
24.0280 -8.9301 -1.8139 0.9023
24.1890 -6.1281 -1.7657 0.9048
25.2510 -4.4989 -1.8150 0.9023
25.6427 -0.8388 -1.8155 0.9022
25.6391 1.0032 -1.8157 0.9022
25.5874 1.9230 -1.8157 0.9022
23.3667 6.0794 -1.7085 0.9077
21.9633 8.3233 -1.6620 0.9101
21.3070 9.8765 -1.6618 0.9101
20.9372 10.6342 -1.6617 0.9101
14.8369 11.2668 -1.3183 0.9280
14.8673 12.1555 -1.3589 0.9259
14.8395 13.0489 -1.3983 0.9238
14.8826 14.0657 -1.4490 0.9212
17.3098 18.8890 -1.8130 0.9024
15.9045 20.0753 -1.8124 0.9024
15.1709 20.6295 -1.8120 0.9024
12.8577 22.1278 -1.8110 0.9025
5.4526 11.1572 -0.8787 0.9514
6.4052 15.9087 -1.2135 0.9335
6.2025 19.2996 -1.4345 0.9219
6.1632 21.8396 -1.6058 0.9130
3.8931 23.0471 -1.6540 0.9105
3.0625 23.1661 -1.6535 0.9106
2.2284 23.2550 -1.6531 0.9106
-0.6617 13.7500 -0.9741 0.9463
-1.1579 13.7534 -0.9767 0.9462
-3.6294 11.7573 -0.8707 0.9519
-4.0871 11.7286 -0.8789 0.9514
-4.5243 11.6226 -0.8826 0.9512
-5.0133 11.6260 -0.8959 0.9505
-6.0406 11.6333 -0.9276 0.9488
-7.7406 11.6452 -0.9895 0.9455
-8.3616 11.6496 -1.0147 0.9441
-12.0715 11.6756 -1.1884 0.9349
-17.2501 15.5254 -1.6422 0.9111
-18.3120 14.2419 -1.6416 0.9112
-19.2792 12.8865 -1.6409 0.9112
-19.7258 12.1839 -1.6406 0.9112
-23.2158 10.0817 -1.7910 0.9035
-23.8726 8.3878 -1.7905 0.9035
-24.1553 7.5245 -1.7903 0.9035
-24.4069 6.6518 -1.7901 0.9035
-24.8160 4.8825 -1.7897 0.9036
-25.0980 3.0889 -1.7894 0.9036
-25.2756 -0.5348 -1.7890 0.9036
-25.2393 -1.4417 -1.7889 0.9036
-25.1705 -2.3467 -1.7888 0.9036
-25.0696 -3.2487 -1.7888 0.9036
-23.7981 -8.5333 -1.7890 0.9036
-12.5943 -6.1149 -0.9907 0.9454
-11.5700 -6.1403 -0.9269 0.9488
-10.9177 -6.3064 -0.8922 0.9507
-10.5961 -7.1812 -0.9058 0.9500
-20.0963 -14.6995 -1.7619 0.9050
-12.1140 -9.5468 -1.0914 0.9400
-9.8236 -9.6241 -0.9731 0.9463
-8.5778 -9.7045 -0.9165 0.9494
-8.3281 -10.9088 -0.9712 0.9465
-13.4018 -18.9266 -1.6410 0.9112
-11.2962 -20.2697 -1.6420 0.9111
-9.3464 -20.0285 -1.5640 0.9152
-8.5615 -20.2096 -1.5531 0.9157
-4.5533 -20.2480 -1.4686 0.9201
-3.8008 -20.2774 -1.4599 0.9206
-0.0942 -16.3300 -1.4059 0.9365
0.2841 -9.4246 -0.8118 0.9629
0.6483 -9.8037 -0.8459 0.9613
1.3607 -9.8089 -0.8526 0.9610
2.0101 -9.4467 -0.8315 0.9620
2.3689 -9.4523 -0.8389 0.9616
3.1063 -9.4569 -0.8570 0.9608
3.0520 -6.7421 -0.6372 0.9707
3.1677 -6.3779 -0.6131 0.9718
4.0568 -6.3475 -0.6485 0.9702
4.3740 -6.3308 -0.6625 0.9696
5.0569 -6.2997 -0.6955 0.9681
12.7164 -14.7257 -1.6751 0.9249
13.6604 -14.7161 -1.7287 0.9226
14.6677 -14.7054 -1.7881 0.9200
15.3520 -14.3242 -1.8077 0.9192
15.8696 -13.7754 -1.8092 0.9191
18.0887 -10.7290 -1.8106 0.9190
18.4647 -10.0742 -1.8109 0.9190
19.1450 -8.7257 -1.8114 0.9190
19.4483 -8.0339 -1.8116 0.9190
20.2059 -5.8985 -1.8122 0.9190
20.5807 -4.4344 -1.8125 0.9189
20.7283 -3.6931 -1.8127 0.9189
21.0093 -1.4436 -1.8130 0.9189
21.0486 -0.6885 -1.8131 0.9189
21.0607 0.0675 -1.8132 0.9189
20.8361 3.0813 -1.8133 0.9189
20.7121 3.8273 -1.8134 0.9189
20.3837 5.3033 -1.8133 0.9189
20.1798 6.0315 -1.8133 0.9189
19.9497 6.7518 -1.8132 0.9189
19.4123 8.1650 -1.8131 0.9189
18.0392 10.8565 -1.8126 0.9189
14.8039 10.4256 -1.5588 0.9299
14.8642 11.2875 -1.6069 0.9278
16.2935 13.3215 -1.8119 0.9190
15.8030 13.8963 -1.8117 0.9190
15.2922 14.4529 -1.8115 0.9190
14.7617 14.9906 -1.8113 0.9190
14.2122 15.5088 -1.8110 0.9190
13.6445 16.0067 -1.8108 0.9190
13.0592 16.4838 -1.8105 0.9190
12.4572 16.9394 -1.8103 0.9190
9.8981 18.5358 -1.8091 0.9191
7.1805 17.8344 -1.6552 0.9257
6.1917 17.1292 -1.5681 0.9295
5.2186 18.4922 -1.6542 0.9258
3.8768 18.8113 -1.6536 0.9258
2.5161 19.0331 -1.6529 0.9258
-0.1675 13.7465 -1.1836 0.9463
-0.6617 13.7499 -1.1851 0.9462
-1.1579 13.7534 -1.1883 0.9461
-1.8447 11.7447 -1.0235 0.9534
-2.2801 11.7478 -1.0303 0.9531
-4.5243 11.6226 -1.0738 0.9512
-5.0133 11.6260 -1.0900 0.9504
-5.5180 11.6296 -1.1082 0.9496
-7.1490 11.6410 -1.1761 0.9466
-7.7406 11.6452 -1.2038 0.9454
-8.3616 11.6495 -1.2346 0.9441
-10.4439 11.6642 -1.3479 0.9391
-12.0715 11.6756 -1.4459 0.9348
-15.4729 11.1661 -1.6428 0.9263
-16.2291 10.0242 -1.6423 0.9263
-16.5761 9.4338 -1.6420 0.9263
-16.9018 8.8314 -1.6418 0.9263
-17.2056 8.2180 -1.6416 0.9263
-19.8772 6.1919 -1.7924 0.9198
-20.2664 4.7489 -1.7921 0.9198
-20.5516 3.2821 -1.7918 0.9198
-20.8019 -0.4402 -1.7913 0.9199
-20.7720 -1.1865 -1.7912 0.9199
-20.7156 -1.9314 -1.7912 0.9199
-20.2257 -4.8763 -1.7912 0.9199
-19.8246 -6.3151 -1.7913 0.9199
-19.5858 -7.0229 -1.7913 0.9199
-13.8333 -6.1130 -1.3020 0.9411
-12.5543 -6.0955 -1.2015 0.9455
-10.8337 -6.2579 -1.0771 0.9510
-10.5829 -6.6308 -1.0752 0.9511
-16.8028 -12.2904 -1.7923 0.9198
-12.1140 -9.5468 -1.3279 0.9400
-11.3501 -9.6249 -1.2812 0.9420
-9.7868 -9.5880 -1.1795 0.9465
-8.5099 -9.6276 -1.1063 0.9497
-8.4594 -10.2926 -1.1470 0.9479
-10.4613 -15.9592 -1.6429 0.9262
-9.2924 -16.6741 -1.6434 0.9262
-4.1943 -18.6516 -1.6459 0.9261
-3.5228 -18.7940 -1.6462 0.9261
-2.8465 -18.9123 -1.6466 0.9261
-2.1662 -19.0063 -1.6469 0.9261
0.6189 -9.3589 -0.9517 0.9630
0.9584 -9.3688 -0.9556 0.9628
1.2992 -9.3654 -0.9594 0.9627
2.0091 -9.4423 -0.9795 0.9619
2.6579 -7.2080 -0.7795 0.9696
3.1304 -6.3028 -0.7140 0.9721
3.4254 -6.3169 -0.7291 0.9715
4.3340 -6.2729 -0.7736 0.9698
11.6399 -13.4791 -1.8070 0.9309
13.4575 -11.6817 -1.8081 0.9309
14.2650 -10.6890 -1.8086 0.9308
16.4889 -6.8114 -1.8102 0.9308
17.1304 -5.0007 -1.8107 0.9308
17.3003 -4.3829 -1.8108 0.9308
17.4477 -3.7594 -1.8109 0.9308
17.6748 -2.4982 -1.8112 0.9307
17.7540 -1.8622 -1.8113 0.9307
17.8103 -1.2238 -1.8114 0.9307
17.8435 -0.5837 -1.8114 0.9307
17.8536 0.0572 -1.8115 0.9307
17.8406 0.6981 -1.8116 0.9307
17.8044 1.3381 -1.8116 0.9307
17.7452 1.9763 -1.8116 0.9307
17.6629 2.6121 -1.8117 0.9307
17.5579 3.2444 -1.8117 0.9307
17.4300 3.8726 -1.8116 0.9307
16.6949 6.3268 -1.8115 0.9307
16.4564 6.9217 -1.8114 0.9307
16.1966 7.5076 -1.8113 0.9307
15.9158 8.0838 -1.8112 0.9307
14.9516 9.7461 -1.8109 0.9308
14.2116 10.7919 -1.8106 0.9308
13.8138 11.2941 -1.8104 0.9308
12.9654 12.2537 -1.8101 0.9308
12.0502 13.1495 -1.8097 0.9308
11.0731 13.9768 -1.8093 0.9308
10.0391 14.7314 -1.8088 0.9308
5.6078 11.4749 -1.2959 0.9499
5.5336 12.4358 -1.3811 0.9467
5.1129 12.6990 -1.3890 0.9464
5.5419 15.3314 -1.6541 0.9366
4.4262 15.6843 -1.6536 0.9366
3.8597 15.8304 -1.6533 0.9366
2.1343 16.1451 -1.6524 0.9366
1.5531 16.2084 -1.6521 0.9366
-1.3975 11.6006 -1.1856 0.9541
-2.2801 11.7478 -1.2142 0.9530
-4.5243 11.6226 -1.2655 0.9511
-5.5180 11.6296 -1.3061 0.9496
-6.0406 11.6332 -1.3300 0.9487
-6.5834 11.6370 -1.3566 0.9477
-7.1490 11.6410 -1.3861 0.9466
-7.7406 11.6452 -1.4188 0.9453
-9.0159 11.6541 -1.4950 0.9425
-11.2291 11.6697 -1.6432 0.9370
-12.4267 10.4016 -1.6443 0.9369
-12.7902 9.9474 -1.6440 0.9369
-13.4674 9.0017 -1.6436 0.9369
-14.3518 7.4990 -1.6430 0.9370
-17.0563 4.6485 -1.7937 0.9314
-17.3433 3.4123 -1.7935 0.9314
-17.4535 2.7873 -1.7933 0.9314
-17.5412 2.1589 -1.7932 0.9314
-17.6065 1.5277 -1.7931 0.9314
-17.6693 0.2606 -1.7930 0.9314
-17.6414 -1.0077 -1.7929 0.9314
-17.5935 -1.6403 -1.7929 0.9314
-17.3150 -3.5221 -1.7928 0.9314
-17.1775 -4.1414 -1.7928 0.9314
-17.0180 -4.7554 -1.7929 0.9314
-16.8367 -5.3633 -1.7929 0.9314
-16.4096 -6.5579 -1.7930 0.9314
-13.8228 -6.1084 -1.5334 0.9410
-12.5765 -6.1062 -1.4185 0.9453
-10.8273 -6.2542 -1.2687 0.9510
-12.1141 -9.5468 -1.5650 0.9399
-11.2674 -9.5548 -1.4990 0.9423
-9.7652 -9.5668 -1.3871 0.9465
-10.2099 -14.4188 -1.7926 0.9314
-8.9021 -14.7062 -1.7442 0.9332
-8.1994 -14.7130 -1.7090 0.9345
-6.3245 -14.9293 -1.6451 0.9369
-5.7855 -15.1490 -1.6454 0.9369
-5.2388 -15.3495 -1.6456 0.9369
-4.6852 -15.5302 -1.6459 0.9369
-4.1254 -15.6910 -1.6462 0.9369
-2.4159 -16.0519 -1.6470 0.9368
-1.1437 -14.7122 -1.7248 0.9423
-0.6135 -14.7131 -1.7212 0.9424
0.6192 -9.3626 -1.0967 0.9629
0.9590 -9.3753 -1.1015 0.9628
1.6559 -9.4346 -1.1196 0.9622
2.0081 -9.4375 -1.1278 0.9619
2.3664 -9.4426 -1.1378 0.9616
2.2648 -6.8951 -0.8483 0.9712
2.4397 -6.6163 -0.8242 0.9720
2.8487 -6.2930 -0.8074 0.9726
3.3902 -6.2519 -0.8313 0.9718
3.6764 -6.2347 -0.8460 0.9713
4.9804 -6.2043 -0.9299 0.9685
10.9170 -10.9450 -1.8069 0.9396
11.6772 -10.1362 -1.8073 0.9396
12.7038 -8.8254 -1.8080 0.9396
13.0138 -8.3646 -1.8082 0.9396
13.5834 -7.4109 -1.8086 0.9396
13.8420 -6.9192 -1.8088 0.9396
14.3054 -5.9094 -1.8091 0.9396
14.6950 -4.8686 -1.8094 0.9396
15.0086 -3.8023 -1.8097 0.9396
15.1363 -3.2613 -1.8098 0.9395
15.3331 -2.1672 -1.8100 0.9395
15.4017 -1.6155 -1.8101 0.9395
15.4505 -1.0616 -1.8102 0.9395
15.4792 -0.5063 -1.8102 0.9395
15.4878 0.0496 -1.8103 0.9395
15.4765 0.6056 -1.8103 0.9395
15.4450 1.1608 -1.8104 0.9395
15.3937 1.7144 -1.8104 0.9395
15.2311 2.8145 -1.8104 0.9395
14.9897 3.9000 -1.8104 0.9395
14.8398 4.4354 -1.8103 0.9395
14.4826 5.4884 -1.8103 0.9395
13.5458 7.5035 -1.8100 0.9395
12.6583 8.9146 -1.8096 0.9396
12.3293 9.3626 -1.8095 0.9396
11.6239 10.2214 -1.8092 0.9396
11.2485 10.6311 -1.8090 0.9396
10.8586 11.0270 -1.8089 0.9396
9.6074 12.1268 -1.8083 0.9396
9.1648 12.4624 -1.8081 0.9396
7.1122 12.2400 -1.6546 0.9446
5.6078 11.4748 -1.4928 0.9499
5.5027 12.3664 -1.5821 0.9469
4.8092 13.3044 -1.6535 0.9446
4.3279 13.4665 -1.6533 0.9446
3.3496 13.7383 -1.6528 0.9446
2.8538 13.8476 -1.6526 0.9447
2.3546 13.9390 -1.6523 0.9447
-0.6433 13.3674 -1.5642 0.9475
-1.8447 11.7447 -1.3896 0.9532
-2.2801 11.7478 -1.3987 0.9529
-3.1710 11.7540 -1.4230 0.9522
-5.0133 11.6260 -1.4798 0.9503
-6.0406 11.6332 -1.5321 0.9486
-6.5833 11.6370 -1.5627 0.9476
-8.2144 11.4445 -1.6466 0.9448
-8.6187 11.1406 -1.6463 0.9449
-9.0117 10.8225 -1.6461 0.9449
-9.7623 10.1452 -1.6456 0.9449
-10.1188 9.7870 -1.6454 0.9449
-10.7921 9.0334 -1.6450 0.9449
-11.1081 8.6392 -1.6448 0.9449
-11.4097 8.2339 -1.6446 0.9449
-7.2516 4.4790 -0.9962 0.9663
-12.8980 5.6012 -1.6436 0.9449
-13.0897 5.1341 -1.6434 0.9449
-13.6983 4.2671 -1.6770 0.9439
-15.0650 2.9640 -1.7946 0.9400
-15.1608 2.4212 -1.7945 0.9400
-15.2941 1.3271 -1.7943 0.9400
-15.3246 -0.8754 -1.7941 0.9401
-15.2219 -1.9726 -1.7941 0.9401
-15.0412 -3.0596 -1.7941 0.9401
-14.6256 -4.6590 -1.7941 0.9401
-14.4493 -5.1811 -1.7942 0.9401
-13.8100 -6.7052 -1.7944 0.9400
-13.0112 -8.1522 -1.7946 0.9400
-11.7139 -9.9333 -1.7952 0.9400
-11.3507 -10.3483 -1.7953 0.9400
-10.9729 -10.7500 -1.7955 0.9400
-9.0851 -9.5634 -1.5418 0.9483
-10.1753 -11.5118 -1.7958 0.9400
-9.1713 -11.1589 -1.6883 0.9435
-9.3251 -12.2147 -1.7962 0.9400
-8.8816 -12.5430 -1.7964 0.9400
-7.9607 -13.1510 -1.7968 0.9400
-7.4844 -13.4299 -1.7970 0.9400
-6.5033 -13.9360 -1.7975 0.9399
-5.4826 -14.3561 -1.7962 0.9400
-4.4266 -14.6728 -1.7913 0.9401
-3.8653 -14.7018 -1.7768 0.9406
-2.2139 -14.7093 -1.7386 0.9419
-0.5668 -13.5926 -1.8006 0.9466
1.3000 -9.3708 -1.2522 0.9625
1.6559 -9.4346 -1.2678 0.9621
2.0080 -9.4372 -1.2770 0.9618
2.0850 -7.2113 -0.9936 0.9702
2.8250 -6.2408 -0.9067 0.9727
3.0928 -6.2271 -0.9203 0.9723
3.3525 -6.1825 -0.9309 0.9720
3.9508 -6.1816 -0.9710 0.9708
4.2724 -6.1837 -0.9948 0.9701
4.6111 -6.1868 -1.0213 0.9693
5.3684 -6.2167 -1.0872 0.9674
9.2836 -10.0010 -1.8061 0.9464
9.6377 -9.6625 -1.8063 0.9464
10.6243 -8.5733 -1.8069 0.9464
10.9263 -8.1873 -1.8071 0.9464
11.2144 -7.7906 -1.8073 0.9464
11.4879 -7.3838 -1.8075 0.9464
12.2185 -6.1077 -1.8080 0.9464
12.4309 -5.6656 -1.8082 0.9464
12.6273 -5.2162 -1.8083 0.9464
13.1177 -3.8293 -1.8087 0.9464
13.2475 -3.3562 -1.8088 0.9464
13.4556 -2.3973 -1.8090 0.9463
13.6624 -0.4469 -1.8093 0.9463
13.5867 1.5132 -1.8094 0.9463
13.2303 3.4422 -1.8094 0.9463
13.0980 3.9148 -1.8094 0.9463
12.7828 4.8443 -1.8093 0.9463
12.6003 5.2998 -1.8093 0.9463
12.4015 5.7485 -1.8092 0.9463
11.9561 6.6229 -1.8090 0.9463
11.7101 7.0475 -1.8090 0.9463
11.4489 7.4629 -1.8089 0.9464
10.8827 8.2641 -1.8086 0.9464
10.5783 8.6488 -1.8085 0.9464
9.9290 9.3840 -1.8082 0.9464
9.5850 9.7336 -1.8081 0.9464
8.0903 11.0012 -1.8074 0.9464
7.0391 10.3292 -1.6544 0.9508
6.4158 10.1816 -1.5928 0.9526
6.2786 10.8053 -1.6541 0.9508
5.0788 11.4137 -1.6535 0.9508
4.6653 11.5873 -1.6533 0.9508
4.2458 11.7458 -1.6531 0.9509
2.5197 12.2263 -1.6522 0.9509
1.6356 12.3722 -1.6518 0.9509
0.2804 11.8175 -1.5646 0.9534
-0.9912 11.7742 -1.5639 0.9534
-1.3975 11.6006 -1.5465 0.9539
-1.8329 11.6694 -1.5635 0.9535
-3.1329 11.6128 -1.5920 0.9526
-4.5181 11.6066 -1.6485 0.9510
-5.3377 11.2495 -1.6480 0.9510
-6.1294 10.8345 -1.6476 0.9510
-6.8891 10.3641 -1.6472 0.9510
-7.2557 10.1088 -1.6469 0.9510
-7.9602 9.5597 -1.6465 0.9510
-8.6235 8.9618 -1.6461 0.9511
-9.2421 8.3181 -1.6457 0.9511
-9.8129 7.6319 -1.6454 0.9511
-10.0795 7.2739 -1.6452 0.9511
-7.0144 4.6885 -1.1167 0.9665
-11.0126 5.7543 -1.6446 0.9511
-11.3951 4.9485 -1.6443 0.9511
-11.5646 4.5359 -1.6442 0.9511
-12.9209 4.0249 -1.7912 0.9469
-13.0896 3.5674 -1.7957 0.9467
-13.2085 3.0951 -1.7956 0.9467
-13.3951 2.1392 -1.7954 0.9467
-13.5458 0.6867 -1.7952 0.9467
-13.5613 0.2000 -1.7951 0.9467
-13.5401 -0.7735 -1.7951 0.9467
-13.5034 -1.2590 -1.7950 0.9467
-13.4494 -1.7429 -1.7950 0.9467
-13.2897 -2.7033 -1.7950 0.9467
-13.0617 -3.6499 -1.7950 0.9467
-12.9225 -4.1165 -1.7951 0.9467
-12.7667 -4.5778 -1.7951 0.9467
-12.5944 -5.0332 -1.7952 0.9467
-12.4060 -5.4823 -1.7952 0.9467
-12.2017 -5.9243 -1.7953 0.9467
-11.2304 -7.6111 -1.7956 0.9467
-9.6943 -9.4974 -1.7963 0.9467
-9.3479 -9.8401 -1.7964 0.9467
-8.9894 -10.1702 -1.7966 0.9467
-8.6193 -10.4873 -1.7967 0.9467
-8.2381 -10.7909 -1.7969 0.9467
-7.8462 -11.0808 -1.7971 0.9467
-6.6116 -11.8639 -1.7976 0.9467
-6.1822 -12.0949 -1.7978 0.9467
-5.7447 -12.3104 -1.7981 0.9467
-5.2997 -12.5102 -1.7983 0.9467
-2.9827 -13.2638 -1.7994 0.9466
-2.5050 -13.3642 -1.7996 0.9466
-1.5401 -13.5131 -1.8001 0.9466
0.3669 -12.1739 -1.8013 0.9519
0.9592 -9.3770 -1.3940 0.9626
2.1066 -12.0022 -1.8022 0.9519
2.0280 -7.0139 -1.0798 0.9709
2.3099 -6.2643 -0.9874 0.9734
2.5405 -6.1951 -0.9903 0.9733
2.8017 -6.1892 -1.0048 0.9729
3.0711 -6.1835 -1.0211 0.9725
3.3462 -6.1708 -1.0382 0.9720
4.9482 -6.1643 -1.1690 0.9685
8.6232 -8.6454 -1.8059 0.9518
8.9289 -8.3311 -1.8061 0.9518
9.5055 -7.6706 -1.8064 0.9518
9.7757 -7.3251 -1.8066 0.9518
10.2779 -6.6061 -1.8069 0.9518
11.1212 -5.0687 -1.8075 0.9518
11.2968 -4.6666 -1.8077 0.9518
11.4578 -4.2583 -1.8078 0.9518
11.6040 -3.8445 -1.8079 0.9518
11.8513 -3.0024 -1.8081 0.9518
12.1070 -1.7112 -1.8084 0.9518
12.1995 -0.8383 -1.8085 0.9518
12.2221 -0.3998 -1.8085 0.9518
12.2288 0.0392 -1.8086 0.9518
12.1950 0.9165 -1.8086 0.9518
12.1543 1.3537 -1.8087 0.9518
12.0260 2.2222 -1.8087 0.9518
11.9384 2.6525 -1.8087 0.9518
11.8354 3.0793 -1.8087 0.9518
11.5836 3.9204 -1.8086 0.9518
10.6958 5.9248 -1.8083 0.9518
10.2422 6.6763 -1.8082 0.9518
9.9955 7.0393 -1.8081 0.9518
9.7358 7.3931 -1.8080 0.9518
9.1791 8.0716 -1.8077 0.9518
8.2564 9.0096 -1.8073 0.9518
7.5875 9.5772 -1.8070 0.9518
6.2978 9.2414 -1.6539 0.9558
5.9615 9.4606 -1.6538 0.9558
4.9084 10.0437 -1.6533 0.9558
4.5442 10.2123 -1.6531 0.9558
3.7990 10.5097 -1.6527 0.9558
3.4189 10.6381 -1.6526 0.9558
1.4636 11.0711 -1.6516 0.9558
0.6653 11.1448 -1.6512 0.9559
0.2648 11.1601 -1.6510 0.9559
-0.1360 11.1610 -1.6508 0.9559
-0.5364 11.1475 -1.6505 0.9559
-0.9361 11.1196 -1.6503 0.9559
-1.3345 11.0774 -1.6501 0.9559
-2.1253 10.9503 -1.6497 0.9559
-2.5167 10.8655 -1.6495 0.9559
-2.9047 10.7668 -1.6493 0.9559
-3.2889 10.6543 -1.6491 0.9559
-3.6688 10.5280 -1.6489 0.9559
-4.0437 10.3882 -1.6486 0.9559
-4.4135 10.2351 -1.6484 0.9559
-4.7775 10.0688 -1.6482 0.9559
-6.8145 8.8085 -1.6471 0.9560
-7.1255 8.5573 -1.6469 0.9560
-7.4273 8.2950 -1.6467 0.9560
-8.0016 7.7391 -1.6463 0.9560
-8.7845 6.8320 -1.6458 0.9560
-9.0233 6.5117 -1.6457 0.9560
-7.0090 4.6849 -1.2468 0.9665
-9.8590 5.1515 -1.6451 0.9560
-10.2016 4.4302 -1.6449 0.9560
-11.4324 4.0169 -1.7921 0.9522
-11.5974 3.6127 -1.7965 0.9521
-11.9167 2.3446 -1.7962 0.9521
-12.0532 1.4835 -1.7960 0.9521
-12.1417 0.1791 -1.7959 0.9521
-12.1400 -0.2569 -1.7958 0.9521
-12.1228 -0.6925 -1.7958 0.9521
-12.0899 -1.1272 -1.7958 0.9521
-11.9778 -1.9917 -1.7958 0.9521
-11.8986 -2.4204 -1.7958 0.9521
-11.6944 -3.2678 -1.7958 0.9521
-11.5698 -3.6856 -1.7958 0.9521
-11.1073 -4.9083 -1.7959 0.9521
-10.9243 -5.3041 -1.7960 0.9521
-10.2921 -6.4485 -1.7962 0.9521
-10.0545 -6.8142 -1.7963 0.9521
-8.9779 -8.1850 -1.7967 0.9521
-8.6789 -8.5026 -1.7969 0.9521
-7.7163 -9.3886 -1.7973 0.9520
-7.0241 -9.9197 -1.7976 0.9520
-6.6641 -10.1664 -1.7978 0.9520
-6.2954 -10.4000 -1.7979 0.9520
-5.9187 -10.6204 -1.7981 0.9520
-5.5342 -10.8270 -1.7983 0.9520
-5.1425 -11.0198 -1.7985 0.9520
-3.9293 -11.5126 -1.7991 0.9520
-3.5139 -11.6475 -1.7993 0.9520
-3.0939 -11.7675 -1.7995 0.9520
-2.6698 -11.8724 -1.7997 0.9520
-2.2422 -11.9620 -1.7999 0.9520
-1.3785 -12.0950 -1.8004 0.9520
-0.0636 -11.0159 -1.8011 0.9563
1.2993 -9.3662 -1.5460 0.9624
1.9055 -10.8565 -1.8022 0.9563
2.2943 -10.7824 -1.8024 0.9563
2.6802 -10.6943 -1.8026 0.9563
2.2908 -6.2126 -1.0826 0.9735
2.5268 -6.1616 -1.0888 0.9734
2.7884 -6.1600 -1.1055 0.9730
3.3413 -6.1619 -1.1461 0.9720
3.9390 -6.1630 -1.1959 0.9708
4.2580 -6.1629 -1.2247 0.9701
4.5936 -6.1633 -1.2568 0.9693
4.9475 -6.1633 -1.2922 0.9685
7.5122 -8.0927 -1.8054 0.9562
7.7986 -7.8186 -1.8055 0.9562
9.0734 -6.3033 -1.8063 0.9562
10.2155 -4.2199 -1.8071 0.9562
10.3610 -3.8507 -1.8072 0.9562
10.4932 -3.4765 -1.8073 0.9562
10.8077 -2.3287 -1.8076 0.9562
11.0578 0.0354 -1.8080 0.9562
11.0271 0.8287 -1.8080 0.9562
10.9904 1.2240 -1.8080 0.9562
10.9394 1.6178 -1.8080 0.9562
10.8743 2.0094 -1.8081 0.9562
10.7951 2.3985 -1.8080 0.9562
10.7020 2.7844 -1.8080 0.9562
10.5951 3.1667 -1.8080 0.9562
10.1926 4.2871 -1.8079 0.9562
10.0319 4.6501 -1.8079 0.9562
9.8582 5.0071 -1.8078 0.9562
9.2617 6.0371 -1.8076 0.9562
8.8038 6.6854 -1.8074 0.9562
8.5577 6.9967 -1.8073 0.9562
8.0326 7.5918 -1.8071 0.9562
7.1685 8.4095 -1.8067 0.9562
6.8560 8.6539 -1.8051 0.9562
5.6953 8.3573 -1.6535 0.9598
5.3912 8.5556 -1.6534 0.9598
4.7626 8.9187 -1.6531 0.9598
4.4390 9.0831 -1.6529 0.9599
3.0921 9.6211 -1.6523 0.9599
1.6825 9.9604 -1.6516 0.9599
1.3237 10.0133 -1.6514 0.9599
0.9633 10.0532 -1.6512 0.9599
0.6018 10.0802 -1.6510 0.9599
-0.1230 10.0950 -1.6507 0.9599
-0.8467 10.0579 -1.6503 0.9599
-1.9224 9.9051 -1.6497 0.9599
-2.2765 9.8286 -1.6495 0.9599
-2.6275 9.7394 -1.6493 0.9599
-3.3187 9.5236 -1.6489 0.9599
-3.6580 9.3972 -1.6488 0.9600
-6.4464 7.7417 -1.6471 0.9600
-6.9839 7.2579 -1.6468 0.9600
-7.2392 7.0018 -1.6467 0.9600
-7.7215 6.4632 -1.6464 0.9600
-7.0035 4.6813 -1.3773 0.9664
-7.2242 4.4621 -1.3883 0.9662
-8.7479 4.9786 -1.6457 0.9600
-8.9203 4.6610 -1.6456 0.9600
-9.7005 4.2126 -1.7291 0.9580
-10.3701 3.6436 -1.7971 0.9564
-10.6036 2.8899 -1.7969 0.9564
-10.7000 2.5073 -1.7968 0.9564
-10.8514 1.7330 -1.7967 0.9564
-10.9470 0.9499 -1.7966 0.9564
-10.9738 0.5563 -1.7965 0.9564
-10.9864 0.1620 -1.7965 0.9564
-10.9849 -0.2324 -1.7964 0.9564
-10.9693 -0.6266 -1.7964 0.9564
-10.8959 -1.4120 -1.7964 0.9564
-10.7665 -2.1901 -1.7964 0.9564
-10.6810 -2.5751 -1.7964 0.9564
-10.4689 -3.3349 -1.7964 0.9564
-10.0504 -4.4413 -1.7965 0.9564
-9.7065 -5.1513 -1.7966 0.9564
-9.0976 -6.1656 -1.7969 0.9564
-8.6326 -6.8032 -1.7971 0.9564
-8.3833 -7.1091 -1.7972 0.9564
-8.1232 -7.4059 -1.7973 0.9564
-7.8527 -7.6932 -1.7974 0.9564
-7.5719 -7.9706 -1.7975 0.9564
-6.3551 -8.9750 -1.7980 0.9564
-6.0294 -9.1981 -1.7982 0.9564
-5.6958 -9.4094 -1.7983 0.9564
-4.6525 -9.9699 -1.7988 0.9564
-4.2921 -10.1315 -1.7990 0.9564
-1.6388 -10.8885 -1.8003 0.9564
-1.2470 -10.9415 -1.8005 0.9563
0.6635 -10.0325 -1.8016 0.9600
0.9579 -9.3640 -1.6867 0.9625
1.3818 -9.9612 -1.8020 0.9600
1.9705 -6.8150 -1.2712 0.9716
2.2824 -6.1897 -1.1821 0.9735
2.5178 -6.1396 -1.1890 0.9734
2.8168 -6.2225 -1.2239 0.9726
3.6285 -6.1534 -1.2800 0.9714
3.9331 -6.1538 -1.3086 0.9708
4.2518 -6.1540 -1.3403 0.9701
5.3241 -6.1654 -1.4596 0.9674
6.8535 -7.3832 -1.8051 0.9599
7.1148 -7.1331 -1.8052 0.9599
7.8424 -6.3284 -1.8057 0.9599
8.4792 -5.4499 -1.8061 0.9599
8.8496 -4.8282 -1.8064 0.9599
9.0178 -4.5077 -1.8065 0.9599
9.1743 -4.1814 -1.8066 0.9599
9.3191 -3.8496 -1.8067 0.9599
9.4518 -3.5128 -1.8068 0.9599
9.5723 -3.1714 -1.8069 0.9599
9.7761 -2.4767 -1.8071 0.9598
9.8591 -2.1243 -1.8071 0.9598
9.9294 -1.7691 -1.8072 0.9598
10.0314 -1.0522 -1.8073 0.9598
10.0629 -0.6914 -1.8074 0.9598
10.0815 -0.3298 -1.8074 0.9598
10.0796 0.3944 -1.8075 0.9598
10.0591 0.7560 -1.8075 0.9598
10.0255 1.1166 -1.8075 0.9598
9.9196 1.8330 -1.8075 0.9598
9.6649 2.8887 -1.8075 0.9598
9.5548 3.2337 -1.8075 0.9598
9.2979 3.9108 -1.8074 0.9598
8.8228 4.8872 -1.8072 0.9598
8.6413 5.2006 -1.8072 0.9598
8.4488 5.5072 -1.8071 0.9598
8.2453 5.8067 -1.8070 0.9598
7.8067 6.3827 -1.8069 0.9599
7.3278 6.9256 -1.8067 0.9599
7.0740 7.1837 -1.8065 0.9599
6.2457 7.8836 -1.8022 0.9600
5.4665 7.4334 -1.6533 0.9632
5.1957 7.6242 -1.6532 0.9632
4.9183 7.8052 -1.6531 0.9632
4.6346 7.9761 -1.6529 0.9632
2.8210 8.7778 -1.6521 0.9632
2.5039 8.8725 -1.6519 0.9632
2.1836 8.9559 -1.6518 0.9632
1.8605 9.0276 -1.6516 0.9632
0.8789 9.1725 -1.6511 0.9632
0.5491 9.1972 -1.6509 0.9633
-0.4427 9.2000 -1.6504 0.9633
-1.1014 9.1426 -1.6501 0.9633
-1.4287 9.0962 -1.6499 0.9633
-2.0772 8.9684 -1.6495 0.9633
-2.3976 8.8871 -1.6494 0.9633
-3.3380 8.5751 -1.6488 0.9633
-3.6433 8.4489 -1.6487 0.9633
-4.5291 8.0058 -1.6482 0.9633
-4.8131 7.8373 -1.6480 0.9633
-5.0908 7.6588 -1.6478 0.9633
-5.3619 7.4704 -1.6477 0.9633
-5.8830 7.0651 -1.6474 0.9633
-6.1322 6.8487 -1.6472 0.9633
-6.6066 6.3900 -1.6469 0.9633
-6.8312 6.1482 -1.6468 0.9633
-7.0469 5.8985 -1.6467 0.9633
-7.2535 5.6413 -1.6465 0.9633
-7.4507 5.3769 -1.6464 0.9633
-6.9981 4.6776 -1.5083 0.9664
-7.2151 4.4565 -1.5196 0.9661
-7.9839 4.5438 -1.6460 0.9634
-9.3397 3.6633 -1.7977 0.9601
-9.5775 2.9834 -1.7975 0.9601
-9.6779 2.6376 -1.7974 0.9601
-9.7659 2.2884 -1.7973 0.9601
-9.9042 1.5817 -1.7972 0.9601
-2.0428 0.2514 -0.3688 0.9917
-2.0521 0.1781 -0.3691 0.9917
-2.0422 0.1035 -0.3664 0.9917
-2.0197 0.0298 -0.3619 0.9918
-2.0246 -0.0428 -0.3629 0.9918
-2.0516 -0.1913 -0.3692 0.9917
-9.6582 -2.6988 -1.7969 0.9601
-9.5552 -3.0438 -1.7969 0.9601
-9.4400 -3.3849 -1.7970 0.9601
-9.1732 -4.0536 -1.7970 0.9601
-8.8592 -4.7016 -1.7971 0.9601
-8.4997 -5.3255 -1.7973 0.9601
-8.3034 -5.6274 -1.7973 0.9601
-8.0964 -5.9221 -1.7974 0.9601
-7.8790 -6.2092 -1.7975 0.9601
-7.6514 -6.4884 -1.7976 0.9601
-7.4140 -6.7592 -1.7977 0.9601
-7.1670 -7.0214 -1.7978 0.9600
-6.9107 -7.2746 -1.7979 0.9600
-6.6456 -7.5183 -1.7980 0.9600
-6.0899 -7.9770 -1.7983 0.9600
-5.8000 -8.1910 -1.7984 0.9600
-4.2460 -9.0987 -1.7991 0.9600
-3.9170 -9.2461 -1.7993 0.9600
-3.5829 -9.3816 -1.7995 0.9600
-2.9011 -9.6162 -1.7998 0.9600
-2.5543 -9.7151 -1.8000 0.9600
-1.8510 -9.8752 -1.8003 0.9600
-1.1380 -9.9846 -1.8007 0.9600
-0.7159 -9.2100 -1.8010 0.9631
-0.3849 -9.2307 -1.8011 0.9630
0.2784 -9.2363 -1.8015 0.9630
0.9405 -9.1943 -1.8018 0.9630
1.9241 -9.0426 -1.8024 0.9630
1.9778 -6.8404 -1.3882 0.9714
2.0861 -6.3511 -1.3033 0.9731
2.2740 -6.1670 -1.2814 0.9736
3.0498 -6.1406 -1.3367 0.9724
4.2457 -6.1452 -1.4562 0.9700
4.9490 -6.1652 -1.5413 0.9683
5.3234 -6.1646 -1.5879 0.9674
6.2983 -6.7851 -1.8048 0.9630
6.5383 -6.5552 -1.8050 0.9630
6.7700 -6.3167 -1.8051 0.9630
7.7919 -5.0082 -1.8058 0.9630
7.9672 -4.7256 -1.8059 0.9630
8.1322 -4.4368 -1.8060 0.9630
8.4305 -3.8424 -1.8062 0.9629
8.8954 -2.5968 -1.8066 0.9629
9.1769 -1.2971 -1.8069 0.9629
9.2468 -0.6354 -1.8070 0.9629
9.2638 -0.3030 -1.8070 0.9629
9.2689 0.0297 -1.8070 0.9629
9.2432 0.6947 -1.8071 0.9629
9.2123 1.0260 -1.8071 0.9629
9.1696 1.3560 -1.8071 0.9629
9.1150 1.6843 -1.8071 0.9629
8.6674 3.2846 -1.8070 0.9629
8.1072 4.4909 -1.8068 0.9629
7.9405 4.7789 -1.8068 0.9629
7.7636 5.0606 -1.8067 0.9629
6.7337 6.3641 -1.8063 0.9629
6.5005 6.6013 -1.8062 0.9629
6.2590 6.8300 -1.8061 0.9629
5.7374 7.2420 -1.8012 0.9630
5.0234 6.8309 -1.6530 0.9660
4.2590 7.3298 -1.6527 0.9660
3.7217 7.6152 -1.6524 0.9660
3.4456 7.7433 -1.6523 0.9661
2.3011 8.1540 -1.6517 0.9661
1.7098 8.2966 -1.6515 0.9661
1.4108 8.3519 -1.6513 0.9661
0.5046 8.4527 -1.6508 0.9661
0.2008 8.4646 -1.6507 0.9661
-1.0123 8.4029 -1.6500 0.9661
-1.6123 8.3070 -1.6497 0.9661
-2.2037 8.1684 -1.6494 0.9661
-3.3488 7.7659 -1.6488 0.9661
-3.6250 7.6400 -1.6486 0.9661
-4.1631 7.3588 -1.6483 0.9661
-4.6795 7.0399 -1.6480 0.9661
-5.6369 6.2955 -1.6474 0.9661
-6.2795 5.6517 -1.6470 0.9662
-6.4778 5.4222 -1.6469 0.9662
-6.8492 4.9428 -1.6467 0.9662
-7.1852 4.4380 -1.6465 0.9662
-8.0472 4.2048 -1.7701 0.9637
-8.3062 3.9673 -1.7946 0.9632
-8.4600 3.6738 -1.7981 0.9631
-8.5859 3.3676 -1.7980 0.9631
-8.7008 3.0571 -1.7979 0.9631
-1.7138 0.3372 -0.3405 0.9929
-1.6983 0.2712 -0.3353 0.9930
-1.7039 0.2097 -0.3347 0.9930
-1.7084 0.0866 -0.3335 0.9931
-1.7072 0.0252 -0.3329 0.9931
-1.7076 -0.0361 -0.3330 0.9931
-1.7069 -0.1591 -0.3342 0.9930
-1.7395 -0.4194 -0.3489 0.9927
-1.7595 -0.4917 -0.3562 0.9926
-1.7775 -0.5662 -0.3637 0.9924
-8.6784 -3.1118 -1.7974 0.9631
-8.5612 -3.4214 -1.7974 0.9631
-7.9843 -4.6120 -1.7976 0.9631
-7.8138 -4.8958 -1.7977 0.9631
-7.6333 -5.1733 -1.7977 0.9631
-7.0339 -5.9647 -1.7980 0.9631
-6.5885 -6.4547 -1.7982 0.9631
-5.3317 -7.5297 -1.7987 0.9631
-4.4924 -8.0610 -1.7991 0.9631
-4.2004 -8.2177 -1.7992 0.9631
-3.6006 -8.4992 -1.7995 0.9631
-2.9820 -8.7371 -1.7998 0.9631
-2.6667 -8.8393 -1.8000 0.9631
-2.0260 -9.0094 -1.8003 0.9631
-1.7014 -9.0772 -1.8005 0.9631
0.8698 -8.5025 -1.8019 0.9657
1.7793 -8.3620 -1.8023 0.9657
1.9840 -6.8619 -1.5059 0.9712
2.0833 -6.3424 -1.4074 0.9731
3.6194 -6.1380 -1.5022 0.9713
3.9236 -6.1390 -1.5360 0.9707
5.1143 -6.8619 -1.8042 0.9656
5.5943 -6.4783 -1.8045 0.9656
5.8237 -6.2738 -1.8046 0.9656
6.0456 -6.0612 -1.8048 0.9656
6.2598 -5.8407 -1.8049 0.9656
6.4658 -5.6126 -1.8050 0.9656
6.8528 -5.1349 -1.8053 0.9656
7.0332 -4.8860 -1.8054 0.9656
7.3665 -4.3693 -1.8056 0.9656
7.7948 -3.5526 -1.8059 0.9656
8.0304 -2.9845 -1.8061 0.9656
8.3057 -2.1042 -1.8063 0.9656
8.4359 -1.5030 -1.8065 0.9656
8.5458 0.6422 -1.8067 0.9656
8.5173 0.9486 -1.8067 0.9656
8.4778 1.2537 -1.8067 0.9656
8.2939 2.1579 -1.8067 0.9656
8.2110 2.4542 -1.8067 0.9656
8.1175 2.7473 -1.8067 0.9656
8.0135 3.0369 -1.8067 0.9656
7.8992 3.3225 -1.8066 0.9656
7.7747 3.6038 -1.8066 0.9656
7.4957 4.1521 -1.8065 0.9656
6.6326 5.4228 -1.8062 0.9656
6.2259 5.8842 -1.8060 0.9656
5.5563 6.5183 -1.8057 0.9656
5.3063 6.6978 -1.8014 0.9657
4.7304 6.4324 -1.6833 0.9679
4.4147 6.4781 -1.6527 0.9685
4.1790 6.6320 -1.6526 0.9685
3.4411 7.0413 -1.6522 0.9685
3.1859 7.1598 -1.6521 0.9685
2.9267 7.2690 -1.6520 0.9685
2.6636 7.3688 -1.6519 0.9685
2.3972 7.4591 -1.6517 0.9685
1.3045 7.7228 -1.6512 0.9685
0.1857 7.8273 -1.6506 0.9685
-0.0954 7.8282 -1.6505 0.9685
-0.9361 7.7705 -1.6500 0.9685
-1.2143 7.7312 -1.6499 0.9685
-1.4909 7.6820 -1.6497 0.9685
-1.7656 7.6228 -1.6496 0.9685
-2.0379 7.5538 -1.6494 0.9685
-2.5741 7.3868 -1.6491 0.9685
-3.3524 7.0654 -1.6487 0.9685
-3.8500 6.8055 -1.6484 0.9685
-4.3277 6.5106 -1.6481 0.9685
-4.5582 6.3506 -1.6480 0.9685
-5.0013 6.0062 -1.6477 0.9686
-5.4185 5.6311 -1.6475 0.9686
-5.6167 5.4325 -1.6474 0.9686
-5.8077 5.2270 -1.6472 0.9686
-5.9912 5.0148 -1.6471 0.9686
-6.4943 4.3408 -1.6468 0.9686
-6.8306 4.2190 -1.6926 0.9677
-7.3815 4.2009 -1.7905 0.9659
-7.6980 3.6768 -1.7985 0.9657
-1.6255 0.5711 -0.3632 0.9930
-1.6130 0.5025 -0.3562 0.9931
-1.5642 0.2498 -0.3340 0.9935
-1.5731 0.0232 -0.3317 0.9936
-1.5739 -0.0899 -0.3324 0.9936
-1.5631 -0.2599 -0.3341 0.9935
-1.5695 -0.3193 -0.3377 0.9935
-1.5865 -0.3825 -0.3441 0.9934
-1.6154 -0.5146 -0.3574 0.9931
-1.6275 -0.5836 -0.3645 0.9930
-7.6714 -3.7247 -1.7978 0.9657
-7.5330 -3.9978 -1.7979 0.9657
-7.3848 -4.2657 -1.7979 0.9657
-7.2272 -4.5282 -1.7980 0.9657
-6.8842 -5.0354 -1.7981 0.9657
-6.5057 -5.5169 -1.7983 0.9657
-5.8758 -6.1852 -1.7986 0.9657
-4.1548 -7.4554 -1.7993 0.9657
-3.3300 -7.8605 -1.7997 0.9657
-3.0459 -7.9756 -1.7999 0.9657
-2.7579 -8.0804 -1.8000 0.9657
-2.4662 -8.1749 -1.8001 0.9657
-1.8737 -8.3321 -1.8004 0.9657
-1.5735 -8.3947 -1.8006 0.9657
-0.3309 -7.9357 -1.8013 0.9679
0.2393 -7.9404 -1.8016 0.9679
0.5243 -7.9273 -1.8017 0.9679
1.0918 -7.8706 -1.8020 0.9679
1.3738 -7.8270 -1.8022 0.9679
1.9321 -7.7095 -1.8025 0.9679
2.2078 -7.6358 -1.8026 0.9679
2.5202 -6.1455 -1.5064 0.9731
2.7811 -6.1438 -1.5294 0.9727
3.3258 -6.1331 -1.5822 0.9718
4.0397 -6.8508 -1.8037 0.9679
4.2833 -6.7019 -1.8038 0.9679
4.5215 -6.5443 -1.8039 0.9679
4.7539 -6.3783 -1.8041 0.9679
4.9801 -6.2040 -1.8042 0.9679
5.4132 -5.8315 -1.8045 0.9679
5.8184 -5.4289 -1.8047 0.9679
6.0100 -5.2169 -1.8048 0.9679
6.1937 -4.9981 -1.8050 0.9679
6.5372 -4.5414 -1.8052 0.9679
6.6964 -4.3041 -1.8053 0.9679
6.8469 -4.0612 -1.8054 0.9679
6.9887 -3.8129 -1.8055 0.9679
7.1214 -3.5598 -1.8056 0.9679
7.3592 -3.0400 -1.8058 0.9679
7.4639 -2.7740 -1.8058 0.9679
7.5589 -2.5044 -1.8059 0.9679
7.8407 -1.3969 -1.8062 0.9679
7.9460 -0.5460 -1.8063 0.9679
7.9649 0.0255 -1.8064 0.9679
7.9590 0.3114 -1.8064 0.9679
7.9428 0.5969 -1.8064 0.9679
7.8327 1.4474 -1.8064 0.9679
7.7756 1.7276 -1.8064 0.9679
7.7086 2.0056 -1.8064 0.9679
7.3418 3.0881 -1.8063 0.9679
7.2261 3.3495 -1.8063 0.9679
6.9668 3.8592 -1.8062 0.9679
6.8236 4.1066 -1.8061 0.9679
6.6716 4.3488 -1.8061 0.9679
6.3419 4.8159 -1.8059 0.9679
5.9796 5.2581 -1.8058 0.9679
5.7867 5.4691 -1.8057 0.9679
5.3789 5.8696 -1.8055 0.9679
5.1644 6.0586 -1.8054 0.9679
4.1034 6.0213 -1.6525 0.9706
3.8844 6.1643 -1.6524 0.9706
2.9613 6.6551 -1.6520 0.9706
2.4759 6.8494 -1.6517 0.9706
2.2282 6.9334 -1.6516 0.9706
1.9778 7.0083 -1.6515 0.9706
1.7248 7.0743 -1.6513 0.9706
1.4696 7.1311 -1.6512 0.9706
0.9541 7.2170 -1.6510 0.9706
-0.3498 7.2684 -1.6503 0.9706
-1.1288 7.1869 -1.6499 0.9706
-1.3860 7.1411 -1.6497 0.9706
-1.8944 7.0221 -1.6495 0.9706
-2.8790 6.6765 -1.6489 0.9706
-3.8037 6.1937 -1.6484 0.9706
-4.0233 6.0527 -1.6483 0.9706
-4.2376 5.9039 -1.6481 0.9706
-4.4465 5.7476 -1.6480 0.9706
-4.6496 5.5839 -1.6479 0.9706
-4.8467 5.4130 -1.6478 0.9706
-5.0375 5.2351 -1.6476 0.9706
-5.2218 5.0506 -1.6475 0.9706
-5.3994 4.8596 -1.6474 0.9706
-5.7334 4.4591 -1.6472 0.9706
-5.8894 4.2501 -1.6471 0.9707
-6.3044 4.2139 -1.7197 0.9694
-6.7237 4.1530 -1.7923 0.9681
-7.0301 3.6734 -1.7989 0.9680
-7.1571 3.4185 -1.7988 0.9680
-1.4942 0.5860 -0.3640 0.9934
-1.4552 0.3410 -0.3390 0.9939
-1.4491 0.2314 -0.3328 0.9940
-1.4585 0.0739 -0.3312 0.9940
-1.4584 -0.0833 -0.3313 0.9940
-1.4569 -0.1358 -0.3318 0.9940
-1.4480 -0.2408 -0.3329 0.9940
-1.4441 -0.2937 -0.3342 0.9940
-1.4575 -0.3514 -0.3400 0.9939
-1.4695 -0.4106 -0.3460 0.9938
-1.4886 -0.5338 -0.3586 0.9935
-1.4952 -0.5975 -0.3652 0.9934
-7.2521 -3.2047 -1.7981 0.9680
-7.1326 -3.4631 -1.7981 0.9680
-7.0038 -3.7170 -1.7982 0.9680
-6.8661 -3.9661 -1.7982 0.9680
-6.7195 -4.2101 -1.7983 0.9680
-6.5642 -4.4487 -1.7984 0.9680
-6.4005 -4.6817 -1.7984 0.9680
-6.2286 -4.9086 -1.7985 0.9680
-5.6655 -5.5505 -1.7987 0.9680
-4.5846 -6.4746 -1.7992 0.9680
-4.1088 -6.7877 -1.7994 0.9680
-3.8627 -6.9312 -1.7995 0.9680
-3.3559 -7.1915 -1.7998 0.9680
-3.0958 -7.3078 -1.7999 0.9680
-2.8317 -7.4148 -1.8000 0.9680
-2.5639 -7.5122 -1.8002 0.9680
-2.2928 -7.5999 -1.8003 0.9680
-2.0187 -7.6779 -1.8004 0.9680
-1.7419 -7.7460 -1.8006 0.9680
-0.5748 -7.3942 -1.8012 0.9699
-0.0428 -7.4175 -1.8015 0.9699
0.2235 -7.4149 -1.8016 0.9699
0.4896 -7.4026 -1.8018 0.9699
0.7550 -7.3809 -1.8019 0.9699
1.0196 -7.3496 -1.8020 0.9699
1.5445 -7.2586 -1.8023 0.9699
2.0616 -7.1302 -1.8026 0.9699
2.5192 -6.1431 -1.6125 0.9730
3.3029 -6.6501 -1.8033 0.9699
3.5397 -6.5277 -1.8034 0.9699
3.7721 -6.3969 -1.8036 0.9699
4.4388 -5.9556 -1.8040 0.9699
4.8554 -5.6226 -1.8042 0.9699
5.2470 -5.2604 -1.8044 0.9699
5.4327 -5.0690 -1.8046 0.9699
5.6116 -4.8710 -1.8047 0.9699
5.7831 -4.6667 -1.8048 0.9699
5.9473 -4.4564 -1.8049 0.9699
6.1037 -4.2403 -1.8050 0.9699
6.2524 -4.0187 -1.8051 0.9699
6.6492 -3.3237 -1.8054 0.9699
7.0576 -2.3383 -1.8057 0.9699
7.1372 -2.0835 -1.8057 0.9699
7.2688 -1.5662 -1.8058 0.9699
7.3956 -0.7757 -1.8060 0.9699
7.4365 0.0238 -1.8061 0.9699
7.4158 0.5573 -1.8061 0.9699
7.3911 0.8232 -1.8061 0.9699
7.1972 1.8725 -1.8061 0.9699
7.1252 2.1297 -1.8061 0.9699
7.0441 2.3840 -1.8061 0.9699
6.9539 2.6353 -1.8061 0.9699
6.8547 2.8832 -1.8060 0.9699
6.5047 3.6031 -1.8059 0.9699
6.0791 4.2812 -1.8058 0.9699
5.9213 4.4965 -1.8057 0.9699
5.5830 4.9093 -1.8056 0.9699
5.4029 5.1064 -1.8055 0.9699
5.2159 5.2968 -1.8054 0.9699
4.8220 5.6568 -1.8052 0.9699
3.9129 5.7418 -1.6875 0.9718
3.6268 5.7557 -1.6522 0.9724
3.4177 5.8818 -1.6521 0.9724
3.2042 6.0003 -1.6520 0.9724
2.9865 6.1111 -1.6519 0.9724
2.7650 6.2140 -1.6518 0.9724
1.6105 6.6056 -1.6512 0.9724
1.3723 6.6586 -1.6511 0.9724
0.8909 6.7389 -1.6509 0.9724
0.1612 6.7941 -1.6505 0.9724
-0.0828 6.7950 -1.6504 0.9724
-0.5700 6.7705 -1.6501 0.9724
-1.5326 6.6171 -1.6496 0.9724
-2.0031 6.4891 -1.6493 0.9724
-2.2346 6.4125 -1.6492 0.9724
-2.4632 6.3277 -1.6491 0.9724
-2.9104 6.1337 -1.6488 0.9724
-3.1284 6.0248 -1.6487 0.9724
-3.3424 5.9082 -1.6486 0.9724
-3.5521 5.7840 -1.6485 0.9724
-3.7572 5.6524 -1.6484 0.9724
-4.1524 5.3675 -1.6481 0.9725
-4.5262 5.0550 -1.6479 0.9725
-4.7044 4.8890 -1.6478 0.9725
-4.8766 4.7167 -1.6477 0.9725
-5.2018 4.3541 -1.6475 0.9725
-5.4297 4.2229 -1.6706 0.9721
-5.8322 4.2088 -1.7467 0.9708
-6.1392 4.1035 -1.7934 0.9701
-6.2950 3.8882 -1.7969 0.9700
-6.6841 3.1926 -1.7990 0.9700
-1.3636 0.4248 -0.3469 0.9941
-1.3491 0.2154 -0.3318 0.9944
-1.3583 0.0689 -0.3303 0.9944
-1.3579 -0.0287 -0.3299 0.9944
-1.3566 -0.1265 -0.3309 0.9944
-1.3480 -0.2242 -0.3319 0.9944
-1.3475 -0.3249 -0.3366 0.9943
-1.3570 -0.3792 -0.3422 0.9942
-1.3649 -0.4348 -0.3479 0.9941
-1.3709 -0.4915 -0.3537 0.9940
-1.3769 -0.6085 -0.3656 0.9938
-6.5411 -3.4714 -1.7985 0.9700
-6.4125 -3.7041 -1.7985 0.9700
-6.2755 -3.9320 -1.7986 0.9700
-5.9776 -4.3723 -1.7987 0.9700
-5.2912 -5.1837 -1.7990 0.9700
-4.7039 -5.7233 -1.7992 0.9700
-4.4957 -5.8888 -1.7993 0.9700
-4.2816 -6.0467 -1.7994 0.9700
-4.0620 -6.1968 -1.7995 0.9700
-3.8372 -6.3390 -1.7996 0.9700
-3.3729 -6.5988 -1.7998 0.9700
-2.3944 -7.0154 -1.8003 0.9699
-2.1412 -7.0973 -1.8004 0.9699
-0.8398 -7.3682 -1.8011 0.9699
-0.0401 -6.9539 -1.8015 0.9717
0.2095 -6.9514 -1.8017 0.9717
0.4590 -6.9399 -1.8018 0.9717
1.2026 -6.8519 -1.8022 0.9717
1.4479 -6.8048 -1.8023 0.9717
1.6914 -6.7489 -1.8024 0.9717
1.9327 -6.6843 -1.8026 0.9717
2.1715 -6.6111 -1.8027 0.9717
2.4076 -6.5294 -1.8028 0.9717
2.5180 -6.1401 -1.7192 0.9730
2.8703 -6.3407 -1.8031 0.9717
3.0963 -6.2341 -1.8032 0.9716
3.3183 -6.1193 -1.8034 0.9716
3.5361 -5.9967 -1.8035 0.9716
3.7493 -5.8663 -1.8036 0.9716
3.9577 -5.7283 -1.8037 0.9716
4.1611 -5.5829 -1.8038 0.9716
4.5515 -5.2707 -1.8041 0.9716
4.7380 -5.1042 -1.8042 0.9716
5.2602 -4.5661 -1.8045 0.9716
5.4211 -4.3746 -1.8046 0.9716
5.7216 -3.9748 -1.8048 0.9716
5.8609 -3.7670 -1.8049 0.9716
5.9926 -3.5544 -1.8050 0.9716
6.2327 -3.1156 -1.8052 0.9716
6.3408 -2.8900 -1.8052 0.9716
6.5324 -2.4278 -1.8054 0.9716
6.7562 -1.7117 -1.8056 0.9716
6.8135 -1.4681 -1.8056 0.9716
6.9016 -0.9755 -1.8057 0.9716
6.9541 -0.4778 -1.8058 0.9716
6.9706 0.0223 -1.8058 0.9716
6.9654 0.2725 -1.8059 0.9716
6.7462 1.7552 -1.8059 0.9716
6.4253 2.7026 -1.8058 0.9716
6.3241 2.9314 -1.8058 0.9716
5.9719 3.5940 -1.8056 0.9716
5.6983 4.0130 -1.8055 0.9716
5.3953 4.4112 -1.8054 0.9716
5.2333 4.6019 -1.8053 0.9716
5.0646 4.7866 -1.8053 0.9716
4.7077 5.1371 -1.8051 0.9716
4.3266 5.4611 -1.8050 0.9716
4.1183 5.6002 -1.8008 0.9717
3.8846 5.7002 -1.7870 0.9719
3.4078 5.4081 -1.6560 0.9739
3.0036 5.6247 -1.6519 0.9740
2.1671 5.9952 -1.6515 0.9740
1.9504 6.0687 -1.6514 0.9740
1.7312 6.1345 -1.6513 0.9740
1.5097 6.1922 -1.6512 0.9740
1.2864 6.2420 -1.6510 0.9740
1.0614 6.2837 -1.6509 0.9740
0.6078 6.3428 -1.6507 0.9740
0.3797 6.3601 -1.6506 0.9740
-0.3062 6.3627 -1.6502 0.9740
-0.5343 6.3471 -1.6501 0.9740
-1.6585 6.1474 -1.6495 0.9740
-1.8779 6.0835 -1.6494 0.9740
-3.1336 5.5391 -1.6487 0.9740
-3.5225 5.2993 -1.6484 0.9740
-3.7101 5.1691 -1.6483 0.9741
-3.8930 5.0322 -1.6482 0.9741
-4.0709 4.8889 -1.6481 0.9741
-4.5720 4.4221 -1.6478 0.9741
-5.4051 4.2038 -1.7739 0.9721
-5.6171 4.0536 -1.7945 0.9718
-5.9096 3.6502 -1.7994 0.9717
-1.2893 0.5599 -0.3641 0.9942
-1.2890 0.5056 -0.3587 0.9943
-1.2874 0.4523 -0.3535 0.9944
-1.2805 0.3490 -0.3438 0.9945
-1.2799 0.2518 -0.3379 0.9946
-1.2877 0.1585 -0.3361 0.9947
-1.2909 0.0190 -0.3344 0.9947
-1.2872 -0.1668 -0.3363 0.9947
-1.2837 -0.2135 -0.3371 0.9946
-1.2790 -0.2602 -0.3381 0.9946
-1.2813 -0.3580 -0.3446 0.9945
-1.2878 -0.4618 -0.3544 0.9944
-1.2892 -0.5152 -0.3597 0.9943
-1.2879 -0.6253 -0.3709 0.9941
-6.1330 -3.2548 -1.7987 0.9717
-6.0123 -3.4729 -1.7987 0.9717
-5.8839 -3.6866 -1.7988 0.9717
-5.7480 -3.8955 -1.7988 0.9717
-5.4540 -4.2982 -1.7989 0.9717
-5.1320 -4.6788 -1.7991 0.9717
-4.7834 -5.0353 -1.7992 0.9717
-4.5999 -5.2040 -1.7993 0.9717
-4.0143 -5.6692 -1.7996 0.9717
-3.3821 -6.0689 -1.7999 0.9717
-3.1623 -6.1867 -1.8000 0.9717
-2.9383 -6.2966 -1.8001 0.9717
-2.7106 -6.3984 -1.8002 0.9717
-2.2448 -6.5772 -1.8004 0.9717
-2.0074 -6.6540 -1.8005 0.9717
-1.7674 -6.7222 -1.8006 0.9717
-1.0347 -6.8746 -1.8010 0.9717
-0.7873 -6.9079 -1.8011 0.9717
-0.2725 -6.5358 -1.8014 0.9732
0.4318 -6.5286 -1.8018 0.9732
1.1313 -6.4457 -1.8022 0.9732
1.3621 -6.4013 -1.8023 0.9732
1.5911 -6.3488 -1.8024 0.9732
1.8181 -6.2880 -1.8026 0.9732
2.0428 -6.2191 -1.8027 0.9732
2.2649 -6.1422 -1.8028 0.9732
2.7000 -5.9647 -1.8030 0.9732
2.9126 -5.8643 -1.8032 0.9732
3.1215 -5.7563 -1.8033 0.9732
3.3263 -5.6410 -1.8034 0.9732
3.5269 -5.5183 -1.8035 0.9732
3.9142 -5.2517 -1.8037 0.9732
4.2814 -4.9579 -1.8040 0.9732
4.4569 -4.8013 -1.8041 0.9732
4.6266 -4.6385 -1.8042 0.9732
4.7904 -4.4697 -1.8043 0.9732
5.0993 -4.1149 -1.8045 0.9732
5.2440 -3.9294 -1.8046 0.9732
5.3819 -3.7388 -1.8047 0.9732
5.6368 -3.3434 -1.8048 0.9732
5.8627 -2.9306 -1.8050 0.9732
5.9644 -2.7184 -1.8051 0.9732
6.1445 -2.2836 -1.8052 0.9732
6.3550 -1.6100 -1.8054 0.9732
6.4917 -0.9175 -1.8055 0.9732
6.5206 -0.6839 -1.8055 0.9732
6.5531 -0.2144 -1.8056 0.9732
6.5517 0.2563 -1.8056 0.9732
6.5383 0.4914 -1.8056 0.9732
6.5165 0.7258 -1.8057 0.9732
6.4008 1.4221 -1.8057 0.9732
6.3456 1.6510 -1.8057 0.9732
6.2107 2.1019 -1.8056 0.9732
5.8455 2.9690 -1.8055 0.9732
5.7351 3.1769 -1.8055 0.9732
5.6172 3.3806 -1.8054 0.9732
4.9226 4.3286 -1.8052 0.9732
4.7638 4.5023 -1.8051 0.9732
4.5990 4.6703 -1.8050 0.9732
4.2517 4.9878 -1.8049 0.9732
4.0697 5.1369 -1.8048 0.9732
3.6793 5.3990 -1.7992 0.9733
3.0162 5.1908 -1.6533 0.9754
2.8253 5.2909 -1.6518 0.9754
2.6334 5.3886 -1.6517 0.9754
2.4382 5.4793 -1.6516 0.9754
1.2101 5.8717 -1.6510 0.9754
0.7856 5.9426 -1.6508 0.9754
0.1422 5.9914 -1.6504 0.9754
-0.9296 5.9185 -1.6499 0.9755
-1.1414 5.8809 -1.6497 0.9755
-1.5602 5.7831 -1.6495 0.9755
-1.9708 5.6555 -1.6493 0.9755
-2.1724 5.5807 -1.6492 0.9755
-2.3711 5.4987 -1.6491 0.9755
-2.7592 5.3137 -1.6488 0.9755
-2.9479 5.2109 -1.6487 0.9755
-3.3138 4.9854 -1.6485 0.9755
-3.4904 4.8629 -1.6484 0.9755
-3.6625 4.7342 -1.6483 0.9755
-4.1494 4.3122 -1.6480 0.9755
-4.6790 4.2112 -1.7335 0.9742
-4.9919 4.1784 -1.7927 0.9734
-5.2960 3.8219 -1.7986 0.9733
-5.5598 3.4341 -1.7996 0.9733
-5.6792 3.2321 -1.7995 0.9733
-1.2201 0.6375 -0.3791 0.9943
-1.2235 0.5844 -0.3734 0.9944
-1.2261 0.4809 -0.3627 0.9946
-1.2254 0.4306 -0.3577 0.9946
-1.2212 0.2862 -0.3454 0.9948
-1.2346 0.1520 -0.3425 0.9949
-1.2378 0.0628 -0.3413 0.9949
-1.2378 -0.0262 -0.3409 0.9949
-1.2377 -0.0707 -0.3414 0.9949
-1.2305 -0.2046 -0.3435 0.9948
-1.2240 -0.3899 -0.3538 0.9947
-1.2261 -0.4900 -0.3636 0.9945
-1.2252 -0.5414 -0.3689 0.9945
-1.2230 -0.5938 -0.3744 0.9944
-5.4078 -3.6650 -1.7990 0.9733
-5.1312 -4.0438 -1.7991 0.9733
-4.9829 -4.2255 -1.7992 0.9733
-4.6673 -4.5725 -1.7993 0.9733
-4.5003 -4.7373 -1.7994 0.9733
-4.1492 -5.0484 -1.7996 0.9733
-3.3846 -5.5913 -1.7999 0.9732
-3.1819 -5.7095 -1.8000 0.9732
-2.9750 -5.8204 -1.8001 0.9732
-2.5501 -6.0195 -1.8003 0.9732
-2.3325 -6.1075 -1.8004 0.9732
-2.1119 -6.1877 -1.8005 0.9732
-1.6627 -6.3240 -1.8007 0.9732
-1.4347 -6.3800 -1.8009 0.9732
-0.4784 -6.1537 -1.8014 0.9746
0.1860 -6.1707 -1.8017 0.9746
0.4074 -6.1604 -1.8018 0.9746
0.6283 -6.1422 -1.8020 0.9746
1.0675 -6.0821 -1.8022 0.9746
