ply
format ascii 1.0
element vertex 1572
property float32 x
property float32 y
property float32 z
property float32 I
end_header
32.2910 -5.7531 -1.8192 0.8769
32.6206 -3.4215 -1.8192 0.8769
32.7805 -1.0723 -1.8191 0.8769
32.7966 0.1051 -1.8190 0.8769
32.5889 3.6296 -1.8187 0.8769
29.5122 5.4534 -1.6646 0.8867
28.7443 8.5913 -1.6640 0.8868
25.5992 10.7673 -1.5403 0.8947
25.6313 11.8810 -1.5669 0.8930
28.3383 14.3933 -1.7629 0.8804
14.3872 9.3781 -0.9525 0.9335
14.0886 10.6985 -0.9812 0.9316
14.1066 13.3323 -1.0766 0.9252
19.6153 24.7591 -1.7520 0.8811
15.3489 20.8715 -1.4369 0.9014
12.1635 30.2111 -1.8063 0.8777
11.0676 30.6182 -1.8057 0.8777
9.9581 30.9854 -1.8051 0.8778
5.5874 19.7991 -1.1410 0.9209
5.3454 21.9243 -1.2516 0.9136
4.5094 21.8811 -1.2391 0.9144
3.8982 29.4878 -1.6497 0.8877
1.7713 29.6716 -1.6486 0.8877
-0.1411 11.5823 -0.6424 0.9547
-0.6615 13.7454 -0.7633 0.9464
-1.6567 13.7517 -0.7682 0.9460
-2.1392 13.6198 -0.7647 0.9463
-2.2516 11.6010 -0.6554 0.9538
-3.1607 11.7158 -0.6730 0.9525
-4.0959 11.7537 -0.6904 0.9514
-4.5765 11.7567 -0.6997 0.9507
-5.0101 11.6185 -0.7018 0.9506
-5.5786 11.7572 -0.7218 0.9492
-6.1067 11.7605 -0.7350 0.9483
-7.1625 11.6630 -0.7591 0.9466
-7.7344 11.6358 -0.7749 0.9456
-11.2179 11.6580 -0.8973 0.9372
-24.7207 20.6922 -1.7880 0.8788
-25.4431 19.7880 -1.7877 0.8789
-26.7889 17.9060 -1.7872 0.8789
-27.4104 16.9304 -1.7869 0.8789
-29.0614 13.8807 -1.7863 0.8790
-29.9769 11.7577 -1.7860 0.8790
-30.3775 10.6733 -1.7858 0.8790
-31.0615 8.4654 -1.7856 0.8790
-31.3442 7.3447 -1.7856 0.8790
-31.5868 6.2147 -1.7855 0.8790
-31.7891 5.0767 -1.7855 0.8790
-31.9508 3.9323 -1.7855 0.8790
-32.0717 2.7829 -1.7855 0.8790
-32.1516 1.6299 -1.7855 0.8790
-32.0605 -2.9891 -1.7859 0.8790
-31.9351 -4.1384 -1.7861 0.8790
-31.5620 -6.4202 -1.7864 0.8789
-31.3149 -7.5499 -1.7866 0.8789
-30.3343 -10.8771 -1.7874 0.8789
-12.9013 -6.2639 -0.7954 0.9442
-12.1970 -6.4730 -0.7659 0.9462
-11.9393 -6.8965 -0.7647 0.9463
-25.0264 -15.6804 -1.6380 0.8884
-10.5603 -9.6278 -0.7926 0.9444
-9.9002 -9.6991 -0.7687 0.9460
-9.8572 -10.3762 -0.7938 0.9443
-17.4918 -24.7027 -1.6788 0.8858
-16.6055 -25.3325 -1.6800 0.8857
-15.6968 -25.9310 -1.6812 0.8856
-14.7671 -26.4979 -1.6825 0.8856
-7.7472 -20.2856 -1.2044 0.9167
-6.9128 -20.2541 -1.1870 0.9178
-6.0548 -20.0699 -1.1627 0.9194
-4.5592 -20.2742 -1.1526 0.9201
-3.8015 -20.2813 -1.1445 0.9207
-3.1109 -20.6694 -1.1593 0.9197
-1.0735 -9.4192 -0.5258 0.9627
-0.7616 -9.7976 -0.6954 0.9614
0.6244 -9.4410 -0.6695 0.9628
0.9666 -9.4493 -0.6721 0.9626
1.3117 -9.4552 -0.6755 0.9624
1.6596 -9.4556 -0.6793 0.9622
2.0118 -9.4549 -0.6840 0.9620
2.1090 -6.4207 -0.4782 0.9733
2.6308 -6.4153 -0.4907 0.9726
2.8989 -6.4039 -0.4974 0.9722
3.1754 -6.3933 -0.5051 0.9718
3.7759 -6.4034 -0.5260 0.9706
12.6154 -19.7386 -1.6576 0.9103
14.6727 -18.2785 -1.6586 0.9103
15.3221 -17.7432 -1.6589 0.9103
15.9519 -17.1847 -1.6592 0.9103
17.1492 -16.0011 -1.6597 0.9102
17.7152 -15.3775 -1.6600 0.9102
19.6214 -14.7027 -1.7350 0.9064
20.9865 -14.5793 -1.8082 0.9026
21.5678 -13.8626 -1.8142 0.9023
22.0538 -13.0808 -1.8144 0.9023
22.5114 -12.2819 -1.8146 0.9023
24.0448 -8.9364 -1.8152 0.9023
22.6985 -7.5203 -1.6920 0.9086
24.6264 -7.1889 -1.8153 0.9022
25.0803 -5.4039 -1.8155 0.9022
25.2584 -4.5002 -1.8155 0.9022
25.5163 -2.6764 -1.8155 0.9022
25.5956 -1.7587 -1.8155 0.9022
25.6417 -0.8388 -1.8154 0.9022
25.6544 0.0822 -1.8154 0.9022
25.6339 1.0030 -1.8153 0.9022
25.5801 1.9224 -1.8152 0.9022
25.3730 3.7523 -1.8150 0.9023
25.1196 4.6417 -1.8076 0.9026
23.7852 5.2846 -1.7241 0.9069
22.8159 5.9361 -1.6682 0.9098
22.4883 6.7215 -1.6609 0.9102
21.2841 9.8659 -1.6600 0.9102
20.9131 10.6220 -1.6598 0.9102
20.1558 11.1650 -1.6305 0.9117
14.2924 9.3163 -1.2072 0.9339
14.0461 9.8919 -1.2157 0.9334
14.1051 11.5323 -1.2892 0.9295
14.0561 13.2845 -1.3686 0.9254
17.2791 18.8554 -1.8098 0.9025
16.5875 19.4593 -1.8094 0.9025
15.8747 20.0376 -1.8090 0.9026
15.1417 20.5899 -1.8085 0.9026
13.6190 21.6129 -1.8077 0.9026
9.5292 23.6679 -1.8054 0.9027
8.6712 23.9886 -1.8050 0.9028
5.2021 16.1867 -1.2031 0.9341
5.4478 19.3045 -1.4194 0.9227
5.3252 21.8414 -1.5908 0.9138
3.0555 23.1129 -1.6497 0.9107
1.3886 23.2604 -1.6489 0.9108
0.5526 23.2892 -1.6484 0.9108
-0.1411 11.5823 -0.8196 0.9546
-1.1575 13.7486 -0.9763 0.9462
-1.6567 13.7517 -0.9801 0.9460
-2.2516 11.6010 -0.8362 0.9537
-2.7203 11.7450 -0.8531 0.9528
-3.1607 11.7158 -0.8587 0.9525
-3.6273 11.7507 -0.8702 0.9519
-4.5765 11.7568 -0.8927 0.9507
-7.1435 11.6321 -0.9659 0.9467
-7.7344 11.6359 -0.9887 0.9455
-11.2179 11.6580 -1.1448 0.9372
-17.7680 14.8725 -1.6396 0.9113
-19.2565 12.8713 -1.6390 0.9113
-20.5223 10.7232 -1.6385 0.9113
-20.8922 9.9788 -1.6384 0.9113
-23.5421 9.2338 -1.7894 0.9036
-24.6170 5.7683 -1.7891 0.9036
-24.9666 3.9872 -1.7891 0.9036
-25.1885 2.1856 -1.7891 0.9036
-25.2512 1.2801 -1.7891 0.9036
-25.1785 -2.3475 -1.7894 0.9036
-24.9486 -4.1485 -1.7897 0.9036
-24.7856 -5.0417 -1.7898 0.9035
-24.3646 -6.8083 -1.7901 0.9035
-24.1071 -7.6794 -1.7903 0.9035
-23.8187 -8.5407 -1.7905 0.9035
-12.0572 -6.3988 -0.9659 0.9467
-20.9681 -14.2106 -1.7924 0.9034
-12.2256 -9.6347 -1.1015 0.9395
-10.8651 -9.9056 -1.0404 0.9427
-9.8887 -9.6878 -0.9796 0.9460
-9.6380 -10.9040 -1.0298 0.9433
-12.7413 -19.4374 -1.6446 0.9110
-12.0382 -19.8869 -1.6450 0.9110
-11.3193 -20.3112 -1.6454 0.9110
-10.2394 -20.0325 -1.5920 0.9137
-9.4326 -20.2133 -1.5784 0.9144
-7.7543 -20.3042 -1.5380 0.9165
-6.9144 -20.2589 -1.5148 0.9177
-6.0548 -20.0698 -1.4834 0.9194
-4.5602 -20.2790 -1.4708 0.9200
-3.8024 -20.2861 -1.4605 0.9206
-0.7616 -9.7976 -0.8461 0.9613
-0.3901 -9.3563 -0.8062 0.9631
0.9663 -9.4456 -0.8174 0.9626
1.6588 -9.4509 -0.8261 0.9622
2.0109 -9.4508 -0.8319 0.9620
1.8486 -6.3935 -0.5730 0.9736
2.3459 -6.3619 -0.5838 0.9731
2.8772 -6.3559 -0.6007 0.9724
3.4416 -6.3467 -0.6216 0.9714
10.3601 -16.2099 -1.6562 0.9257
11.5001 -15.4297 -1.6568 0.9256
12.7085 -14.7165 -1.6740 0.9249
13.6513 -14.7063 -1.7275 0.9226
15.3671 -14.3382 -1.8095 0.9191
17.7060 -11.3804 -1.8121 0.9190
18.4800 -10.0825 -1.8124 0.9190
18.8314 -9.4133 -1.8125 0.9189
19.1584 -8.7318 -1.8126 0.9189
19.4606 -8.0389 -1.8127 0.9189
19.7377 -7.3356 -1.8128 0.9189
20.4142 -5.1718 -1.8130 0.9189
20.7333 -3.6939 -1.8131 0.9189
20.8526 -2.9473 -1.8131 0.9189
21.0586 0.0675 -1.8130 0.9189
20.9979 1.5781 -1.8129 0.9189
20.8284 3.0802 -1.8127 0.9189
20.7030 3.8256 -1.8126 0.9189
20.1670 6.0277 -1.8121 0.9190
19.6788 7.4576 -1.8118 0.9190
19.3963 8.1583 -1.8116 0.9190
19.0888 8.8483 -1.8114 0.9190
18.4002 10.1925 -1.8109 0.9190
15.1143 9.0963 -1.5187 0.9316
14.0459 9.8918 -1.4790 0.9334
14.0945 10.7030 -1.5237 0.9314
11.1877 17.7546 -1.8067 0.9192
5.9239 10.1950 -1.0151 0.9538
5.5064 17.1337 -1.5494 0.9303
5.2090 18.4581 -1.6512 0.9259
3.1924 18.8989 -1.6501 0.9259
-0.6615 13.7454 -1.1848 0.9462
-1.1575 13.7486 -1.1878 0.9461
-1.6567 13.7517 -1.1925 0.9459
-2.7204 11.7450 -1.0379 0.9528
-4.5765 11.7568 -1.0862 0.9506
-5.5144 11.6218 -1.1075 0.9497
-8.3546 11.6398 -1.2335 0.9441
-9.0081 11.6440 -1.2674 0.9426
-9.6994 11.6484 -1.3050 0.9410
-10.4340 11.6531 -1.3466 0.9391
-12.0588 11.6634 -1.4443 0.9349
-13.9485 11.6754 -1.5660 0.9296
-15.0208 11.6822 -1.6383 0.9264
-15.4569 11.1546 -1.6411 0.9263
-15.8458 10.5915 -1.6409 0.9263
-16.2143 10.0150 -1.6408 0.9263
-16.5620 9.4257 -1.6406 0.9263
-17.7358 6.9565 -1.6402 0.9264
-17.9733 6.3150 -1.6401 0.9264
-20.4165 4.0169 -1.7914 0.9199
-20.5473 3.2814 -1.7914 0.9199
-20.6518 2.5417 -1.7914 0.9199
-20.7760 -1.1868 -1.7916 0.9198
-20.6394 -2.6746 -1.7918 0.9198
-20.5313 -3.4140 -1.7919 0.9198
-20.3969 -4.1490 -1.7920 0.9198
-20.0498 -5.6026 -1.7923 0.9198
-19.8375 -6.3193 -1.7924 0.9198
-19.5997 -7.0279 -1.7926 0.9198
-12.0264 -6.3825 -1.1722 0.9468
-12.1939 -9.6097 -1.3366 0.9396
-9.8252 -9.6257 -1.1842 0.9463
-9.7679 -10.2822 -1.2210 0.9447
-12.1291 -14.7576 -1.6446 0.9262
-11.5936 -15.1863 -1.6449 0.9262
-10.4782 -15.9850 -1.6455 0.9261
-8.7042 -17.0290 -1.6465 0.9261
-4.8691 -18.5194 -1.6486 0.9260
-4.2020 -18.6862 -1.6489 0.9260
-3.5293 -18.8291 -1.6493 0.9260
-2.8518 -18.9477 -1.6496 0.9260
-1.0735 -9.4191 -0.8162 0.9627
-0.3904 -9.3627 -0.9508 0.9630
-0.0540 -9.3594 -0.9497 0.9631
0.2842 -9.4299 -0.9572 0.9628
0.6240 -9.4360 -0.9595 0.9627
1.3104 -9.4457 -0.9676 0.9624
1.3155 -7.4948 -0.7721 0.9699
1.5055 -7.0753 -0.7340 0.9713
2.0789 -6.3290 -0.6759 0.9736
2.3315 -6.3230 -0.6838 0.9733
2.8555 -6.3080 -0.7026 0.9725
3.6933 -6.2633 -0.7378 0.9712
9.3951 -14.6999 -1.7701 0.9323
10.6482 -14.2867 -1.8079 0.9309
12.1318 -13.0693 -1.8093 0.9308
12.5945 -12.6269 -1.8095 0.9308
13.0411 -12.1680 -1.8097 0.9308
13.8833 -11.2032 -1.8101 0.9308
14.2778 -10.6987 -1.8103 0.9308
15.0111 -9.6483 -1.8106 0.9308
16.2418 -7.4025 -1.8111 0.9308
16.7326 -6.2187 -1.8112 0.9307
16.9457 -5.6143 -1.8113 0.9307
17.1368 -5.0025 -1.8113 0.9307
17.3057 -4.3843 -1.8114 0.9307
17.4523 -3.7603 -1.8114 0.9307
17.5762 -3.1315 -1.8114 0.9307
17.8109 -1.2238 -1.8114 0.9307
17.8430 -0.5837 -1.8114 0.9307
17.6574 2.6113 -1.8111 0.9308
17.5514 3.2432 -1.8110 0.9308
17.4225 3.8709 -1.8109 0.9308
17.2712 4.4936 -1.8108 0.9308
17.0975 5.1103 -1.8106 0.9308
16.9017 5.7202 -1.8105 0.9308
16.6841 6.3227 -1.8103 0.9308
15.9031 8.0773 -1.8098 0.9308
15.6012 8.6421 -1.8096 0.9308
15.2792 9.1955 -1.8094 0.9308
14.9375 9.7369 -1.8092 0.9308
14.0456 9.8916 -1.7431 0.9333
14.1969 10.7808 -1.8087 0.9308
12.9503 12.2395 -1.8080 0.9309
10.5487 14.3442 -1.8066 0.9309
9.4893 15.0591 -1.8060 0.9309
8.3815 15.6958 -1.8054 0.9310
5.0132 12.4516 -1.3619 0.9475
4.3122 13.4177 -1.4300 0.9449
4.4192 15.6598 -1.6510 0.9367
3.8536 15.8055 -1.6507 0.9367
2.1309 16.1193 -1.6498 0.9367
0.9686 16.2247 -1.6492 0.9367
0.3855 16.2460 -1.6489 0.9368
-0.1411 11.5823 -1.1753 0.9545
-0.6615 13.7454 -1.3963 0.9462
-1.1575 13.7486 -1.3999 0.9460
-1.6567 13.7518 -1.4054 0.9458
-2.1392 13.6198 -1.3989 0.9461
-2.2516 11.6010 -1.1991 0.9536
-3.1607 11.7158 -1.2312 0.9524
-4.5765 11.7568 -1.2801 0.9505
-5.0101 11.6186 -1.2838 0.9504
-5.5144 11.6218 -1.3052 0.9496
-6.5786 11.6286 -1.3556 0.9477
-7.7345 11.6359 -1.4177 0.9454
-8.3546 11.6398 -1.4538 0.9440
-10.4340 11.6531 -1.5871 0.9390
-11.6394 11.2578 -1.6430 0.9370
-12.0348 10.8316 -1.6428 0.9370
-12.4146 10.3915 -1.6427 0.9370
-12.7785 9.9383 -1.6425 0.9370
-13.1258 9.4723 -1.6424 0.9370
-13.4562 8.9943 -1.6422 0.9370
-13.7694 8.5048 -1.6421 0.9370
-14.0648 8.0045 -1.6420 0.9370
-14.3421 7.4940 -1.6419 0.9370
-14.8412 6.4450 -1.6417 0.9370
-15.0622 5.9078 -1.6416 0.9370
-17.0201 4.6386 -1.7899 0.9315
-17.2058 4.0317 -1.7931 0.9314
-17.3392 3.4115 -1.7930 0.9314
-17.4503 2.7868 -1.7930 0.9314
-17.6054 1.5277 -1.7930 0.9314
-17.6491 0.8947 -1.7931 0.9314
-17.6701 0.2606 -1.7931 0.9314
-17.6686 -0.3739 -1.7931 0.9314
-17.6443 -1.0079 -1.7932 0.9314
-17.5280 -2.2714 -1.7933 0.9314
-16.8460 -5.3663 -1.7939 0.9314
-16.6439 -5.9681 -1.7940 0.9314
-15.4629 -6.1796 -1.6896 0.9352
-13.8551 -6.1226 -1.5369 0.9409
-12.5954 -6.1154 -1.4207 0.9453
-12.0227 -6.3805 -1.3810 0.9467
-11.9213 -7.4694 -1.4274 0.9450
-13.1815 -9.6416 -1.6571 0.9364
-11.2765 -9.5624 -1.5002 0.9423
-10.4958 -9.5689 -1.4411 0.9445
-12.6480 -12.3911 -1.7965 0.9313
-10.6060 -11.1645 -1.5625 0.9400
-11.7298 -13.2705 -1.7971 0.9313
-11.2476 -13.6851 -1.7974 0.9313
-8.2020 -14.7176 -1.7095 0.9345
-7.5256 -14.7232 -1.6777 0.9357
-6.3340 -14.9516 -1.6476 0.9368
-5.7943 -15.1720 -1.6479 0.9368
-5.2468 -15.3730 -1.6482 0.9368
-4.6925 -15.5542 -1.6485 0.9368
-4.1319 -15.7155 -1.6488 0.9368
-3.5657 -15.8566 -1.6491 0.9367
-1.0735 -9.4191 -0.9619 0.9626
-0.7274 -9.3569 -1.0970 0.9629
-0.3907 -9.3691 -1.0960 0.9629
0.6237 -9.4313 -1.1048 0.9627
0.9653 -9.4361 -1.1087 0.9625
0.9838 -7.0920 -0.8369 0.9716
1.3623 -6.4023 -0.7651 0.9740
2.5695 -6.2658 -0.7916 0.9731
2.8291 -6.2496 -0.8018 0.9728
3.0993 -6.2401 -0.8144 0.9723
3.3760 -6.2258 -0.8278 0.9719
8.7907 -12.7235 -1.8076 0.9396
9.6831 -12.0628 -1.8080 0.9396
10.1110 -11.7087 -1.8082 0.9396
10.9272 -10.9553 -1.8086 0.9396
12.0449 -9.7197 -1.8091 0.9396
12.3870 -9.2818 -1.8092 0.9396
12.7132 -8.8319 -1.8093 0.9396
13.0229 -8.3704 -1.8095 0.9396
13.3158 -7.8980 -1.8096 0.9396
13.5916 -7.4154 -1.8097 0.9396
13.8498 -6.9231 -1.8098 0.9395
14.0901 -6.4218 -1.8099 0.9395
14.3121 -5.9121 -1.8100 0.9395
14.5157 -5.3948 -1.8100 0.9395
14.8662 -4.3397 -1.8101 0.9395
15.1398 -3.2621 -1.8102 0.9395
15.2473 -2.7165 -1.8102 0.9395
15.4029 -1.6156 -1.8102 0.9395
15.4745 0.6055 -1.8101 0.9395
15.3902 1.7141 -1.8100 0.9395
14.4746 5.4854 -1.8092 0.9396
14.2672 6.0010 -1.8091 0.9396
13.5358 7.4980 -1.8086 0.9396
13.2566 7.9782 -1.8084 0.9396
12.9604 8.4481 -1.8083 0.9396
12.6474 8.9069 -1.8081 0.9396
12.3182 9.3541 -1.8079 0.9396
11.6126 10.2115 -1.8074 0.9396
10.8473 11.0155 -1.8070 0.9396
10.0264 11.7623 -1.8065 0.9397
9.1542 12.4479 -1.8060 0.9397
8.7002 12.7667 -1.8058 0.9397
5.9151 10.1798 -1.3761 0.9537
7.2741 13.6221 -1.8050 0.9397
6.2062 12.6992 -1.6521 0.9447
5.5206 12.4066 -1.5872 0.9468
4.2525 13.2320 -1.6245 0.9456
3.8359 13.5927 -1.6508 0.9447
0.8409 14.0851 -1.6492 0.9448
-0.1411 11.5824 -1.3539 0.9544
-3.1607 11.7158 -1.4183 0.9523
-4.0959 11.7537 -1.4548 0.9511
-5.0101 11.6186 -1.4789 0.9503
-5.5144 11.6218 -1.5035 0.9495
-7.1436 11.6322 -1.5955 0.9465
-8.6095 11.1288 -1.6446 0.9449
-9.3838 10.4802 -1.6442 0.9449
-9.7529 10.1356 -1.6441 0.9449
-10.1095 9.7780 -1.6439 0.9449
-11.9603 7.3874 -1.6431 0.9450
-7.8567 4.4713 -1.0566 0.9642
-12.8917 5.5984 -1.6428 0.9450
-14.7824 4.0287 -1.7908 0.9402
-14.9460 3.5022 -1.7943 0.9401
-15.1585 2.4208 -1.7942 0.9401
-15.2356 1.8751 -1.7942 0.9401
-15.3494 0.2264 -1.7943 0.9401
-15.3268 -0.8755 -1.7944 0.9400
-15.2256 -1.9730 -1.7945 0.9400
-15.1456 -2.5184 -1.7946 0.9400
-14.7896 -4.1327 -1.7949 0.9400
-14.2626 -5.6999 -1.7953 0.9400
-14.0499 -6.2087 -1.7954 0.9400
-12.5953 -6.1154 -1.6365 0.9452
-13.5706 -7.2020 -1.7957 0.9400
-12.7215 -8.6217 -1.7962 0.9400
-10.9840 -10.7609 -1.7973 0.9400
-9.3357 -12.2286 -1.7982 0.9399
-8.8920 -12.5576 -1.7985 0.9399
-6.5116 -13.9538 -1.7998 0.9399
-4.9626 -14.5401 -1.7958 0.9400
-3.3070 -14.7061 -1.7618 0.9411
-2.7569 -14.7083 -1.7491 0.9415
-2.2140 -14.7100 -1.7387 0.9419
-0.0540 -9.3650 -1.2395 0.9629
0.6237 -9.4305 -1.2509 0.9626
0.7397 -7.2309 -0.9621 0.9711
1.7522 -6.0600 -0.8349 0.9749
2.0417 -6.2159 -0.8660 0.9739
2.2882 -6.2055 -0.8754 0.9737
2.8016 -6.1889 -0.8992 0.9730
3.0722 -6.1856 -0.9141 0.9725
3.3552 -6.1874 -0.9316 0.9720
3.6499 -6.1897 -0.9511 0.9714
7.7603 -11.2320 -1.8070 0.9464
8.1593 -10.9473 -1.8071 0.9464
8.9254 -10.3358 -1.8075 0.9464
9.6457 -9.6705 -1.8078 0.9464
10.3164 -8.9550 -1.8081 0.9464
10.9339 -8.1929 -1.8084 0.9464
11.2217 -7.7957 -1.8085 0.9464
11.4950 -7.3883 -1.8086 0.9464
11.7534 -6.9713 -1.8087 0.9464
12.4366 -5.6682 -1.8090 0.9463
12.6325 -5.2183 -1.8090 0.9463
12.8121 -4.7617 -1.8091 0.9463
12.9752 -4.2988 -1.8092 0.9463
13.1214 -3.8304 -1.8092 0.9463
13.2507 -3.3570 -1.8092 0.9463
13.4577 -2.3977 -1.8093 0.9463
13.5351 -1.9131 -1.8093 0.9463
13.5951 -1.4260 -1.8093 0.9463
13.6374 -0.9370 -1.8093 0.9463
13.6584 0.5345 -1.8092 0.9463
13.3410 2.9641 -1.8088 0.9464
12.7765 4.8419 -1.8084 0.9464
12.3944 5.7452 -1.8082 0.9464
12.1792 6.1859 -1.8080 0.9464
11.9483 6.6186 -1.8079 0.9464
11.4407 7.4575 -1.8075 0.9464
10.8741 8.2575 -1.8072 0.9464
10.2515 9.0145 -1.8068 0.9464
9.5762 9.7247 -1.8064 0.9464
9.2199 10.0610 -1.8062 0.9464
8.8517 10.3843 -1.8060 0.9464
8.4723 10.6940 -1.8058 0.9464
8.0820 10.9899 -1.8056 0.9464
5.8794 11.0102 -1.6520 0.9509
5.4797 11.2127 -1.6518 0.9509
4.2408 11.7320 -1.6511 0.9509
3.8164 11.8750 -1.6509 0.9509
3.3872 12.0027 -1.6507 0.9509
2.5166 12.2114 -1.6502 0.9509
2.0764 12.2921 -1.6500 0.9509
1.6336 12.3570 -1.6498 0.9510
0.2956 12.4557 -1.6491 0.9510
-0.5673 11.7894 -1.5622 0.9535
-2.6877 11.6038 -1.5765 0.9531
-3.1312 11.6067 -1.5911 0.9527
-3.5838 11.6095 -1.6082 0.9522
-4.0467 11.6125 -1.6276 0.9516
-4.5130 11.5936 -1.6467 0.9510
-4.9257 11.4228 -1.6465 0.9510
-5.3319 11.2372 -1.6463 0.9511
-5.7312 11.0373 -1.6461 0.9511
-6.8822 10.3538 -1.6455 0.9511
-7.2487 10.0991 -1.6454 0.9511
-7.6058 9.8314 -1.6452 0.9511
-7.9530 9.5511 -1.6450 0.9511
-8.2900 9.2586 -1.6449 0.9511
-8.6162 8.9542 -1.6447 0.9511
-8.9313 8.6384 -1.6446 0.9511
-9.5266 7.9741 -1.6443 0.9511
-10.3265 6.9023 -1.6440 0.9511
-10.5670 6.5268 -1.6439 0.9511
-11.9949 4.2145 -1.6828 0.9500
-12.9160 4.0234 -1.7905 0.9469
-13.0861 3.5664 -1.7952 0.9467
-13.3932 2.1389 -1.7952 0.9467
-13.4614 1.6567 -1.7952 0.9467
-13.5122 1.1725 -1.7952 0.9467
-13.5605 -0.2869 -1.7952 0.9467
-13.5418 -0.7735 -1.7953 0.9467
-13.5057 -1.2592 -1.7953 0.9467
-13.4523 -1.7432 -1.7954 0.9467
-13.1886 -3.1797 -1.7956 0.9467
-13.0667 -3.6513 -1.7957 0.9467
-12.9280 -4.1182 -1.7958 0.9467
-12.7726 -4.5799 -1.7959 0.9467
-12.6008 -5.0358 -1.7961 0.9467
-12.4128 -5.4852 -1.7962 0.9467
-11.9891 -6.3627 -1.7965 0.9467
-11.5037 -7.2077 -1.7968 0.9467
-10.9590 -8.0160 -1.7971 0.9467
-10.6652 -8.4050 -1.7973 0.9467
-10.3577 -8.7833 -1.7975 0.9467
-8.9980 -10.1798 -1.7983 0.9467
-7.8543 -11.0922 -1.7989 0.9466
-7.0400 -11.6300 -1.7994 0.9466
-6.6189 -11.8768 -1.7996 0.9466
-6.1891 -12.1083 -1.7998 0.9466
-5.3058 -12.5245 -1.8003 0.9466
-4.8535 -12.7087 -1.8006 0.9466
-4.3948 -12.8765 -1.8008 0.9466
-2.0264 -13.4636 -1.8021 0.9465
-1.0735 -9.4191 -1.2548 0.9625
-0.3908 -9.3714 -1.3872 0.9628
0.8788 -6.3347 -0.9458 0.9745
1.0960 -6.2444 -0.9376 0.9747
1.3200 -6.2036 -0.9380 0.9747
2.0264 -6.1693 -0.9604 0.9741
2.2752 -6.1703 -0.9726 0.9738
2.5307 -6.1712 -0.9864 0.9734
2.7941 -6.1723 -1.0020 0.9730
3.0670 -6.1751 -1.0197 0.9725
3.3486 -6.1752 -1.0389 0.9720
3.6358 -6.1659 -1.0586 0.9715
6.9431 -10.0493 -1.8065 0.9518
7.3000 -9.7945 -1.8066 0.9518
8.6296 -8.6517 -1.8072 0.9518
8.9353 -8.3371 -1.8074 0.9518
10.2836 -6.6097 -1.8079 0.9518
10.5147 -6.2366 -1.8080 0.9518
11.4616 -4.2597 -1.8084 0.9518
11.7382 -3.4266 -1.8085 0.9518
11.8538 -3.0031 -1.8085 0.9518
11.9541 -2.5757 -1.8085 0.9518
12.0390 -2.1449 -1.8085 0.9518
12.1083 -1.7114 -1.8085 0.9518
12.1618 -1.2756 -1.8085 0.9518
12.1997 -0.8382 -1.8085 0.9518
12.2218 -0.3998 -1.8085 0.9518
12.2186 0.4781 -1.8084 0.9518
12.1933 0.9164 -1.8084 0.9518
12.1522 1.3534 -1.8083 0.9518
11.9349 2.6517 -1.8081 0.9518
11.8315 3.0783 -1.8081 0.9518
11.7128 3.5008 -1.8080 0.9518
11.2666 4.7389 -1.8076 0.9518
11.0885 5.1399 -1.8075 0.9518
10.6896 5.9213 -1.8073 0.9518
10.2356 6.6720 -1.8070 0.9518
9.7289 7.3879 -1.8067 0.9518
8.2494 9.0020 -1.8058 0.9518
7.5807 9.5686 -1.8054 0.9518
4.9034 10.0335 -1.6516 0.9558
2.6434 10.8417 -1.6504 0.9559
1.4620 11.0589 -1.6498 0.9559
1.0639 11.1029 -1.6496 0.9559
0.2645 11.1478 -1.6491 0.9559
-0.1358 11.1487 -1.6489 0.9559
-0.9351 11.1075 -1.6485 0.9559
-2.1230 10.9386 -1.6479 0.9559
-2.5140 10.8541 -1.6477 0.9559
-4.4092 10.2250 -1.6468 0.9560
-5.4811 9.6887 -1.6463 0.9560
-6.4890 9.0407 -1.6458 0.9560
-6.8088 8.8011 -1.6457 0.9560
-7.1197 8.5503 -1.6455 0.9560
-7.4214 8.2885 -1.6454 0.9560
-7.9957 7.7335 -1.6451 0.9560
-8.2676 7.4410 -1.6450 0.9560
-8.7789 6.8277 -1.6448 0.9560
-9.0178 6.5078 -1.6447 0.9560
-9.2451 6.1795 -1.6446 0.9560
-9.4604 5.8434 -1.6445 0.9560
-7.8358 4.4595 -1.3334 0.9642
-9.8544 5.1491 -1.6444 0.9560
-10.0325 4.7918 -1.6443 0.9560
-10.1976 4.4285 -1.6442 0.9560
-10.7361 4.2110 -1.7056 0.9544
-11.4283 4.0154 -1.7915 0.9522
-11.9912 1.9150 -1.7959 0.9521
-12.0522 1.4833 -1.7959 0.9521
-12.1277 0.6148 -1.7959 0.9521
-12.1421 0.1791 -1.7959 0.9521
-12.1241 -0.6926 -1.7960 0.9521
-11.9017 -2.4210 -1.7962 0.9521
-11.8077 -2.8468 -1.7963 0.9521
-11.6984 -3.2689 -1.7964 0.9521
-11.4350 -4.1003 -1.7966 0.9521
-11.2811 -4.5084 -1.7967 0.9521
-10.9300 -5.3068 -1.7969 0.9521
-10.7332 -5.6962 -1.7971 0.9521
-10.5226 -6.0782 -1.7972 0.9521
-8.9848 -8.1913 -1.7981 0.9520
-6.6704 -10.1759 -1.7995 0.9520
-5.9244 -10.6307 -1.7999 0.9520
-5.1477 -11.0310 -1.8003 0.9520
-4.7489 -11.2100 -1.8005 0.9520
-4.3440 -11.3747 -1.8007 0.9520
-3.9334 -11.5247 -1.8010 0.9520
-3.5176 -11.6599 -1.8012 0.9519
-3.0972 -11.7801 -1.8014 0.9519
-2.6727 -11.8852 -1.8016 0.9519
-2.2446 -11.9750 -1.8019 0.9519
-0.7272 -9.3545 -1.5341 0.9627
-0.3905 -9.3650 -1.5325 0.9627
0.7278 -11.0055 -1.8033 0.9563
0.6807 -6.6539 -1.0936 0.9733
0.8714 -6.2812 -1.0368 0.9746
1.5455 -6.1669 -1.0395 0.9746
2.2722 -6.1620 -1.0738 0.9737
2.7899 -6.1631 -1.1061 0.9730
3.0618 -6.1646 -1.1254 0.9725
3.9386 -6.1624 -1.1958 0.9708
6.2790 -9.0880 -1.8060 0.9562
6.6017 -8.8575 -1.8062 0.9562
8.3461 -7.2447 -1.8070 0.9562
8.6013 -6.9409 -1.8071 0.9562
8.8454 -6.6280 -1.8072 0.9562
9.0781 -6.3066 -1.8073 0.9562
10.8094 -2.3290 -1.8079 0.9562
10.9973 -1.1535 -1.8079 0.9562
11.0515 -0.3615 -1.8079 0.9562
11.0486 0.4323 -1.8078 0.9562
11.0258 0.8286 -1.8078 0.9562
10.9886 1.2238 -1.8077 0.9562
10.8718 2.0090 -1.8076 0.9562
10.7923 2.3978 -1.8076 0.9562
10.5915 3.1657 -1.8074 0.9562
10.4705 3.5437 -1.8073 0.9562
10.3360 3.9170 -1.8072 0.9562
10.0272 4.6480 -1.8070 0.9562
9.4675 5.6979 -1.8067 0.9562
8.7981 6.6811 -1.8062 0.9562
8.5519 6.9920 -1.8061 0.9562
8.0268 7.5863 -1.8058 0.9562
7.7487 7.8688 -1.8056 0.9562
7.1628 8.4029 -1.8053 0.9562
6.5402 8.8934 -1.8049 0.9562
6.2063 9.1071 -1.8019 0.9563
5.3865 8.5482 -1.6520 0.9599
4.7583 8.9107 -1.6516 0.9599
3.0891 9.6119 -1.6507 0.9599
2.7417 9.7155 -1.6505 0.9599
2.3910 9.8065 -1.6503 0.9599
1.6808 9.9505 -1.6500 0.9599
0.6012 10.0701 -1.6494 0.9599
0.2393 10.0841 -1.6492 0.9599
-0.1228 10.0850 -1.6490 0.9599
-0.4847 10.0730 -1.6488 0.9600
-1.2059 10.0100 -1.6485 0.9600
-1.5643 9.9592 -1.6483 0.9600
-1.9206 9.8955 -1.6481 0.9600
-2.2743 9.8191 -1.6479 0.9600
-2.6250 9.7302 -1.6478 0.9600
-3.9890 9.2505 -1.6471 0.9600
-4.6415 8.9388 -1.6468 0.9600
-4.9589 8.7656 -1.6466 0.9600
-5.2699 8.5812 -1.6465 0.9600
-5.8710 8.1796 -1.6462 0.9600
-6.1603 7.9629 -1.6461 0.9600
-6.4417 7.7361 -1.6459 0.9600
-7.2345 6.9972 -1.6456 0.9600
-7.4805 6.7326 -1.6455 0.9600
-7.7168 6.4593 -1.6454 0.9600
-7.9433 6.1778 -1.6453 0.9600
-8.1595 5.8883 -1.6452 0.9600
-8.5600 5.2872 -1.6450 0.9600
-8.9165 4.6590 -1.6449 0.9600
-9.0777 4.3358 -1.6448 0.9600
-9.6890 4.2076 -1.7271 0.9581
-10.2052 4.0028 -1.7923 0.9565
-10.4909 3.2680 -1.7966 0.9564
-10.6013 2.8892 -1.7965 0.9564
-10.6981 2.5068 -1.7965 0.9564
-10.7810 2.1212 -1.7965 0.9564
-10.9466 0.9499 -1.7965 0.9564
-10.9867 0.1620 -1.7965 0.9564
-10.9856 -0.2324 -1.7966 0.9564
-10.9704 -0.6267 -1.7966 0.9564
-10.9411 -1.0201 -1.7966 0.9564
-10.8977 -1.4122 -1.7967 0.9564
-10.8404 -1.8025 -1.7967 0.9564
-10.7691 -2.1906 -1.7968 0.9564
-10.3465 -3.7100 -1.7971 0.9564
-10.2072 -4.0792 -1.7972 0.9564
-10.0548 -4.4433 -1.7973 0.9564
-9.5207 -5.4995 -1.7977 0.9564
-9.3178 -5.8381 -1.7978 0.9564
-8.8763 -6.4926 -1.7981 0.9564
-8.3890 -7.1139 -1.7984 0.9564
-8.1289 -7.4111 -1.7985 0.9564
-7.8583 -7.6988 -1.7987 0.9564
-7.2871 -8.2442 -1.7990 0.9564
-6.9871 -8.5013 -1.7992 0.9564
-6.0345 -9.2059 -1.7997 0.9564
-4.6568 -9.9791 -1.8005 0.9563
-4.2960 -10.1409 -1.8007 0.9563
-3.5582 -10.4253 -1.8011 0.9563
-3.1820 -10.5475 -1.8013 0.9563
-2.8017 -10.6561 -1.8015 0.9563
-2.4176 -10.7510 -1.8017 0.9563
-2.0304 -10.8321 -1.8019 0.9563
-1.6404 -10.8993 -1.8021 0.9563
-1.2483 -10.9524 -1.8023 0.9563
-0.7796 -10.0291 -1.8025 0.9599
-0.3902 -9.3585 -1.6784 0.9627
-0.0581 -10.0613 -1.8029 0.9599
0.3032 -10.0579 -1.8030 0.9599
0.6689 -6.5386 -1.1777 0.9736
0.8652 -6.2364 -1.1282 0.9747
1.5411 -6.1494 -1.1360 0.9746
1.7787 -6.1517 -1.1474 0.9743
3.0568 -6.1545 -1.2313 0.9725
3.9338 -6.1550 -1.3089 0.9708
5.7283 -8.2910 -1.8057 0.9599
6.0226 -8.0806 -1.8058 0.9599
6.3093 -7.8598 -1.8060 0.9599
6.8579 -7.3879 -1.8062 0.9599
7.3712 -6.8777 -1.8065 0.9599
7.8465 -6.3318 -1.8067 0.9599
8.0692 -6.0464 -1.8068 0.9599
9.0211 -4.5094 -1.8071 0.9598
9.4543 -3.5137 -1.8073 0.9598
9.7778 -2.4771 -1.8074 0.9598
9.9876 -1.4117 -1.8074 0.9598
10.0631 -0.6914 -1.8074 0.9598
10.0814 -0.3298 -1.8074 0.9598
10.0866 0.0323 -1.8074 0.9598
9.9175 1.8326 -1.8072 0.9598
9.8450 2.1874 -1.8071 0.9598
9.6619 2.8879 -1.8070 0.9598
9.4290 3.5733 -1.8068 0.9599
9.1474 4.2401 -1.8066 0.9599
8.6369 5.1980 -1.8063 0.9599
7.8019 6.3788 -1.8058 0.9599
7.5673 6.6542 -1.8056 0.9599
7.3230 6.9210 -1.8055 0.9599
7.0692 7.1788 -1.8053 0.9599
6.5348 7.6662 -1.8050 0.9599
5.9669 8.1138 -1.8047 0.9599
4.6308 7.9696 -1.6516 0.9632
4.0463 8.2797 -1.6513 0.9632
3.7462 8.4188 -1.6511 0.9632
3.4412 8.5470 -1.6510 0.9633
3.1318 8.6641 -1.6508 0.9633
2.5016 8.8647 -1.6505 0.9633
2.1816 8.9479 -1.6503 0.9633
1.8588 9.0195 -1.6501 0.9633
1.5337 9.0795 -1.6499 0.9633
0.2183 9.2016 -1.6493 0.9633
-0.4423 9.1917 -1.6489 0.9633
-1.7526 9.0301 -1.6483 0.9633
-2.3955 8.8794 -1.6479 0.9633
-3.9407 8.3052 -1.6472 0.9633
-4.2359 8.1577 -1.6470 0.9633
-5.0871 7.6531 -1.6466 0.9633
-5.3581 7.4650 -1.6465 0.9633
-5.6222 7.2673 -1.6464 0.9634
-6.3696 6.6195 -1.6461 0.9634
-6.6027 6.3861 -1.6459 0.9634
-7.2497 5.6384 -1.6457 0.9634
-7.4471 5.3742 -1.6456 0.9634
-7.6348 5.1032 -1.6455 0.9634
-7.8127 4.8256 -1.6454 0.9634
-7.8148 4.4476 -1.6112 0.9641
-8.1382 4.2523 -1.6453 0.9634
-9.3370 3.6622 -1.7971 0.9601
-9.5752 2.9827 -1.7971 0.9601
-9.6760 2.6371 -1.7970 0.9601
-9.8401 1.9360 -1.7970 0.9601
-2.0428 0.2514 -0.3688 0.9917
-2.0521 0.1781 -0.3691 0.9917
-2.0422 0.1035 -0.3664 0.9917
-2.0449 -0.1168 -0.3670 0.9917
-2.0516 -0.1913 -0.3692 0.9917
-9.8941 -1.6452 -1.7972 0.9601
-9.7512 -2.3510 -1.7973 0.9601
-9.3160 -3.7230 -1.7977 0.9601
-9.1768 -4.0553 -1.7978 0.9600
-9.0259 -4.3823 -1.7979 0.9600
-8.6892 -5.0192 -1.7981 0.9600
-8.5040 -5.3282 -1.7982 0.9600
-8.3078 -5.6304 -1.7983 0.9600
-8.1009 -5.9254 -1.7984 0.9600
-7.8836 -6.2129 -1.7986 0.9600
-7.1717 -7.0260 -1.7990 0.9600
-6.3764 -7.7583 -1.7994 0.9600
-6.0944 -7.9829 -1.7996 0.9600
-5.8044 -8.1973 -1.7998 0.9600
-4.8909 -8.7762 -1.8003 0.9600
-4.2495 -9.1063 -1.8006 0.9600
-3.9203 -9.2539 -1.8008 0.9600
-3.5859 -9.3896 -1.8010 0.9600
-2.9036 -9.6246 -1.8014 0.9600
-2.5565 -9.7237 -1.8015 0.9600
-2.2061 -9.8102 -1.8017 0.9600
-0.7165 -9.2177 -1.8025 0.9630
-0.3852 -9.2383 -1.8026 0.9630
-0.0533 -9.2471 -1.8028 0.9630
0.2786 -9.2439 -1.8030 0.9630
1.0761 -6.1309 -1.2135 0.9750
1.3051 -6.1337 -1.2226 0.9748
1.5388 -6.1401 -1.2341 0.9745
1.7762 -6.1429 -1.2466 0.9743
2.0182 -6.1444 -1.2608 0.9740
3.0527 -6.1464 -1.3379 0.9724
3.6309 -6.1575 -1.3936 0.9713
5.5346 -7.4257 -1.8055 0.9630
5.7979 -7.2228 -1.8057 0.9630
6.3020 -6.7890 -1.8059 0.9630
6.5420 -6.5588 -1.8060 0.9630
7.4149 -5.5561 -1.8064 0.9629
7.9703 -4.7274 -1.8066 0.9629
8.1351 -4.4384 -1.8067 0.9629
8.2895 -4.1437 -1.8067 0.9629
8.4331 -3.8436 -1.8068 0.9629
8.6876 -3.2288 -1.8069 0.9629
8.8971 -2.5972 -1.8069 0.9629
8.9848 -2.2762 -1.8070 0.9629
9.0608 -1.9522 -1.8070 0.9629
9.2685 0.0297 -1.8069 0.9629
9.2613 0.3624 -1.8069 0.9629
9.2111 1.0259 -1.8068 0.9629
9.1681 1.3558 -1.8068 0.9629
9.1133 1.6840 -1.8068 0.9629
9.0466 2.0100 -1.8067 0.9629
8.7771 2.9705 -1.8065 0.9629
8.5406 3.5923 -1.8063 0.9629
8.1037 4.4889 -1.8060 0.9630
7.9368 4.7766 -1.8059 0.9630
7.7598 5.0581 -1.8058 0.9630
7.3759 5.6011 -1.8056 0.9630
7.1696 5.8619 -1.8055 0.9630
6.9541 6.1150 -1.8053 0.9630
6.4965 6.5972 -1.8051 0.9630
5.7482 7.2556 -1.8046 0.9630
5.4836 7.4567 -1.8045 0.9630
5.1965 7.6253 -1.7990 0.9631
4.5164 7.1674 -1.6516 0.9661
3.7187 7.6094 -1.6512 0.9661
3.4429 7.7373 -1.6510 0.9661
3.1626 7.8551 -1.6509 0.9661
2.5904 8.0603 -1.6506 0.9661
2.2992 8.1473 -1.6504 0.9661
2.0051 8.2238 -1.6502 0.9661
1.7084 8.2897 -1.6501 0.9661
1.1091 8.3893 -1.6498 0.9661
0.2007 8.4575 -1.6493 0.9661
-0.1030 8.4584 -1.6491 0.9661
-0.4066 8.4485 -1.6490 0.9661
-0.7095 8.4277 -1.6488 0.9661
-1.3121 8.3535 -1.6485 0.9661
-1.6110 8.3003 -1.6484 0.9661
-1.9077 8.2364 -1.6482 0.9661
-3.0658 7.8758 -1.6477 0.9661
-3.3463 7.7601 -1.6475 0.9661
-3.6224 7.6343 -1.6474 0.9661
-3.8938 7.4988 -1.6473 0.9662
-4.1601 7.3536 -1.6471 0.9662
-4.4211 7.1990 -1.6470 0.9662
-5.1683 6.6806 -1.6467 0.9662
-5.8554 6.0851 -1.6464 0.9662
-6.2762 5.6487 -1.6462 0.9662
-6.4746 5.4195 -1.6461 0.9662
-6.6646 5.1833 -1.6460 0.9662
-6.8460 4.9405 -1.6459 0.9662
-7.1822 4.4362 -1.6458 0.9662
-7.4160 4.2206 -1.6635 0.9658
-8.0396 4.2008 -1.7684 0.9637
-8.3033 3.9659 -1.7939 0.9632
-8.4574 3.6728 -1.7976 0.9631
-8.6987 3.0564 -1.7975 0.9631
-1.7744 0.5527 -0.3623 0.9925
-1.7560 0.4786 -0.3548 0.9926
-1.7138 0.3372 -0.3405 0.9929
-1.6983 0.2712 -0.3353 0.9930
-1.7073 0.1481 -0.3341 0.9930
-1.7084 0.0866 -0.3335 0.9931
-1.7072 0.0252 -0.3329 0.9931
-1.7084 -0.0976 -0.3336 0.9931
-1.6971 -0.2822 -0.3354 0.9930
-1.7395 -0.4194 -0.3489 0.9927
-1.7595 -0.4917 -0.3562 0.9926
-8.6811 -3.1128 -1.7979 0.9631
-8.5642 -3.4226 -1.7980 0.9631
-8.4362 -3.7280 -1.7981 0.9631
-8.2974 -4.0286 -1.7982 0.9631
-7.9878 -4.6140 -1.7984 0.9631
-7.8175 -4.8981 -1.7985 0.9631
-7.6371 -5.1759 -1.7986 0.9631
-7.4469 -5.4470 -1.7987 0.9631
-7.0379 -5.9681 -1.7990 0.9631
-6.8196 -6.2173 -1.7991 0.9631
-6.5925 -6.4586 -1.7992 0.9631
-6.3569 -6.6916 -1.7994 0.9631
-6.1131 -6.9160 -1.7995 0.9631
-5.8613 -7.1316 -1.7997 0.9631
-5.3355 -7.5350 -1.8000 0.9631
-4.7819 -7.8997 -1.8003 0.9631
-4.4957 -8.0670 -1.8004 0.9631
-4.2036 -8.2239 -1.8006 0.9631
-3.9060 -8.3703 -1.8008 0.9631
-2.9844 -8.7441 -1.8013 0.9630
-2.6688 -8.8464 -1.8014 0.9630
-2.0276 -9.0168 -1.8018 0.9630
-1.3758 -9.1408 -1.8021 0.9630
-0.0493 -8.5510 -1.8028 0.9656
0.6605 -6.4568 -1.3683 0.9738
0.8582 -6.1859 -1.3166 0.9748
1.3056 -6.1360 -1.3226 0.9747
1.7735 -6.1337 -1.3461 0.9742
2.2629 -6.1369 -1.3789 0.9736
2.5169 -6.1374 -1.3985 0.9732
2.7785 -6.1379 -1.4204 0.9728
3.0487 -6.1383 -1.4449 0.9724
3.6312 -6.1579 -1.5071 0.9712
3.9345 -6.1560 -1.5402 0.9706
4.8673 -7.0448 -1.8052 0.9656
5.3608 -6.6783 -1.8054 0.9656
5.5975 -6.4819 -1.8055 0.9656
6.0488 -6.0643 -1.8057 0.9656
6.8557 -5.1371 -1.8061 0.9656
7.0360 -4.8879 -1.8061 0.9656
7.2072 -4.6324 -1.8062 0.9656
7.5216 -4.1036 -1.8063 0.9656
7.6642 -3.8311 -1.8064 0.9656
8.1344 -2.6950 -1.8066 0.9656
8.2260 -2.4013 -1.8066 0.9656
8.3070 -2.1045 -1.8066 0.9656
8.3772 -1.8050 -1.8066 0.9656
8.4367 -1.5031 -1.8066 0.9656
8.5228 -0.8939 -1.8066 0.9656
8.5649 -0.2802 -1.8066 0.9656
8.5627 0.3350 -1.8066 0.9656
8.4765 1.2536 -1.8065 0.9656
8.2919 2.1574 -1.8063 0.9656
8.2089 2.4535 -1.8062 0.9656
8.0110 3.0359 -1.8061 0.9656
7.8966 3.3214 -1.8060 0.9656
7.4926 4.1504 -1.8057 0.9656
7.3384 4.4165 -1.8057 0.9656
7.0018 4.9310 -1.8054 0.9656
6.6292 5.4200 -1.8052 0.9656
6.4299 5.6541 -1.8051 0.9656
6.2224 5.8809 -1.8050 0.9656
3.9353 6.7726 -1.6513 0.9685
3.4387 7.0363 -1.6511 0.9685
3.1836 7.1546 -1.6509 0.9685
2.9245 7.2637 -1.6508 0.9685
2.1261 7.5340 -1.6504 0.9685
1.5798 7.6658 -1.6501 0.9685
1.3035 7.7169 -1.6499 0.9685
1.0256 7.7580 -1.6498 0.9685
0.7464 7.7892 -1.6496 0.9685
-0.0953 7.8222 -1.6492 0.9685
-0.6561 7.7938 -1.6489 0.9685
-0.9354 7.7646 -1.6488 0.9685
-1.4898 7.6762 -1.6485 0.9685
-2.0364 7.5483 -1.6482 0.9685
-2.5723 7.3815 -1.6480 0.9686
-2.8354 7.2839 -1.6478 0.9686
-3.0948 7.1768 -1.6477 0.9686
-3.6012 6.9353 -1.6475 0.9686
-3.8475 6.8011 -1.6473 0.9686
-4.7800 6.1788 -1.6469 0.9686
-5.2104 5.8192 -1.6467 0.9686
-5.4156 5.6281 -1.6466 0.9686
-5.8048 5.2245 -1.6464 0.9686
-5.9883 5.0125 -1.6464 0.9686
-6.8254 4.2158 -1.6913 0.9677
-7.3753 4.1974 -1.7890 0.9659
-7.5452 3.9425 -1.7947 0.9658
-7.6957 3.6757 -1.7980 0.9657
-1.6255 0.5711 -0.3632 0.9930
-1.5992 0.4358 -0.3494 0.9932
-1.5663 0.3082 -0.3365 0.9935
-1.5731 0.0232 -0.3317 0.9936
-1.5739 -0.0899 -0.3324 0.9936
-1.5631 -0.2599 -0.3341 0.9935
-1.5865 -0.3825 -0.3441 0.9934
-1.6018 -0.4476 -0.3506 0.9932
-1.6275 -0.5836 -0.3645 0.9930
-7.9211 -3.1656 -1.7983 0.9657
-7.8027 -3.4480 -1.7984 0.9657
-7.5359 -3.9993 -1.7986 0.9657
-7.0635 -4.7871 -1.7989 0.9657
-6.7026 -5.2822 -1.7991 0.9657
-5.8792 -6.1888 -1.7996 0.9657
-5.6537 -6.3963 -1.7997 0.9657
-4.9344 -6.9686 -1.8001 0.9657
-4.6815 -7.1418 -1.8003 0.9657
-4.4224 -7.3058 -1.8004 0.9657
-3.8875 -7.6055 -1.8007 0.9657
-3.0481 -7.9814 -1.8012 0.9657
-2.7599 -8.0864 -1.8013 0.9657
-2.4681 -8.1810 -1.8015 0.9657
-2.1730 -8.2650 -1.8016 0.9657
-1.8751 -8.3384 -1.8018 0.9657
-1.5747 -8.4011 -1.8020 0.9657
-0.9681 -8.4939 -1.8023 0.9657
-0.6159 -7.9237 -1.8024 0.9679
-0.0459 -7.9488 -1.8027 0.9679
0.2395 -7.9460 -1.8029 0.9679
0.6579 -6.4310 -1.4661 0.9738
0.8576 -6.1821 -1.4154 0.9747
1.3060 -6.1379 -1.4232 0.9746
1.5590 -6.2208 -1.4544 0.9740
2.5143 -6.1312 -1.5029 0.9732
2.7761 -6.1326 -1.5267 0.9728
3.0463 -6.1335 -1.5531 0.9723
3.3329 -6.1462 -1.5856 0.9717
3.9335 -6.1545 -1.6565 0.9705
4.5241 -6.5480 -1.8050 0.9679
4.7565 -6.3818 -1.8051 0.9679
5.2027 -6.0248 -1.8053 0.9679
5.8211 -5.4314 -1.8056 0.9679
6.1963 -5.0002 -1.8057 0.9679
6.3721 -4.7747 -1.8058 0.9679
6.8492 -4.0625 -1.8060 0.9679
7.3609 -3.0407 -1.8062 0.9679
7.4655 -2.7746 -1.8062 0.9679
7.6455 -2.2319 -1.8063 0.9679
7.8414 -1.3971 -1.8063 0.9679
7.9461 -0.5460 -1.8063 0.9679
7.9605 -0.2604 -1.8063 0.9679
7.9646 0.0255 -1.8063 0.9679
7.9585 0.3114 -1.8063 0.9679
7.9154 0.8816 -1.8062 0.9679
7.8784 1.1651 -1.8062 0.9679
7.7741 1.7273 -1.8061 0.9679
7.7069 2.0052 -1.8060 0.9679
7.5427 2.5528 -1.8059 0.9679
7.4459 2.8217 -1.8058 0.9679
7.2237 3.3484 -1.8057 0.9679
7.0985 3.6054 -1.8056 0.9679
6.9642 3.8577 -1.8055 0.9679
6.8208 4.1050 -1.8054 0.9679
6.6687 4.3470 -1.8053 0.9679
6.1617 5.0378 -1.8050 0.9679
5.9766 5.2554 -1.8049 0.9679
5.1615 6.0551 -1.8044 0.9679
4.9405 6.2360 -1.8043 0.9679
4.7131 6.4089 -1.8042 0.9679
4.4713 6.5611 -1.8006 0.9680
4.1622 6.6053 -1.7706 0.9685
3.6580 6.2954 -1.6512 0.9706
3.4294 6.4221 -1.6511 0.9706
3.1964 6.5406 -1.6510 0.9706
2.2267 6.9285 -1.6504 0.9706
1.9764 7.0034 -1.6503 0.9706
1.7236 7.0693 -1.6502 0.9706
0.9534 7.2118 -1.6498 0.9706
0.1725 7.2707 -1.6494 0.9706
-0.8696 7.2183 -1.6488 0.9706
-1.6401 7.0813 -1.6485 0.9706
-1.8931 7.0173 -1.6483 0.9706
-2.3914 6.8624 -1.6481 0.9706
-2.6360 6.7716 -1.6480 0.9706
-3.1146 6.5641 -1.6477 0.9706
-3.8014 6.1900 -1.6474 0.9706
-4.4440 5.7444 -1.6471 0.9707
-4.6471 5.5809 -1.6470 0.9707
-5.5675 4.6603 -1.6466 0.9707
-5.8871 4.2485 -1.6465 0.9707
-6.3000 4.2110 -1.7185 0.9694
-6.8809 3.9161 -1.7955 0.9680
-7.1551 3.4175 -1.7983 0.9680
-7.2730 3.1584 -1.7982 0.9680
-1.4783 0.4605 -0.3511 0.9937
-1.4674 0.3999 -0.3449 0.9938
-1.4420 0.2837 -0.3333 0.9940
-1.4491 0.2314 -0.3328 0.9940
-1.4542 0.1790 -0.3323 0.9940
-1.4573 0.1264 -0.3317 0.9940
-1.4578 0.0215 -0.3307 0.9940
-1.4581 -0.0308 -0.3308 0.9940
-1.4584 -0.0833 -0.3313 0.9940
-1.4534 -0.1883 -0.3324 0.9940
-1.4480 -0.2408 -0.3329 0.9940
-1.4575 -0.3514 -0.3400 0.9939
-1.4952 -0.5975 -0.3652 0.9934
-7.1350 -3.4642 -1.7988 0.9680
-7.0063 -3.7183 -1.7988 0.9680
-6.8687 -3.9676 -1.7989 0.9680
-6.7222 -4.2118 -1.7990 0.9680
-6.5670 -4.4506 -1.7991 0.9680
-6.4034 -4.6838 -1.7992 0.9680
-6.0516 -5.1317 -1.7994 0.9680
-5.6685 -5.5534 -1.7997 0.9680
-5.2562 -5.9465 -1.7999 0.9680
-5.0396 -6.1318 -1.8000 0.9680
-4.8166 -6.3092 -1.8001 0.9680
-3.8652 -6.9357 -1.8007 0.9680
-3.6140 -7.0705 -1.8008 0.9680
-3.0979 -7.3127 -1.8011 0.9680
-2.5657 -7.5173 -1.8014 0.9679
-2.2944 -7.6052 -1.8015 0.9679
-2.0201 -7.6833 -1.8017 0.9679
-1.7431 -7.7514 -1.8018 0.9679
-1.1827 -7.8579 -1.8021 0.9679
-0.5752 -7.3991 -1.8024 0.9699
-0.3092 -7.4156 -1.8025 0.9699
-0.0428 -7.4225 -1.8027 0.9699
0.4899 -7.4075 -1.8030 0.9699
0.7555 -7.3857 -1.8031 0.9699
1.5664 -6.2502 -1.5649 0.9738
1.7707 -6.1242 -1.5483 0.9741
2.0121 -6.1256 -1.5659 0.9738
3.3048 -6.6540 -1.8043 0.9699
3.5418 -6.5314 -1.8045 0.9699
3.6279 -6.1525 -1.7346 0.9710
4.0017 -6.2613 -1.8047 0.9699
5.9495 -4.4580 -1.8056 0.9699
6.1059 -4.2418 -1.8056 0.9699
6.2544 -4.0200 -1.8057 0.9699
6.5271 -3.5611 -1.8058 0.9699
6.7662 -3.0838 -1.8059 0.9699
7.0588 -2.3387 -1.8060 0.9699
7.1383 -2.0838 -1.8060 0.9699
7.2086 -1.8262 -1.8060 0.9699
7.3633 -1.0407 -1.8060 0.9699
7.3959 -0.7757 -1.8060 0.9699
7.4324 -0.2431 -1.8060 0.9699
7.4363 0.0238 -1.8060 0.9699
7.3558 1.0878 -1.8059 0.9699
7.3119 1.3512 -1.8059 0.9699
7.2585 1.6127 -1.8058 0.9699
6.8527 2.8823 -1.8055 0.9699
6.7446 3.1264 -1.8054 0.9699
6.0766 4.2794 -1.8050 0.9699
5.9187 4.4945 -1.8049 0.9699
5.7532 4.7038 -1.8048 0.9699
5.5804 4.9070 -1.8047 0.9699
5.4003 5.1039 -1.8046 0.9699
4.8194 5.6538 -1.8043 0.9699
4.1788 6.1319 -1.8022 0.9699
3.9462 6.2625 -1.7977 0.9700
3.5001 6.0237 -1.6920 0.9717
2.9847 6.1073 -1.6509 0.9724
2.7633 6.2101 -1.6508 0.9724
1.1315 6.6986 -1.6499 0.9724
-0.0827 6.7904 -1.6493 0.9724
-0.3264 6.7826 -1.6491 0.9724
-0.5696 6.7660 -1.6490 0.9724
-0.8120 6.7407 -1.6489 0.9724
-1.0534 6.7067 -1.6488 0.9724
-1.5316 6.6129 -1.6485 0.9724
-2.2332 6.4085 -1.6482 0.9725
-2.6869 6.2310 -1.6480 0.9725
-3.3405 5.9049 -1.6477 0.9725
-3.5501 5.7808 -1.6476 0.9725
-3.7551 5.6493 -1.6475 0.9725
-3.9553 5.5106 -1.6474 0.9725
-4.5240 5.0526 -1.6471 0.9725
-4.8744 4.7146 -1.6470 0.9725
-5.0403 4.5363 -1.6469 0.9725
-5.4267 4.2206 -1.6696 0.9721
-5.8286 4.2063 -1.7457 0.9708
-6.1370 4.1021 -1.7927 0.9701
-6.4365 3.6631 -1.7986 0.9700
-6.5637 3.4296 -1.7986 0.9700
-1.3767 0.5979 -0.3645 0.9938
-1.3456 0.3153 -0.3356 0.9943
-1.3424 0.2641 -0.3323 0.9944
-1.3577 0.0200 -0.3298 0.9944
-1.3579 -0.0287 -0.3299 0.9944
-1.3566 -0.1265 -0.3309 0.9944
-1.3480 -0.2241 -0.3319 0.9944
-1.3475 -0.3249 -0.3366 0.9943
-1.3649 -0.4348 -0.3479 0.9941
-1.3709 -0.4916 -0.3537 0.9940
-1.3749 -0.5495 -0.3596 0.9939
-6.6635 -3.2353 -1.7990 0.9700
-6.5433 -3.4726 -1.7991 0.9700
-6.2779 -3.9335 -1.7992 0.9700
-5.9801 -4.3742 -1.7994 0.9700
-5.6515 -4.7925 -1.7996 0.9700
-5.4762 -4.9926 -1.7997 0.9700
-5.2937 -5.1862 -1.7998 0.9700
-4.9086 -5.5533 -1.8000 0.9700
-4.7064 -5.7263 -1.8002 0.9699
-4.2840 -6.0501 -1.8004 0.9699
-4.0643 -6.2004 -1.8005 0.9699
-3.8394 -6.3427 -1.8007 0.9699
-3.1360 -6.7201 -1.8010 0.9699
-2.6461 -6.9288 -1.8013 0.9699
-2.3959 -7.0199 -1.8014 0.9699
-2.1425 -7.1019 -1.8016 0.9699
-1.8864 -7.1748 -1.8017 0.9699
-0.8403 -7.3732 -1.8023 0.9699
-0.2899 -6.9519 -1.8025 0.9717
1.0765 -6.1332 -1.6132 0.9746
1.9338 -6.6883 -1.8036 0.9716
2.6421 -6.4429 -1.8040 0.9716
2.8719 -6.3443 -1.8041 0.9716
3.0979 -6.2375 -1.8042 0.9716
3.3201 -6.1226 -1.8043 0.9716
3.7512 -5.8693 -1.8045 0.9716
4.1631 -5.5856 -1.8047 0.9716
4.3611 -5.4329 -1.8048 0.9716
4.7401 -5.1064 -1.8050 0.9716
4.9206 -4.9332 -1.8051 0.9716
5.2623 -4.5679 -1.8052 0.9716
5.4231 -4.3762 -1.8053 0.9716
5.8627 -3.7682 -1.8055 0.9716
6.2343 -3.1164 -1.8056 0.9716
6.3423 -2.8906 -1.8056 0.9716
6.4421 -2.6611 -1.8057 0.9716
6.6167 -2.1922 -1.8057 0.9716
6.6912 -1.9533 -1.8058 0.9716
6.8142 -1.4682 -1.8058 0.9716
6.8625 -1.2226 -1.8058 0.9716
6.9020 -0.9755 -1.8058 0.9716
6.9325 -0.7271 -1.8058 0.9716
6.9650 0.2725 -1.8057 0.9716
6.9507 0.5224 -1.8057 0.9716
6.9273 0.7715 -1.8057 0.9716
6.8538 1.2665 -1.8056 0.9716
6.6775 1.9958 -1.8055 0.9716
6.6013 2.2342 -1.8054 0.9716
6.3222 2.9305 -1.8052 0.9716
6.0951 3.3763 -1.8051 0.9716
5.8367 3.8046 -1.8049 0.9716
5.2310 4.5998 -1.8046 0.9716
5.0622 4.7844 -1.8045 0.9716
4.8870 4.9627 -1.8044 0.9716
4.3244 5.4584 -1.8040 0.9716
4.1254 5.6097 -1.8039 0.9716
3.7039 5.8779 -1.7998 0.9717
2.7979 5.7252 -1.6508 0.9740
2.5905 5.8216 -1.6507 0.9740
2.3796 5.9104 -1.6506 0.9740
2.1658 5.9916 -1.6505 0.9740
1.9492 6.0651 -1.6504 0.9740
1.5088 6.1884 -1.6501 0.9740
1.0608 6.2798 -1.6499 0.9740
0.3795 6.3561 -1.6495 0.9740
0.1510 6.3651 -1.6494 0.9740
-0.0775 6.3660 -1.6493 0.9740
-0.5340 6.3431 -1.6491 0.9740
-0.7613 6.3194 -1.6490 0.9740
-0.9876 6.2876 -1.6488 0.9740
-1.6575 6.1437 -1.6485 0.9740
-1.8768 6.0799 -1.6484 0.9741
-2.0937 6.0082 -1.6483 0.9741
-2.3079 5.9288 -1.6482 0.9741
-2.7270 5.7472 -1.6480 0.9741
-2.9313 5.6453 -1.6479 0.9741
-3.1319 5.5361 -1.6478 0.9741
-4.0690 4.8867 -1.6474 0.9741
-4.4087 4.5817 -1.6472 0.9741
-5.4022 4.2015 -1.7729 0.9721
-5.6151 4.0521 -1.7939 0.9718
-5.7674 3.8550 -1.7971 0.9717
-5.9078 3.6491 -1.7989 0.9717
-6.0348 3.4345 -1.7988 0.9717
-6.1541 3.2156 -1.7988 0.9717
-1.2845 0.4002 -0.3485 0.9945
-1.2804 0.3490 -0.3438 0.9945
-1.2765 0.2991 -0.3397 0.9946
-1.2799 0.2518 -0.3379 0.9946
-1.2899 0.1119 -0.3354 0.9947
-1.2909 0.0190 -0.3344 0.9947
-1.2909 -0.0737 -0.3350 0.9947
-1.2896 -0.1202 -0.3355 0.9947
-1.2872 -0.1668 -0.3363 0.9947
-1.2837 -0.2135 -0.3371 0.9946
-1.2790 -0.2602 -0.3381 0.9946
-1.2771 -0.3079 -0.3403 0.9946
-1.2813 -0.3580 -0.3446 0.9945
-1.2892 -0.5697 -0.3651 0.9942
-1.2879 -0.6253 -0.3709 0.9941
-6.1349 -3.2558 -1.7993 0.9717
-5.4562 -4.2999 -1.7997 0.9717
-5.1342 -4.6808 -1.7999 0.9717
-4.9632 -4.8624 -1.8000 0.9717
-4.7857 -5.0377 -1.8001 0.9717
-4.6021 -5.2065 -1.8002 0.9717
-4.4125 -5.3687 -1.8003 0.9717
-4.2172 -5.5240 -1.8004 0.9717
-3.8104 -5.8130 -1.8006 0.9717
-3.3840 -6.0722 -1.8009 0.9717
-3.1641 -6.1902 -1.8010 0.9717
-2.9400 -6.3002 -1.8011 0.9717
-2.7122 -6.4021 -1.8012 0.9717
-2.4808 -6.4958 -1.8014 0.9717
-1.5260 -6.7859 -1.8019 0.9717
-1.0353 -6.8789 -1.8021 0.9717
-0.7878 -6.9121 -1.8023 0.9717
-0.5072 -6.5252 -1.8024 0.9732
-0.2727 -6.5397 -1.8025 0.9732
0.1972 -6.5433 -1.8027 0.9732
0.4320 -6.5324 -1.8029 0.9732
0.6663 -6.5131 -1.8030 0.9732
1.3050 -6.1330 -1.7267 0.9743
1.5920 -6.3523 -1.8034 0.9732
2.2661 -6.1455 -1.8038 0.9732
2.7015 -5.9678 -1.8040 0.9732
2.9141 -5.8673 -1.8041 0.9732
3.1230 -5.7592 -1.8042 0.9732
3.3279 -5.6437 -1.8043 0.9732
3.5286 -5.5209 -1.8044 0.9732
4.2832 -4.9600 -1.8047 0.9732
4.6285 -4.6403 -1.8049 0.9732
4.9498 -4.2966 -1.8050 0.9732
5.3836 -3.7400 -1.8052 0.9732
5.5146 -3.5444 -1.8053 0.9732
5.6384 -3.3443 -1.8053 0.9732
5.7550 -3.1398 -1.8054 0.9732
5.8641 -2.9313 -1.8054 0.9732
6.1455 -2.2840 -1.8055 0.9732
6.2937 -1.8373 -1.8055 0.9732
6.3557 -1.6102 -1.8056 0.9732
6.4549 -1.1500 -1.8056 0.9732
6.5208 -0.6839 -1.8056 0.9732
6.5411 -0.4494 -1.8056 0.9732
6.5530 -0.2143 -1.8056 0.9732
6.5564 0.0210 -1.8056 0.9732
6.5514 0.2563 -1.8055 0.9732
6.5159 0.7257 -1.8055 0.9732
6.3998 1.4219 -1.8054 0.9732
6.3444 1.6507 -1.8053 0.9732
6.2809 1.8773 -1.8053 0.9732
6.0421 2.5414 -1.8051 0.9732
5.6153 3.3795 -1.8048 0.9732
5.3579 3.7733 -1.8047 0.9732
5.2188 3.9630 -1.8046 0.9732
5.0729 4.1476 -1.8045 0.9732
4.5969 4.6682 -1.8042 0.9732
4.4261 4.8299 -1.8041 0.9732
4.2497 4.9854 -1.8040 0.9732
4.0677 5.1345 -1.8039 0.9732
3.6885 5.4124 -1.8037 0.9732
3.4883 5.5358 -1.8019 0.9732
3.0077 5.6325 -1.7584 0.9739
2.6423 5.4067 -1.6572 0.9753
1.6275 5.7671 -1.6502 0.9754
1.2094 5.8683 -1.6500 0.9754
0.9979 5.9075 -1.6499 0.9754
0.5714 5.9630 -1.6497 0.9755
0.3570 5.9793 -1.6496 0.9755
-0.0729 5.9887 -1.6493 0.9755
-0.5024 5.9673 -1.6491 0.9755
-0.7162 5.9450 -1.6490 0.9755
-1.5593 5.7798 -1.6486 0.9755
-1.9697 5.6523 -1.6484 0.9755
-2.1712 5.5776 -1.6483 0.9755
-2.3699 5.4958 -1.6482 0.9755
-3.1314 5.0989 -1.6478 0.9755
-3.4888 4.8606 -1.6477 0.9755
-3.6608 4.7320 -1.6476 0.9755
-3.8281 4.5974 -1.6475 0.9755
-4.3638 4.2207 -1.6719 0.9751
-5.4315 3.6305 -1.7991 0.9733
-5.5582 3.4331 -1.7991 0.9733
-1.2235 0.5844 -0.3734 0.9944
-1.2261 0.4809 -0.3627 0.9946
-1.2254 0.4306 -0.3577 0.9946
-1.2221 0.3331 -0.3488 0.9948
-1.2312 0.1966 -0.3434 0.9948
-1.2346 0.1519 -0.3425 0.9949
-1.2378 -0.0262 -0.3409 0.9949
-1.2305 -0.2046 -0.3435 0.9948
-1.2259 -0.2494 -0.3445 0.9948
-1.2206 -0.2943 -0.3458 0.9948
-1.2223 -0.3416 -0.3495 0.9947
-1.2240 -0.3899 -0.3538 0.9947
-1.2252 -0.5414 -0.3689 0.9945
-1.2230 -0.5938 -0.3744 0.9944
-1.2193 -0.6471 -0.3801 0.9943
-5.6583 -3.2684 -1.7995 0.9733
-4.9849 -4.2272 -1.7999 0.9732
-4.8302 -4.4037 -1.8000 0.9732
-4.6693 -4.5744 -1.8001 0.9732
-4.3295 -4.8982 -1.8003 0.9732
-4.1511 -5.0507 -1.8004 0.9732
-3.3863 -5.5942 -1.8008 0.9732
-2.1131 -6.1912 -1.8015 0.9732
-0.9740 -6.4712 -1.8021 0.9732
-0.7411 -6.5024 -1.8023 0.9732
0.4076 -6.1638 -1.8028 0.9746
0.6287 -6.1456 -1.8029 0.9746
1.0681 -6.0854 -1.8032 0.9746
1.2859 -6.0435 -1.8033 0.9746
1.5021 -5.9938 -1.8034 0.9746
2.1382 -5.7986 -1.8037 0.9746
2.3450 -5.7184 -1.8038 0.9746
2.7496 -5.5360 -1.8040 0.9746
3.1400 -5.3250 -1.8042 0.9746
3.5143 -5.0865 -1.8043 0.9746
4.2069 -4.5320 -1.8047 0.9746
4.5215 -4.2188 -1.8048 0.9746
4.8129 -3.8838 -1.8049 0.9746
5.3198 -3.1553 -1.8051 0.9746
5.4298 -2.9624 -1.8052 0.9746
5.6286 -2.5653 -1.8053 0.9746
5.7983 -2.1550 -1.8053 0.9746
5.8720 -1.9455 -1.8053 0.9746
5.9381 -1.7334 -1.8054 0.9746
6.0473 -1.3029 -1.8054 0.9746
6.1715 -0.4240 -1.8054 0.9746
6.1859 0.0198 -1.8054 0.9746
6.1812 0.2419 -1.8053 0.9746
6.1477 0.6847 -1.8053 0.9746
6.1191 0.9049 -1.8053 0.9746
5.9860 1.5574 -1.8052 0.9746
5.9260 1.7712 -1.8051 0.9746
5.7008 2.3978 -1.8049 0.9746
5.5137 2.8004 -1.8048 0.9746
5.1801 3.3766 -1.8046 0.9746
5.0553 3.5602 -1.8045 0.9746
4.9240 3.7392 -1.8045 0.9746
4.7864 3.9134 -1.8044 0.9746
4.4929 4.2463 -1.8042 0.9746
4.0097 4.7039 -1.8039 0.9746
3.8381 4.8446 -1.8038 0.9746
3.6615 4.9789 -1.8037 0.9746
3.4802 5.1069 -1.8036 0.9746
3.2945 5.2282 -1.8035 0.9746
2.9009 5.4325 -1.7973 0.9747
2.3246 5.2242 -1.6688 0.9765
1.9224 5.3182 -1.6504 0.9767
1.7301 5.3835 -1.6503 0.9767
1.3393 5.4930 -1.6501 0.9767
1.1412 5.5372 -1.6500 0.9767
0.9416 5.5742 -1.6499 0.9767
0.5392 5.6267 -1.6497 0.9767
-0.0688 5.6510 -1.6494 0.9767
-0.4740 5.6308 -1.6492 0.9767
-0.8767 5.5816 -1.6489 0.9767
-1.0764 5.5462 -1.6488 0.9767
-1.2747 5.5036 -1.6487 0.9767
-2.0488 5.2633 -1.6484 0.9767
-2.2363 5.1861 -1.6483 0.9767
-2.7804 4.9148 -1.6480 0.9767
-2.9549 4.8116 -1.6479 0.9767
-3.2922 4.5868 -1.6478 0.9767
-3.4546 4.4654 -1.6477 0.9767
-3.6125 4.3384 -1.6476 0.9768
-4.3461 4.2036 -1.7646 0.9751
-4.5675 4.1108 -1.7934 0.9747
-4.8653 3.7839 -1.7988 0.9746
-4.9995 3.6079 -1.7994 0.9746
-5.1256 3.4260 -1.7993 0.9746
-5.2452 3.2397 -1.7993 0.9746
-1.1603 0.6063 -0.3821 0.9946
-1.1644 0.5562 -0.3766 0.9946
-1.1672 0.5069 -0.3714 0.9947
-1.1686 0.4583 -0.3663 0.9948
-1.1687 0.4106 -0.3615 0.9949
-1.1697 0.3644 -0.3576 0.9949
-1.1720 0.2746 -0.3513 0.9950
-1.1819 0.1887 -0.3493 0.9950
-1.1852 0.1459 -0.3485 0.9950
-1.1884 0.0602 -0.3473 0.9951
-1.1884 -0.0251 -0.3469 0.9951
-1.1883 -0.0679 -0.3474 0.9951
-1.1766 -0.2393 -0.3504 0.9950
-1.1696 -0.3726 -0.3582 0.9949
-1.1688 -0.4191 -0.3624 0.9948
-1.1668 -0.5156 -0.3723 0.9947
-1.1638 -0.5651 -0.3776 0.9946
-1.1595 -0.6153 -0.3831 0.9945
-4.9777 -3.6409 -1.7999 0.9746
-4.8440 -3.8174 -1.8000 0.9746
-4.7041 -3.9891 -1.8000 0.9746
-4.4062 -4.3167 -1.8002 0.9746
-4.0855 -4.6222 -1.8004 0.9746
-3.9172 -4.7661 -1.8005 0.9746
-3.7438 -4.9039 -1.8006 0.9746
-3.5655 -5.0354 -1.8007 0.9746
-3.1955 -5.2789 -1.8009 0.9746
-3.0041 -5.3905 -1.8010 0.9746
-2.8088 -5.4952 -1.8011 0.9746
-2.6099 -5.5928 -1.8012 0.9746
-2.4076 -5.6832 -1.8013 0.9746
-1.7830 -5.9102 -1.8017 0.9746
-1.5698 -5.9708 -1.8018 0.9746
-1.3546 -6.0237 -1.8019 0.9746
-0.6993 -6.1356 -1.8023 0.9746
-0.4528 -5.8255 -1.8024 0.9758
0.1761 -5.8415 -1.8027 0.9758
1.2167 -5.7179 -1.8032 0.9758
1.4212 -5.6708 -1.8033 0.9758
1.6239 -5.6165 -1.8034 0.9758
2.2187 -5.4102 -1.8037 0.9758
2.6014 -5.2376 -1.8039 0.9758
3.1498 -4.9283 -1.8041 0.9758
3.3248 -4.8123 -1.8042 0.9758
3.4956 -4.6901 -1.8043 0.9758
3.6619 -4.5617 -1.8044 0.9758
4.2777 -3.9913 -1.8047 0.9758
4.4184 -3.8353 -1.8047 0.9758
4.5534 -3.6744 -1.8048 0.9758
4.6825 -3.5086 -1.8048 0.9758
4.9224 -3.1638 -1.8049 0.9758
5.0329 -2.9852 -1.8050 0.9758
5.4088 -2.2343 -1.8051 0.9758
5.4855 -2.0387 -1.8051 0.9758
5.5553 -1.8405 -1.8052 0.9758
5.7211 -1.2327 -1.8052 0.9758
5.8205 -0.6105 -1.8052 0.9758
5.8386 -0.4012 -1.8052 0.9758
5.8492 -0.1913 -1.8052 0.9758
5.8357 0.4386 -1.8052 0.9758
5.7125 1.2692 -1.8050 0.9758
5.6065 1.6757 -1.8050 0.9758
5.4715 2.0735 -1.8049 0.9758
5.3083 2.4606 -1.8047 0.9758
5.1177 2.8349 -1.8046 0.9758
4.6586 3.5376 -1.8043 0.9758
4.5284 3.7024 -1.8043 0.9758
4.2507 4.0174 -1.8041 0.9758
4.1036 4.1672 -1.8040 0.9758
3.6312 4.5835 -1.8037 0.9758
3.4642 4.7106 -1.8036 0.9758
2.9367 5.0540 -1.8030 0.9758
2.7486 5.1471 -1.7999 0.9759
2.5578 5.2338 -1.7969 0.9759
2.3138 5.1999 -1.7556 0.9765
2.0381 5.0620 -1.6832 0.9774
1.8188 5.0317 -1.6504 0.9779
1.6370 5.0935 -1.6503 0.9779
0.8909 5.2741 -1.6499 0.9779
0.7010 5.3023 -1.6498 0.9779
0.5101 5.3238 -1.6497 0.9779
0.3187 5.3383 -1.6496 0.9779
-0.6394 5.3078 -1.6491 0.9779
-1.0185 5.2477 -1.6489 0.9779
-1.3922 5.1605 -1.6487 0.9779
-1.5764 5.1069 -1.6486 0.9779
-1.9386 4.9801 -1.6484 0.9779
-3.1151 4.3401 -1.6479 0.9779
