ply
format ascii 1.0
element vertex 1544
property float32 x
property float32 y
property float32 z
property float32 I
end_header
-9.8726 11.8563 3.9286 0.9383
-10.4407 11.6606 3.9854 0.9374
-12.3807 11.9747 4.3858 0.9314
-13.1854 11.8671 4.5170 0.9294
-14.9394 11.6189 4.8191 0.9249
-57.8206 38.6479 17.7090 0.7505
-76.6986 30.0831 20.9784 0.7117
-75.4385 26.5058 20.3602 0.7189
-75.2594 23.4437 20.0716 0.7223
-82.1114 13.1132 21.1731 0.7095
-46.5727 -31.5635 14.3257 0.7928
-45.3520 -33.1728 14.3075 0.7930
-42.1231 -33.1962 13.6563 0.8014
-37.5368 -31.8312 12.5320 0.8162
-34.7560 -31.6867 11.9759 0.8235
-15.0703 -14.7642 5.3720 0.9166
-28.1955 -31.8990 10.8406 0.8388
-26.7267 -32.5187 10.7181 0.8405
-25.4354 -33.3172 10.6733 0.8411
-19.1485 -29.2119 8.8939 0.8657
-18.7466 -40.1722 11.2881 0.8328
-17.7366 -41.8678 11.5780 0.8289
-16.1921 -42.3984 11.5565 0.8292
-11.3329 -43.1044 11.3487 0.8320
-8.0839 -43.1279 11.1730 0.8343
-4.9180 -43.1508 11.0587 0.8359
4.4740 -43.7360 10.4841 0.8346
6.0644 -43.7157 10.5246 0.8340
7.4487 -42.4381 10.2748 0.8376
9.0697 -42.6248 10.3922 0.8359
10.9316 -43.6193 10.7235 0.8312
12.3164 -42.5973 10.5742 0.8333
13.8335 -42.1155 10.5711 0.8334
15.6684 -42.4922 10.7999 0.8301
19.3937 -42.8425 11.2146 0.8242
20.9478 -42.1766 11.2300 0.8239
46.9114 -43.7707 15.3002 0.7681
47.1394 -38.0395 14.4448 0.7795
48.4274 -36.2876 14.4308 0.7797
51.9514 -36.0908 15.0848 0.7710
63.1277 -40.5750 17.8953 0.7345
63.0968 -37.4247 17.4942 0.7396
84.2455 -42.1120 22.4600 0.6789
39.8064 10.3567 9.8086 0.8444
30.6364 10.3686 7.7129 0.8755
27.0071 11.3595 6.9868 0.8865
27.3875 12.6951 7.1986 0.8833
27.6478 15.3151 7.5371 0.8781
27.3487 16.4593 7.6118 0.8770
27.5935 19.4327 8.0482 0.8704
27.9897 21.2547 8.3810 0.8654
27.5256 22.5048 8.4786 0.8640
27.4821 27.9082 9.3403 0.8512
27.4976 30.0062 9.7056 0.8459
27.4638 32.2186 10.0957 0.8402
27.4314 34.6250 10.5342 0.8339
33.5841 45.6680 13.5181 0.7921
31.1075 45.6472 13.1727 0.7968
28.6574 45.4783 12.8186 0.8017
27.5265 47.3727 13.0655 0.7983
5.0197 10.2714 2.7262 0.9541
-0.7568 15.7272 3.7548 0.9373
-0.9755 11.5874 2.7730 0.9533
-1.8210 11.5935 2.7986 0.9529
-2.6867 11.5998 2.8394 0.9522
-3.5828 11.6063 2.8966 0.9513
-5.0093 11.6166 3.0168 0.9493
-5.4864 11.5628 3.0520 0.9487
-6.5809 11.6326 3.1871 0.9465
-7.3314 11.9380 3.3408 0.9440
-7.9382 11.9425 3.4196 0.9427
-9.8727 11.8564 3.6792 0.9385
-10.4407 11.6606 3.7324 0.9377
-12.3807 11.9746 4.1074 0.9316
-13.1854 11.8671 4.2302 0.9297
-14.3228 11.9887 4.4541 0.9261
-14.9394 11.6189 4.5132 0.9251
-58.0537 41.8949 17.0724 0.7450
-57.4511 38.4010 16.4789 0.7526
-69.9565 39.8134 19.1948 0.7182
-76.6995 30.0835 19.6469 0.7126
-79.4844 24.7598 19.8528 0.7101
-81.3140 22.1610 20.0980 0.7071
-85.0821 16.7397 20.6783 0.7001
-86.1104 13.7519 20.7948 0.6987
-45.3521 -33.1729 13.3994 0.7937
-42.1232 -33.1963 12.7894 0.8021
-32.2875 -31.6317 10.7788 0.8304
-33.1532 -34.8988 11.4788 0.8204
-28.0675 -31.7541 10.1064 0.8401
-25.4354 -33.3173 9.9958 0.8417
-18.7469 -40.1730 10.5717 0.8334
-18.4565 -43.5670 11.2832 0.8232
-13.0003 -43.0924 10.7336 0.8310
-9.6957 -43.1163 10.5386 0.8338
-8.0839 -43.1280 10.4637 0.8349
-4.9746 -43.6471 10.4758 0.8347
-1.7400 -41.7275 9.2892 0.8427
4.4740 -43.7361 9.7786 0.8351
8.9588 -42.1039 9.5745 0.8383
13.7773 -41.9443 9.8197 0.8345
15.4518 -41.9046 9.9339 0.8328
17.9812 -43.8473 10.5408 0.8235
19.8533 -43.8579 10.7078 0.8210
20.9479 -42.1767 10.4743 0.8245
47.0967 -43.9436 14.3270 0.7680
47.2581 -41.0218 13.9189 0.7738
48.4275 -36.2877 13.4597 0.7804
63.1271 -40.5746 16.6910 0.7353
63.2893 -37.5389 16.3668 0.7397
39.8062 10.3566 9.1485 0.8449
27.5610 10.4447 6.5556 0.8862
27.3621 11.5088 6.6023 0.8855
27.3706 12.6872 6.7100 0.8837
26.7316 14.8076 6.7969 0.8823
27.3689 19.2745 7.4455 0.8718
27.5692 24.2428 8.1655 0.8603
27.4817 27.9079 8.7117 0.8517
27.4792 29.9861 9.0465 0.8465
27.4636 32.2185 9.4163 0.8407
27.8657 37.8920 10.4616 0.8247
31.1844 45.7600 12.3167 0.7970
33.5247 75.3410 18.3416 0.7133
30.3430 75.3640 18.0702 0.7168
1.9830 83.5739 18.5939 0.7099
-0.7568 15.7272 3.5021 0.9375
-1.3963 11.5904 2.5966 0.9533
-3.1303 11.6030 2.6730 0.9519
-3.5828 11.6062 2.7017 0.9514
-4.5206 11.6130 2.7718 0.9502
-5.0092 11.6166 2.8138 0.9495
-7.6801 11.5542 3.0858 0.9447
-9.8728 11.8565 3.4317 0.9387
-10.4407 11.6605 3.4813 0.9379
-11.2259 11.6662 3.6010 0.9358
-13.1853 11.8671 3.9456 0.9299
-14.3228 11.9887 4.1544 0.9263
-14.9393 11.6189 4.2094 0.9254
-57.4295 41.4444 15.7524 0.7481
-57.4517 38.4014 15.3702 0.7534
-57.4729 35.4989 15.0251 0.7582
-62.3495 35.4841 15.9564 0.7453
-76.5005 39.9727 19.1981 0.7021
-74.4761 35.5721 18.3576 0.7130
-82.0404 35.6270 19.8939 0.6931
-75.7592 20.6471 17.4650 0.7249
-78.8107 15.5058 17.8652 0.7195
-94.4655 15.0862 21.2774 0.6757
-34.7783 -31.7070 10.4677 0.8246
-32.3341 -31.6774 10.0680 0.8307
-33.1495 -34.8949 10.7053 0.8210
-28.0675 -31.7542 9.4263 0.8406
-25.6750 -33.6311 9.4110 0.8408
-19.0875 -29.1189 7.7441 0.8670
-19.1168 -31.5809 8.2109 0.8596
-19.2880 -34.6102 8.8127 0.8501
-18.7220 -36.6278 9.1493 0.8449
-18.7473 -40.1738 9.8606 0.8339
-18.4565 -43.5671 10.5239 0.8238
-16.6446 -43.5832 10.3767 0.8260
-14.5301 -42.5725 10.0054 0.8317
-13.1315 -43.5271 10.1123 0.8300
-11.4678 -43.6177 10.0312 0.8313
-9.4402 -41.9799 9.5704 0.8384
-7.8683 -41.9777 9.4994 0.8394
-6.5701 -43.6532 9.8188 0.8345
-4.9766 -43.6647 9.7748 0.8352
-3.2473 -41.7739 8.6516 0.8427
-1.7400 -41.7276 8.6235 0.8432
-0.2522 -43.7020 9.0239 0.8365
1.2586 -41.7566 8.6260 0.8431
7.3953 -42.1340 8.8330 0.8397
13.7881 -41.9772 9.1232 0.8349
19.8534 -43.8579 9.9406 0.8215
22.7829 -42.0145 9.8687 0.8227
49.6486 -84.1976 20.1829 0.6708
47.0177 -37.9413 12.4751 0.7813
52.0707 -36.1736 13.0916 0.7719
63.0444 -37.3937 15.1352 0.7413
30.7930 10.4216 6.7125 0.8757
27.5608 10.4446 6.0858 0.8866
27.3111 11.4874 6.1178 0.8860
27.3704 12.6871 6.2292 0.8841
27.3888 15.1716 6.4650 0.8800
27.3479 16.4588 6.5907 0.8778
27.3579 17.8330 6.7431 0.8751
27.3183 19.2389 6.8992 0.8724
27.3667 20.7816 7.0954 0.8691
27.4673 25.9597 7.8038 0.8570
27.4694 34.6730 9.1339 0.8347
30.9190 45.3704 11.3368 0.7991
28.6573 45.4781 11.0993 0.8029
27.7687 47.7895 11.4126 0.7979
5.0192 10.2705 2.3604 0.9544
33.6246 75.5655 17.0780 0.7133
6.7076 27.5111 5.8470 0.8908
-0.9755 11.5874 2.4011 0.9536
-1.3963 11.5904 2.4105 0.9534
-2.2507 11.5966 2.4392 0.9529
-3.5828 11.6062 2.5081 0.9516
-4.0457 11.6096 2.5386 0.9510
-4.5206 11.6130 2.5732 0.9504
-5.0092 11.6165 2.6121 0.9496
-6.5782 11.6279 2.7585 0.9469
-7.1435 11.6320 2.8186 0.9458
-8.3553 11.6408 2.9587 0.9432
-9.8728 11.8566 3.1858 0.9389
-10.4407 11.6605 3.2318 0.9381
-11.2258 11.6662 3.3430 0.9360
-13.1853 11.8670 3.6628 0.9301
-58.0549 41.8957 14.7828 0.7465
-57.8223 38.6491 14.3609 0.7527
-57.5884 35.5702 13.9764 0.7585
-67.9883 35.5249 15.8393 0.7310
-82.0401 35.6269 18.4683 0.6940
-75.4406 26.5065 16.5108 0.7214
-75.9793 23.6679 16.4320 0.7225
-79.0263 18.5177 16.7596 0.7178
-80.5332 15.8447 16.9476 0.7152
-82.1124 13.1133 17.1697 0.7120
-73.6023 -42.5152 17.5509 0.7067
-47.3623 -29.6751 11.5406 0.7959
-46.5740 -31.5644 11.6172 0.7947
-45.3523 -33.1730 11.6022 0.7949
-37.3665 -31.6868 10.1162 0.8186
-32.3368 -31.6800 9.3473 0.8312
-37.2675 -39.2297 11.1727 0.8017
-26.7089 -32.4970 8.6856 0.8421
-26.1176 -34.2108 8.8872 0.8388
-26.4526 -37.3575 9.4517 0.8295
-18.4565 -43.5671 9.7698 0.8243
-14.5254 -42.5587 9.2854 0.8322
-13.1319 -43.5283 9.3880 0.8305
-11.4679 -43.6178 9.3124 0.8318
-6.5701 -43.6533 9.1152 0.8350
-4.9766 -43.6648 9.0744 0.8357
-3.2456 -41.7522 7.9839 0.8432
-1.7400 -41.7264 7.9619 0.8436
-0.2522 -43.7020 8.3317 0.8370
2.7608 -41.7457 7.9760 0.8434
4.4740 -43.7362 8.3816 0.8361
6.0634 -43.7084 8.4126 0.8355
7.3917 -42.1136 8.1515 0.8402
8.9592 -42.1054 8.2069 0.8392
12.3332 -42.6553 8.4651 0.8346
17.9813 -43.8475 9.0349 0.8245
19.8534 -43.8580 9.1781 0.8220
22.7746 -41.9991 9.1084 0.8232
49.7208 -84.3200 18.6619 0.6713
47.2759 -41.0372 11.9349 0.7750
66.5415 -36.3042 14.4511 0.7344
84.4623 -42.2204 18.0021 0.6808
39.8058 10.3565 7.8414 0.8458
34.6140 10.3457 6.8874 0.8632
30.7929 10.4216 6.1976 0.8760
27.5607 10.4446 5.6190 0.8869
27.5556 11.5902 5.6991 0.8854
27.3702 12.6870 5.7513 0.8844
27.4921 13.9635 5.8785 0.8820
27.3886 15.1715 5.9691 0.8803
27.3577 17.8328 6.2258 0.8755
27.3683 19.2741 6.3817 0.8726
27.3412 20.7622 6.5450 0.8695
26.2078 21.4274 6.4538 0.8712
27.4210 24.1124 6.9614 0.8618
27.4811 27.9072 7.4669 0.8526
27.4629 32.2176 8.0708 0.8417
29.6400 43.4937 10.0342 0.8071
28.6575 45.4784 10.2480 0.8034
5.0190 10.2701 2.1793 0.9545
30.0253 67.4766 14.0802 0.7403
27.9026 77.1915 15.6481 0.7159
1.9830 83.5737 15.9374 0.7115
-1.0159 83.3938 15.8998 0.7120
-1.3722 11.3902 2.1872 0.9544
-2.2118 11.3963 2.2132 0.9538
-2.6403 11.3994 2.2308 0.9535
-3.0762 11.4025 2.2516 0.9530
-4.0456 11.6096 2.3438 0.9512
-5.5136 11.6202 2.4521 0.9490
-6.0358 11.6240 2.4970 0.9481
-7.1435 11.6320 2.6024 0.9459
-7.7347 11.6363 2.6638 0.9447
-9.0093 11.6455 2.8070 0.9418
-10.4365 11.6558 2.9827 0.9383
-11.1421 11.5792 3.0636 0.9367
-12.3806 11.9746 3.2837 0.9323
-13.1853 11.8670 3.3819 0.9303
-14.3227 11.9886 3.5609 0.9268
-14.9393 11.6188 3.6080 0.9258
-25.3725 18.3103 5.9652 0.8804
-57.4528 38.4021 13.1746 0.7547
-57.4740 35.4995 12.8788 0.7595
-74.4756 35.5719 15.7349 0.7146
-82.5707 35.8573 17.1620 0.6931
-79.7369 28.0160 16.1125 0.7088
-81.5572 25.4054 16.2854 0.7062
-93.5473 25.4950 18.4848 0.6738
-85.0390 19.9266 16.6515 0.7007
-91.0855 17.9208 17.6979 0.6852
-91.2276 14.5691 17.6125 0.6865
-72.7068 -41.9980 16.0075 0.7104
-46.5745 -31.5648 10.7263 0.7952
-45.3524 -33.1731 10.7123 0.7955
-42.0940 -33.1733 10.2175 0.8039
-37.3666 -31.6869 9.3403 0.8191
-34.6843 -31.6213 8.9480 0.8260
-30.1718 -31.7604 8.3516 0.8366
-26.7030 -32.4899 8.0176 0.8426
-26.3966 -34.5763 8.2932 0.8377
-18.3247 -32.8816 7.1765 0.8579
-18.7480 -40.1753 8.4522 0.8348
-18.4566 -43.5672 9.0205 0.8248
-14.5207 -42.5449 8.5704 0.8327
-11.4679 -43.6179 8.5981 0.8322
-9.4396 -41.9774 8.2026 0.8393
-7.8702 -41.9875 8.1441 0.8403
-3.2422 -41.7081 7.3167 0.8438
-0.2480 -42.9724 7.5159 0.8399
1.2585 -41.7541 7.3061 0.8440
2.7633 -41.7837 7.3239 0.8436
6.0143 -43.3541 7.6552 0.8372
8.9604 -42.1114 7.5301 0.8396
10.7929 -43.0658 7.7651 0.8350
13.7801 -41.9528 7.7232 0.8358
15.4692 -41.9519 7.8203 0.8340
17.9813 -43.8475 8.2887 0.8249
20.8598 -41.9994 8.2018 0.8266
49.6391 -84.1815 17.0924 0.6724
46.9604 -67.9694 14.4492 0.7150
47.8006 -59.5476 13.3552 0.7334
49.1017 -56.8604 13.1397 0.7371
47.7696 -51.4615 12.2806 0.7519
47.1137 -43.9595 11.2700 0.7698
47.0302 -37.9514 10.5697 0.7824
48.1276 -36.0629 10.5184 0.7833
52.3022 -36.3345 11.1384 0.7721
66.2793 -36.1612 13.2053 0.7359
33.7204 1.3194 5.9022 0.8719
39.8055 10.3564 7.1937 0.8462
31.1814 10.5531 5.7575 0.8749
27.3700 12.6869 5.2762 0.8847
27.5729 14.0046 5.4089 0.8820
27.3883 15.1713 5.4760 0.8806
27.5416 16.5754 5.6221 0.8776
27.3410 20.7621 6.0044 0.8699
26.2076 21.4273 5.9207 0.8716
27.4808 27.9069 6.8501 0.8530
27.4961 30.0045 7.1180 0.8477
27.4625 32.2171 7.4041 0.8421
27.4857 34.6935 7.7413 0.8355
27.7372 37.7173 8.1885 0.8269
28.8713 42.3657 8.9667 0.8121
28.6912 45.5320 9.4127 0.8037
29.6092 55.4483 10.9939 0.7747
5.0188 10.2697 1.9992 0.9546
29.1003 65.3979 12.5193 0.7478
27.6919 76.6087 14.2473 0.7184
1.9830 83.5736 14.6210 0.7122
-0.9755 11.5873 2.0338 0.9539
-1.3963 11.5904 2.0418 0.9537
-2.2452 11.5680 2.0610 0.9533
-3.1054 11.5107 2.0852 0.9527
-3.5420 11.4741 2.1002 0.9524
-4.4425 11.4124 2.1419 0.9515
-4.9227 11.4159 2.1743 0.9508
-5.4184 11.4195 2.2107 0.9500
-7.1435 11.6320 2.3874 0.9461
-7.7347 11.6362 2.4438 0.9448
-8.3553 11.6407 2.5061 0.9435
-9.0092 11.6455 2.5751 0.9420
-9.7012 11.6505 2.6516 0.9403
-11.2213 11.6615 2.8305 0.9364
-12.0632 11.6676 2.9353 0.9341
-12.9710 11.6742 3.0521 0.9316
-57.4745 35.4998 11.8151 0.7601
-82.0394 35.6266 15.6432 0.6955
-83.6189 32.7974 15.7096 0.6944
-75.7609 20.6476 13.7338 0.7270
-76.8871 18.0164 13.8117 0.7257
-78.8120 15.5061 14.0484 0.7217
-84.1625 -40.8633 16.3632 0.6839
-79.7860 -42.3428 15.7979 0.6930
-47.3994 -29.6983 9.7829 0.7968
-46.5749 -31.5651 9.8404 0.7958
-45.3525 -33.1732 9.8276 0.7960
-43.7982 -34.5163 9.7531 0.7974
-37.5163 -36.7543 9.1857 0.8079
-37.3966 -39.3656 9.4965 0.8021
-26.5144 -34.7306 7.6422 0.8374
-20.9303 -31.9302 6.6774 0.8564
-19.1169 -31.5810 6.4566 0.8608
-18.3466 -35.8934 7.0503 0.8490
-16.5871 -43.4327 8.1315 0.8280
-11.2772 -42.8925 7.7568 0.8352
-7.8719 -41.9967 7.4731 0.8407
-4.9337 -43.2888 7.6202 0.8378
-3.2411 -41.6936 6.6592 0.8442
2.7639 -41.7928 6.6695 0.8440
7.3857 -42.0792 6.8030 0.8411
8.9633 -42.1250 6.8580 0.8399
12.3277 -42.6363 7.0674 0.8355
13.7706 -41.9239 7.0267 0.8363
17.6812 -43.1156 7.4205 0.8280
20.8560 -41.9917 7.4659 0.8270
49.7209 -84.3203 15.5874 0.6727
49.0921 -65.8672 13.0812 0.7170
49.2802 -57.0671 12.0065 0.7368
47.1132 -43.9590 10.2606 0.7703
47.1558 -38.0527 9.6488 0.7824
84.2443 -42.1114 14.9974 0.6829
34.7704 10.3925 5.7787 0.8633
31.4229 10.6348 5.2825 0.8743
27.5605 10.4445 4.6932 0.8875
27.5852 11.6027 4.7653 0.8858
27.3697 12.6868 4.8037 0.8850
27.6028 14.0197 4.9298 0.8821
27.3572 17.8325 5.2000 0.8761
26.2075 21.4271 5.3905 0.8719
27.4664 25.9588 6.0179 0.8581
27.4620 32.2165 6.7409 0.8424
28.1451 41.3001 7.9584 0.8167
28.5885 45.3689 8.5391 0.8048
26.9116 46.3146 8.5296 0.8050
27.4329 75.8923 12.8501 0.7212
1.9830 83.5735 13.3117 0.7128
-1.3963 11.5904 1.8590 0.9538
-3.1303 11.6029 1.9137 0.9525
-3.5828 11.6062 1.9342 0.9520
-4.5205 11.6130 1.9844 0.9508
-5.0092 11.6165 2.0144 0.9501
-6.5019 11.4930 2.1027 0.9479
-7.0201 11.4311 2.1361 0.9471
-7.6011 11.4353 2.1865 0.9459
-9.0092 11.6454 2.3445 0.9421
-10.4364 11.6558 2.4913 0.9386
-13.9555 11.6813 2.8980 0.9289
-57.6045 41.5707 11.3118 0.7500
-57.8239 38.6502 11.0752 0.7545
-62.3487 35.4836 11.4234 0.7478
-82.5719 35.8578 14.3347 0.6945
-79.3540 21.6269 13.0969 0.7167
-81.6337 19.1287 13.3512 0.7121
-46.5754 -31.5654 8.9593 0.7962
-45.3526 -33.1732 8.9475 0.7964
-45.3145 -35.7112 9.1871 0.7916
-37.5373 -31.8316 7.8371 0.8193
-37.5365 -39.5129 8.6784 0.8019
-28.1958 -31.8993 6.7794 0.8416
-26.6914 -32.4757 6.6938 0.8434
-27.1085 -38.2837 7.4697 0.8270
-20.9271 -31.9252 6.0785 0.8567
-19.1170 -31.5811 5.8784 0.8611
-18.3253 -32.8827 5.9943 0.8586
-18.3469 -35.8940 6.4190 0.8494
-18.3718 -39.3692 6.9180 0.8386
-18.3203 -43.2455 7.4787 0.8268
-16.5346 -43.2951 7.3798 0.8289
-13.0880 -43.3830 7.2157 0.8323
-11.2856 -42.9247 7.0675 0.8355
-6.5184 -43.3091 6.9741 0.8374
-4.9623 -43.5399 6.9780 0.8374
-3.2407 -41.6893 6.0067 0.8445
-1.7400 -41.7269 5.9993 0.8447
1.2587 -41.7590 6.0014 0.8447
2.7633 -41.7842 6.0154 0.8443
4.4737 -43.7334 6.3151 0.8372
7.3882 -42.0936 6.1392 0.8414
8.9604 -42.1110 6.1847 0.8403
10.8508 -43.2969 6.4119 0.8350
13.7746 -41.9361 6.3408 0.8366
22.7841 -42.0167 6.8660 0.8244
48.2667 -75.5200 12.8749 0.6962
47.8203 -59.5721 10.9736 0.7344
49.2803 -57.0672 10.8312 0.7373
47.8315 -51.5281 10.0995 0.7527
49.2165 -49.3429 10.0112 0.7546
47.1784 -40.9527 8.9743 0.7769
84.7026 -42.3405 13.6030 0.6820
39.8037 10.3559 5.9081 0.8469
31.4452 10.6423 4.7688 0.8745
27.5604 10.4445 4.2338 0.8877
27.5850 11.6026 4.2988 0.8861
27.5713 16.5932 4.6226 0.8781
27.5919 19.4316 4.8478 0.8725
26.2073 21.4270 4.8628 0.8721
27.6986 24.3565 5.2984 0.8615
27.4661 25.9586 5.4288 0.8584
27.4957 30.0041 5.8461 0.8484
27.4798 34.6861 6.3568 0.8363
26.6453 36.2325 6.4607 0.8338
27.4607 40.2958 7.0048 0.8211
27.8408 44.1825 7.5018 0.8097
26.7994 46.1214 7.6626 0.8061
28.6923 53.7313 8.7500 0.7818
5.0183 10.2686 1.6418 0.9549
27.0118 67.0901 10.3893 0.7466
-1.0159 83.3935 11.9803 0.7139
-0.9755 11.5873 1.6704 0.9541
-1.3963 11.5903 1.6770 0.9539
-1.8210 11.5934 1.6858 0.9537
-2.6867 11.5997 1.7104 0.9530
-3.1303 11.6029 1.7263 0.9526
-3.5827 11.6062 1.7448 0.9521
-4.5205 11.6129 1.7901 0.9509
-5.0092 11.6165 1.8172 0.9502
-6.0358 11.6239 1.8815 0.9484
-6.5782 11.6278 1.9191 0.9474
-7.1434 11.6319 1.9609 0.9463
-7.7347 11.6362 2.0071 0.9451
-8.9235 11.5346 2.0949 0.9428
-12.0632 11.6676 2.4108 0.9344
-12.9710 11.6741 2.5068 0.9319
-13.9554 11.6812 2.6143 0.9291
-15.0296 11.6890 2.7351 0.9259
-58.0572 41.8973 10.2848 0.7488
-69.8336 36.4891 11.3185 0.7273
-74.4746 35.5715 11.8559 0.7164
-80.4316 31.5473 12.4109 0.7053
-81.9430 28.7911 12.4765 0.7040
-85.0417 19.9272 12.5471 0.7026
-84.6862 -41.1176 13.5232 0.6836
-47.4486 -29.7291 8.0433 0.7975
-45.6768 -35.9968 8.3541 0.7906
-37.5373 -31.8317 7.0700 0.8196
-37.5369 -39.5133 7.8290 0.8023
-27.2193 -38.4403 6.7661 0.8267
-19.1170 -31.5811 5.3030 0.8614
-18.3256 -32.8833 5.4077 0.8589
-18.3721 -39.3699 6.2410 0.8390
-16.5123 -43.2368 6.6485 0.8294
-14.5068 -42.5042 6.4516 0.8340
-1.7405 -41.7393 5.3527 0.8450
2.7644 -41.8001 5.3676 0.8446
4.5579 -44.5561 5.7388 0.8348
6.1509 -44.3393 5.7357 0.8348
7.3875 -42.0894 5.4754 0.8417
13.7760 -41.9403 5.6563 0.8369
18.2868 -44.5925 6.1755 0.8234
20.8603 -42.0004 6.0088 0.8277
22.7767 -42.0031 6.1223 0.8247
47.8204 -59.5722 9.7881 0.7349
49.2804 -57.0673 9.6612 0.7378
47.1122 -43.9581 8.2561 0.7712
47.1548 -38.0520 7.7639 0.7832
59.9497 -38.5324 9.1313 0.7502
44.2290 -11.2051 5.8461 0.8319
39.8035 10.3559 5.2699 0.8472
31.4451 10.6423 4.2536 0.8747
27.5603 10.4445 3.7764 0.8879
27.3608 11.5083 3.8033 0.8872
27.3876 15.1709 4.0116 0.8814
27.3566 17.8321 4.1842 0.8766
26.1923 21.4148 4.3350 0.8725
27.6983 24.3563 4.7260 0.8618
27.4799 27.9060 5.0182 0.8539
27.4954 30.0037 5.2145 0.8486
27.4434 32.1947 5.4205 0.8432
27.4855 34.6933 5.6713 0.8365
26.7120 36.3233 5.7772 0.8337
27.5960 40.4944 6.2789 0.8207
27.6033 43.8055 6.6342 0.8116
26.8209 46.1583 6.8403 0.8063
27.6674 68.7186 9.4919 0.7418
1.9830 83.5732 10.7113 0.7138
-1.0159 83.3933 10.6861 0.7144
-0.7557 15.7045 2.0146 0.9386
-0.9755 11.5873 1.4899 0.9542
-1.8210 11.5934 1.5037 0.9538
-2.2507 11.5965 1.5136 0.9535
-2.6867 11.5997 1.5256 0.9531
-3.1303 11.6029 1.5398 0.9527
-5.5136 11.6201 1.6480 0.9495
-6.5782 11.6278 1.7118 0.9476
-8.3552 11.6407 1.8360 0.9439
-11.8859 11.4961 2.1188 0.9355
-12.7469 11.4725 2.1974 0.9332
-13.7144 11.4795 2.2916 0.9304
-15.0295 11.6890 2.4396 0.9261
-57.4761 35.5009 8.6560 0.7615
-82.0384 35.6262 11.4600 0.6972
-75.4440 26.5077 10.2461 0.7244
-75.7625 20.6481 10.0616 0.7286
-78.8133 15.5063 10.2920 0.7233
-82.1141 13.1136 10.6547 0.7151
-84.6515 -41.1008 12.0574 0.6842
-79.2800 -42.0742 11.5001 0.6963
-47.3194 -29.6482 7.1549 0.7984
-45.2048 -33.0651 7.1762 0.7978
-45.6874 -36.0051 7.4533 0.7909
-36.6028 -33.3704 6.3465 0.8189
-37.5374 -39.5138 6.9833 0.8027
-27.7177 -39.1441 6.1457 0.8241
-20.9205 -31.9153 4.8896 0.8574
-19.1093 -31.5683 4.7282 0.8617
-18.2681 -32.7800 4.8083 0.8596
-18.4853 -39.6123 5.6010 0.8384
-18.4017 -43.4377 6.0445 0.8268
-14.5023 -42.4908 5.7528 0.8344
-6.6938 -44.4747 5.7628 0.8341
-3.2374 -41.6473 4.7067 0.8452
-1.7412 -41.7574 4.7090 0.8452
-0.2569 -44.5213 5.0164 0.8359
1.2576 -41.7234 4.7032 0.8453
4.5579 -44.5562 5.0465 0.8350
6.1827 -44.5679 5.0697 0.8343
7.3838 -42.0688 4.8125 0.8420
8.9655 -42.1353 4.8538 0.8408
11.1818 -44.6177 5.1827 0.8310
13.7708 -41.9244 4.9720 0.8373
15.4764 -41.9716 5.0403 0.8352
19.8536 -43.8584 5.4244 0.8238
22.7721 -41.9946 5.3826 0.8251
48.2743 -75.5320 10.1001 0.6971
46.9392 -67.9388 9.3042 0.7172
49.0965 -65.8731 9.2568 0.7184
49.1608 -56.9288 8.4750 0.7388
47.1118 -43.9576 7.2600 0.7715
47.1775 -40.9519 7.0389 0.7777
48.4534 -36.3071 6.8220 0.7837
52.3028 -36.3349 7.1756 0.7739
62.5284 -37.0876 8.1913 0.7463
66.5342 -36.3003 8.5398 0.7371
39.8033 10.3558 4.6341 0.8474
34.7706 10.3925 4.0889 0.8641
27.4311 10.3955 3.3052 0.8886
27.2783 12.6444 3.3877 0.8860
27.3873 15.1708 3.5276 0.8816
27.3670 19.2732 3.7714 0.8739
26.2071 21.4268 3.8141 0.8726
27.4125 24.1050 4.1129 0.8633
27.4655 25.9580 4.2580 0.8589
27.4431 32.1943 4.7665 0.8434
27.6031 43.8052 5.8338 0.8119
27.5522 51.5961 6.5904 0.7902
1.9830 83.5731 9.4191 0.7143
-0.7558 15.7068 1.7718 0.9387
-0.9752 11.5842 1.3098 0.9543
-1.3963 11.5903 1.3154 0.9541
-2.2507 11.5965 1.3310 0.9536
-2.6867 11.5996 1.3416 0.9532
-3.1303 11.6029 1.3541 0.9528
-3.5827 11.6061 1.3686 0.9523
-4.0456 11.6095 1.3852 0.9517
-4.5205 11.6129 1.4041 0.9511
-5.0092 11.6164 1.4254 0.9504
-5.5136 11.6201 1.4492 0.9495
-6.0357 11.6239 1.4757 0.9486
-6.5781 11.6278 1.5053 0.9476
-7.1434 11.6319 1.5380 0.9465
-7.7347 11.6362 1.5743 0.9453
-8.3552 11.6407 1.6145 0.9440
-9.0092 11.6454 1.6589 0.9425
-12.9709 11.6741 1.9662 0.9322
-14.8236 11.5288 2.1159 0.9272
-15.9283 11.4948 2.2132 0.9240
-57.6375 38.5256 7.8113 0.7565
-62.3481 35.4833 8.0829 0.7492
-67.9869 35.5242 8.6430 0.7343
-82.5735 35.8585 10.1432 0.6960
-82.2938 22.4280 9.6105 0.7094
-85.0434 19.9276 9.8416 0.7036
-94.3986 18.5727 10.8401 0.6789
-86.8463 -42.1664 10.8776 0.6780
-79.5631 -42.2244 10.1488 0.6959
-74.7184 -43.1600 9.7223 0.7066
-46.5767 -31.5663 6.3396 0.7973
-45.3529 -33.1735 6.3311 0.7976
-37.5375 -31.8318 5.5454 0.8203
-37.5378 -39.5142 6.1409 0.8030
-28.1960 -31.8995 4.7970 0.8425
-26.6741 -32.4547 4.7334 0.8444
-28.0349 -39.5921 5.4661 0.8226
-19.1171 -31.5812 4.1595 0.8619
-18.3262 -32.8844 4.2417 0.8594
-18.3479 -35.8958 4.5422 0.8502
-18.4021 -43.4386 5.3154 0.8270
-16.9567 -44.4004 5.3551 0.8259
-14.4977 -42.4775 5.0571 0.8347
-13.1341 -43.5356 5.1236 0.8327
-9.4355 -41.9591 4.8457 0.8410
-5.0702 -44.4865 5.0449 0.8351
-3.2386 -41.6618 4.0646 0.8454
-1.7413 -41.7594 4.0654 0.8454
1.2570 -41.7035 4.0582 0.8456
4.5579 -44.5562 4.3565 0.8353
6.1827 -44.5680 4.3765 0.8346
7.3790 -42.0414 4.1518 0.8424
8.9757 -42.1829 4.1949 0.8409
11.1818 -44.6177 4.4741 0.8312
12.3169 -42.5989 4.3132 0.8368
20.8377 -41.9548 4.5565 0.8284
22.7872 -42.0224 4.6497 0.8252
49.0959 -65.8722 7.9911 0.7188
47.8205 -59.5724 7.4304 0.7356
49.2806 -57.0675 7.3341 0.7386
47.8729 -51.5727 6.8445 0.7537
47.1112 -43.9572 6.2673 0.7719
47.1333 -40.9135 6.0708 0.7782
48.2642 -36.1653 5.8663 0.7848
39.8030 10.3558 4.0004 0.8476
34.7706 10.3925 3.5299 0.8643
27.3605 11.5081 2.8871 0.8876
27.3871 15.1707 3.0453 0.8818
27.3464 16.4579 3.1045 0.8796
27.3564 17.8320 3.1763 0.8770
27.3669 19.2731 3.2558 0.8741
26.1761 21.4014 3.2888 0.8729
26.1004 22.9512 3.3806 0.8696
27.4652 25.9577 3.6758 0.8591
27.4793 27.9054 3.8094 0.8544
27.4609 32.2153 4.1175 0.8436
27.4691 34.6725 4.3026 0.8371
26.7777 36.4126 4.3964 0.8339
27.5959 40.4942 4.7664 0.8212
27.7478 51.9624 5.7298 0.7892
5.0171 10.2662 1.1114 0.9551
27.6789 62.2034 6.6223 0.7606
-1.0158 83.3931 8.1121 0.7152
-1.6101 13.3653 1.3094 0.9473
-5.0564 11.7258 1.2421 0.9500
-5.5655 11.7295 1.2628 0.9492
-6.6421 11.7409 1.3121 0.9472
-7.7346 11.6362 1.3591 0.9454
-9.0092 11.6454 1.4321 0.9425
-9.7011 11.6504 1.4746 0.9409
-10.4363 11.6557 1.5218 0.9391
-11.2212 11.6614 1.5741 0.9370
-12.0631 11.6675 1.6324 0.9348
-12.9709 11.6741 1.6974 0.9323
-13.9554 11.6812 1.7702 0.9295
-15.0295 11.6890 1.8520 0.9263
-57.8261 38.6516 6.7654 0.7561
-57.5921 35.5725 6.5843 0.7618
-83.5348 32.7644 8.7279 0.6972
-84.7774 29.7870 8.7403 0.6969
-91.0230 28.3541 9.2732 0.6817
-85.0442 19.9278 8.4961 0.7040
-34.9962 3.0367 3.4168 0.8683
-34.6928 -15.3308 3.6893 0.8586
-74.7187 -43.1601 8.3931 0.7070
-46.5772 -31.5666 5.4729 0.7976
-45.3530 -33.1735 5.4655 0.7979
-36.6036 -33.3711 4.8179 0.8195
-37.5772 -39.5557 5.3068 0.8031
-28.1960 -31.8995 4.1411 0.8427
-26.5262 -34.7461 4.2520 0.8389
-28.0689 -39.6402 4.7245 0.8227
-18.3265 -32.8849 3.6618 0.8596
-18.3482 -35.8965 3.9212 0.8504
-16.9567 -44.4005 4.6230 0.8261
-14.4931 -42.4640 4.3644 0.8350
-11.4231 -43.4476 4.3697 0.8348
-7.8784 -42.0315 4.1595 0.8421
-3.2471 -41.7716 3.4318 0.8452
2.7602 -41.7367 3.4260 0.8455
4.5579 -44.5563 3.6686 0.8355
6.1827 -44.5680 3.6854 0.8348
8.9640 -42.1283 3.5279 0.8413
11.1819 -44.6178 3.7676 0.8314
18.3183 -44.6694 3.9545 0.8239
19.8536 -43.8585 3.9433 0.8243
20.8325 -41.9445 3.8360 0.8286
48.9716 -83.0495 7.8970 0.6791
48.2745 -75.5322 7.3423 0.6978
49.0952 -65.8714 6.7291 0.7191
47.7851 -59.5283 6.2525 0.7361
49.2080 -49.3344 5.7073 0.7560
47.0327 -43.8838 5.2688 0.7725
47.2713 -41.0333 5.1271 0.7778
47.1523 -38.0499 4.9628 0.7841
73.6431 -36.8122 6.7436 0.7186
70.6820 0.2265 5.7895 0.7530
60.8565 13.5211 5.1062 0.7786
39.6116 10.3060 3.3525 0.8485
27.5608 10.4446 2.4141 0.8884
27.3602 11.5080 2.4312 0.8877
27.3688 12.6863 2.4709 0.8860
27.3868 15.1705 2.5644 0.8819
27.3562 17.8318 2.6747 0.8772
27.4485 20.8437 2.8230 0.8708
27.4604 22.4515 2.9053 0.8673
27.4793 27.9054 3.2079 0.8545
27.4439 29.9476 3.3272 0.8496
27.4603 32.2145 3.4672 0.8438
26.6745 36.2722 3.6879 0.8347
5.0167 10.2654 0.9359 0.9552
27.6603 62.1618 5.5729 0.7610
27.6244 68.6118 6.0583 0.7432
-1.0159 83.3930 6.8311 0.7155
-0.9752 11.5841 0.9522 0.9544
-1.6762 13.9137 1.1479 0.9453
-2.1860 13.9174 1.1539 0.9450
-2.7019 13.9212 1.1615 0.9447
-3.1683 11.7441 0.9963 0.9524
-4.0949 11.7508 1.0192 0.9513
-5.0702 11.7578 1.0488 0.9499
-5.5807 11.7615 1.0663 0.9491
-6.6730 11.7954 1.1100 0.9471
-7.2464 11.7995 1.1342 0.9459
-7.8461 11.8039 1.1609 0.9447
-10.5580 11.7916 1.2964 0.9385
-11.2212 11.6614 1.3255 0.9371
-12.0631 11.6675 1.3746 0.9349
-12.9709 11.6740 1.4294 0.9324
-13.9553 11.6812 1.4906 0.9296
-57.4566 38.4046 5.6607 0.7578
-62.3478 35.4831 5.8759 0.7498
-82.5746 35.8590 7.3737 0.6968
-76.7082 30.0869 6.7490 0.7184
-75.2661 23.4457 6.4571 0.7288
-76.8901 18.0171 6.4685 0.7284
-78.8146 15.5066 6.5793 0.7244
-46.5776 -31.5669 4.6087 0.7979
-45.7308 -36.0393 4.7691 0.7916
-37.5376 -31.8320 4.0313 0.8208
-36.6040 -33.3714 4.0571 0.8197
-37.5188 -36.7568 4.3021 0.8099
-28.1961 -31.8996 3.4872 0.8429
-26.6627 -32.4409 3.4395 0.8449
-19.1171 -31.5813 3.0238 0.8623
-18.3268 -32.8854 3.0836 0.8598
-18.5331 -39.7148 3.5897 0.8387
-9.4319 -41.9429 3.5213 0.8415
-7.8728 -42.0017 3.5002 0.8424
-6.6938 -44.4749 3.6839 0.8348
-5.0702 -44.4866 3.6674 0.8355
-1.2205 -15.7013 1.0487 0.9388
-0.6560 -15.7307 1.0484 0.9388
0.4741 -15.7287 1.0478 0.9389
7.3924 -42.1177 2.8474 0.8425
8.9589 -42.1040 2.8663 0.8415
11.1819 -44.6179 3.0628 0.8316
12.3115 -42.5804 2.9514 0.8372
13.7858 -41.9702 2.9416 0.8377
15.4689 -41.9512 2.9772 0.8359
18.3184 -44.6695 3.2148 0.8240
22.7670 -41.9851 3.1802 0.8257
48.2584 -75.5071 5.9669 0.6982
46.8171 -67.7620 5.4842 0.7188
46.9122 -62.9424 5.2272 0.7300
47.0049 -58.5564 4.9999 0.7401
47.0344 -54.4664 4.7919 0.7494
47.0616 -50.6986 4.6061 0.7578
47.1093 -43.9553 4.2903 0.7724
47.1518 -38.0496 4.0344 0.7844
48.3235 -36.2098 4.0208 0.7850
52.1626 -36.2375 4.2292 0.7752
56.5236 -36.3303 4.4741 0.7639
61.1304 -36.2584 4.7326 0.7521
84.2365 -42.1075 6.2708 0.6856
79.4887 -36.2286 5.8167 0.7046
60.8526 13.5202 4.1508 0.7789
31.1531 10.5435 2.1900 0.8765
27.5607 10.4446 1.9625 0.8886
27.3078 11.4860 1.9726 0.8880
27.3866 15.1704 2.0847 0.8820
27.3559 17.8317 2.1744 0.8773
27.4482 20.8435 2.2949 0.8710
27.4600 22.4512 2.3618 0.8675
27.4649 25.9574 2.5163 0.8594
27.4942 30.0025 2.7098 0.8495
27.4603 32.2145 2.8186 0.8439
27.4783 34.6841 2.9465 0.8375
27.6016 43.8028 3.4475 0.8126
27.6781 62.2018 4.5334 0.7611
1.9830 83.5728 5.5664 0.7152
-1.0155 83.3629 5.5513 0.7159
-0.7922 16.4626 1.0975 0.9361
-2.7019 13.9212 0.9443 0.9447
-3.1683 11.7440 0.8100 0.9524
-4.0949 11.7507 0.8286 0.9513
-5.0701 11.7578 0.8526 0.9500
-5.5807 11.7615 0.8668 0.9491
-7.2464 11.7995 0.9220 0.9460
-9.1390 11.8132 0.9945 0.9419
-9.8409 11.8183 1.0240 0.9402
-10.5867 11.8237 1.0568 0.9384
-13.1579 11.8423 1.1787 0.9315
-15.1589 12.6885 1.3163 0.9238
-15.6078 12.1387 1.3166 0.9238
-57.4350 41.4484 4.7163 0.7528
-57.4571 38.4050 4.6019 0.7580
-67.9863 35.5238 5.1077 0.7353
-82.0372 35.6256 5.9555 0.6987
-77.7758 30.5056 5.5630 0.7154
-85.0460 19.9282 5.8163 0.7046
-79.5200 -42.2017 5.9944 0.6971
-74.7191 -43.1603 5.7457 0.7076
-45.3532 -33.1737 3.7416 0.7983
-37.5377 -31.8320 3.2772 0.8209
-36.6043 -33.3718 3.2983 0.8199
-37.5192 -36.7572 3.4974 0.8101
-37.5973 -39.5768 3.6349 0.8035
-26.6570 -32.4340 2.7955 0.8451
-26.5269 -34.7470 2.9109 0.8392
-20.9076 -31.8956 2.5394 0.8582
-19.1171 -31.5814 2.4582 0.8624
-18.5331 -39.7149 2.9183 0.8389
-18.4032 -43.4412 3.1415 0.8277
-14.4875 -42.4476 2.9866 0.8354
-11.6837 -44.4388 3.0596 0.8318
-2.9037 -15.4914 1.0495 0.9388
-2.3451 -15.5815 1.0492 0.9388
0.4692 -15.5653 0.7988 0.9395
2.8010 -42.3542 2.1774 0.8437
4.5579 -44.5564 2.2975 0.8358
6.1827 -44.5682 2.3081 0.8351
9.0300 -42.4383 2.2257 0.8405
12.3089 -42.5712 2.2732 0.8374
13.8363 -42.1240 2.2744 0.8373
15.6654 -42.4840 2.3227 0.8341
18.3184 -44.6695 2.4766 0.8242
46.8917 -79.5224 4.7356 0.6909
46.9367 -67.9351 4.2357 0.7184
47.0339 -54.4658 3.6915 0.7496
46.7147 -50.3250 3.5223 0.7596
47.0332 -47.1540 3.4164 0.7659
47.1088 -43.9548 3.3051 0.7725
48.2644 -36.1655 3.0937 0.7854
52.0988 -36.1932 3.2541 0.7756
55.9565 -35.9658 3.4121 0.7661
66.5308 -36.2984 3.8877 0.7382
83.4385 -34.4674 4.6309 0.6966
86.6093 -32.1887 4.7397 0.6907
33.7399 10.0845 1.8064 0.8685
29.9724 10.1439 1.6231 0.8810
27.5357 13.9857 1.5842 0.8836
27.3457 16.4574 1.6372 0.8800
27.5570 19.4070 1.7289 0.8737
27.4596 22.4509 1.8195 0.8676
28.0415 24.6580 1.9155 0.8611
27.4646 25.9571 1.9385 0.8595
27.4787 27.9047 2.0089 0.8548
27.5800 37.5035 2.3880 0.8299
5.0160 10.2638 0.5860 0.9553
27.6772 62.1999 3.4923 0.7613
27.6749 68.7373 3.8010 0.7432
-0.9752 11.5841 0.5963 0.9545
-2.7019 13.9211 0.7274 0.9448
-3.6164 11.7153 0.6289 0.9521
-4.0837 11.7187 0.6366 0.9515
-4.5631 11.7222 0.6453 0.9509
-5.0563 11.7257 0.6550 0.9501
-5.5654 11.7294 0.6660 0.9493
-6.1227 11.7914 0.6815 0.9482
-7.2463 11.7995 0.7103 0.9460
-7.8461 11.8038 0.7271 0.9448
-8.4756 11.8084 0.7456 0.9434
-9.8409 11.8183 0.7889 0.9403
-11.3829 11.8294 0.8421 0.9364
-65.1146 54.5035 4.3558 0.7117
-57.8277 38.6527 3.5680 0.7568
-57.5937 35.5734 3.4725 0.7625
-69.2051 36.1607 4.0054 0.7314
-75.8087 36.2086 4.3095 0.7143
-82.0368 35.6255 4.5879 0.6989
-92.3272 32.4397 5.0199 0.6757
-76.8911 18.0173 4.0511 0.7288
-79.5077 -42.1950 4.6174 0.6973
-74.7192 -43.1604 4.4263 0.7078
-68.9520 -43.2022 4.1739 0.7219
-46.5785 -31.5675 2.8863 0.7982
-36.6047 -33.3721 2.5409 0.8200
-37.5973 -39.5769 2.8002 0.8036
-28.1962 -31.8997 2.1839 0.8432
-19.3711 -23.5690 1.5650 0.8850
-18.3491 -35.8983 2.0681 0.8509
-18.5332 -39.7149 2.2481 0.8390
-15.1994 -39.7991 2.1854 0.8431
-2.7907 -14.8885 0.7770 0.9411
-1.8609 -16.3278 0.8430 0.9363
0.4691 -15.5621 0.5609 0.9396
5.5381 -39.9219 1.4522 0.8510
7.0099 -39.9382 1.4610 0.8502
10.0168 -39.9691 1.4846 0.8480
14.7565 -40.0192 1.5368 0.8431
19.3943 -42.8438 1.6945 0.8284
19.8112 -39.8882 1.6047 0.8367
47.0333 -54.4652 2.5928 0.7497
47.0605 -50.6975 2.4923 0.7582
47.1083 -43.9544 2.3214 0.7727
47.1509 -38.0488 2.1830 0.7847
83.4378 -34.4671 3.2527 0.6967
83.4627 -31.0193 3.2082 0.7002
44.7818 9.9496 1.6528 0.8323
38.5558 10.0313 1.4354 0.8526
33.7718 10.0940 1.2700 0.8684
29.9722 10.1438 1.1401 0.8810
27.5604 10.4445 1.0619 0.8887
27.3681 12.6860 1.0869 0.8863
27.3554 17.8313 1.1765 0.8775
27.5570 19.4069 1.2144 0.8738
27.4477 20.8431 1.2418 0.8711
27.4580 22.4496 1.2779 0.8677
27.4643 25.9568 1.3616 0.8596
27.4936 30.0018 1.4662 0.8497
27.6233 32.4058 1.5342 0.8433
27.4776 34.6832 1.5943 0.8377
27.5795 37.5028 1.6773 0.8300
27.5960 40.4943 1.7656 0.8219
27.8135 44.1392 1.8797 0.8115
27.5083 51.5140 2.1041 0.7916
27.6771 62.1995 2.4529 0.7615
27.8009 76.9102 2.9466 0.7208
27.0969 96.0192 3.5947 0.6708
-2.9486 12.7303 0.4708 0.9490
-3.1683 11.7440 0.4383 0.9525
-3.6263 11.7473 0.4430 0.9520
-4.5755 11.7542 0.4545 0.9508
-5.0701 11.7578 0.4613 0.9500
-6.1061 11.7593 0.4774 0.9483
-6.6548 11.7633 0.4870 0.9473
-9.1141 11.7810 0.5367 0.9421
-10.5579 11.7915 0.5703 0.9386
-11.3519 11.7972 0.5899 0.9366
-57.3884 48.0362 2.6965 0.7412
-57.4129 44.6520 2.6206 0.7474
-57.4361 41.4492 2.5520 0.7531
-57.4582 38.4057 2.4901 0.7583
-57.4792 35.5028 2.4342 0.7631
-62.3472 35.4828 2.5847 0.7504
-82.5763 35.8597 3.2437 0.6974
-75.4481 26.5091 2.8813 0.7261
-75.2679 23.4463 2.8404 0.7294
-75.7658 20.6489 2.8294 0.7303
-76.8916 18.0175 2.8455 0.7290
-80.1036 15.7602 2.9415 0.7213
-86.8476 -42.1670 3.4785 0.6795
-74.7195 -43.1606 3.1090 0.7080
-46.5789 -31.5678 2.0274 0.7983
-28.1962 -31.8998 1.5340 0.8433
-26.5276 -34.7479 1.5751 0.8395
-18.3495 -35.8990 1.4526 0.8510
-18.4039 -43.4429 1.6999 0.8279
-15.1634 -39.7045 1.5313 0.8436
-10.4521 -39.7543 1.4810 0.8483
-8.9435 -39.7711 1.4687 0.8495
-2.8158 -15.0226 0.5507 0.9407
-4.5381 -39.8175 1.4439 0.8518
-1.2734 -16.3817 0.3415 0.9364
-0.0559 -9.6843 0.2013 0.9620
0.2915 -9.6720 0.2011 0.9620
4.0764 -39.8498 0.8324 0.8519
7.3833 -42.0658 0.8875 0.8429
8.4891 -39.8963 0.8476 0.8494
11.5955 -40.1041 0.8675 0.8462
13.1777 -40.1191 0.8775 0.8446
16.3949 -39.9791 0.8979 0.8412
46.4911 -72.7419 1.7940 0.7079
46.9354 -67.9333 1.7159 0.7187
47.0751 -63.1610 1.6370 0.7297
47.0536 -50.6901 1.4373 0.7583
47.0852 -47.2062 1.3855 0.7659
47.1078 -43.9539 1.3389 0.7728
48.2646 -36.1656 1.2533 0.7856
61.1309 -36.2587 1.4770 0.7525
41.9676 -22.8970 0.9935 0.8259
79.4895 -36.2289 1.8153 0.7050
83.4371 -34.4669 1.8760 0.6969
83.4620 -31.0191 1.8503 0.7003
44.7815 9.9496 0.9533 0.8323
38.5555 10.0312 0.8279 0.8527
27.2727 11.4712 0.6148 0.8884
27.3679 12.6859 0.6269 0.8863
27.3767 13.9049 0.6381 0.8844
27.3551 17.8312 0.6786 0.8775
27.3656 19.2722 0.6955 0.8747
27.4413 22.4359 0.7366 0.8678
27.4640 25.9565 0.7853 0.8597
27.4593 32.2134 0.8796 0.8442
27.4772 34.6828 0.9195 0.8378
27.5791 37.5024 0.9674 0.8301
27.5959 40.4943 1.0183 0.8220
27.8131 44.1385 1.0841 0.8116
27.5082 51.5139 1.2135 0.7916
5.0152 10.2623 0.2374 0.9553
27.8060 62.4893 1.4213 0.7606
27.8347 69.1342 1.5487 0.7422
27.8493 77.0441 1.7024 0.7205
5.4764 41.4259 0.8683 0.8460
-0.7922 16.4625 0.3425 0.9362
-0.9752 11.5840 0.2416 0.9546
-1.6762 13.9137 0.2912 0.9455
-2.7019 13.9211 0.2947 0.9448
-3.1683 11.7440 0.2528 0.9525
-3.6263 11.7473 0.2555 0.9520
-5.0701 11.7578 0.2661 0.9501
-5.5806 11.7614 0.2705 0.9492
-6.1227 11.7913 0.2761 0.9482
-7.2463 11.7995 0.2877 0.9461
-7.8461 11.8038 0.2945 0.9449
-9.1390 11.8132 0.3104 0.9420
-10.5867 11.8236 0.3298 0.9385
-12.2369 11.8356 0.3538 0.9342
-13.1578 11.8422 0.3679 0.9316
-57.3889 48.0368 1.5552 0.7412
-57.4135 44.6525 1.5115 0.7475
-57.4587 38.4061 1.4362 0.7584
-57.4798 35.5031 1.4040 0.7632
-74.4727 35.5705 1.7151 0.7188
-82.0363 35.6252 1.8586 0.6992
-83.7616 29.4301 1.8449 0.7010
-91.0251 28.3547 1.9812 0.6829
-34.7681 9.4756 0.7489 0.8657
-85.0485 19.9288 1.8152 0.7051
-45.8888 -24.3534 1.0796 0.8123
-37.5291 -23.5140 0.9203 0.8376
-27.9040 -23.6626 0.7603 0.8638
-36.4856 -33.2635 1.0260 0.8208
-27.7761 -31.4244 0.8716 0.8455
-26.4205 -34.6076 0.9048 0.8401
-20.6327 -31.4762 0.7821 0.8602
-18.2324 -32.7159 0.7783 0.8608
-18.3082 -43.2171 0.9753 0.8288
-10.7834 -31.5948 0.6937 0.8750
-12.0243 -39.8569 0.8651 0.8466
-10.4890 -39.8944 0.8572 0.8479
-2.8159 -15.0226 0.3177 0.9407
-6.0106 -39.9356 0.8392 0.8508
-5.0703 -44.4869 0.9304 0.8360
-0.4010 -9.6155 0.0533 0.9622
0.2893 -9.5996 0.0532 0.9623
0.6340 -9.5871 0.0532 0.9623
0.9794 -9.5746 0.0533 0.9622
8.9561 -42.0908 0.2384 0.8419
11.1819 -44.6181 0.2549 0.8319
12.1767 -42.1141 0.2429 0.8392
13.8370 -42.1261 0.2457 0.8375
15.5380 -42.1384 0.2488 0.8356
18.3185 -44.6697 0.2675 0.8244
19.3659 -42.7812 0.2602 0.8287
20.9483 -42.1776 0.2609 0.8283
44.0704 -81.2712 0.5123 0.6909
47.0745 -63.1602 0.4365 0.7297
47.0026 -58.5535 0.4160 0.7406
47.2242 -47.3455 0.3705 0.7653
47.1500 -38.0480 0.3357 0.7848
55.7142 -35.8100 0.3670 0.7673
61.1311 -36.2588 0.3938 0.7525
41.9674 -22.8969 0.2649 0.8259
79.4897 -36.2290 0.4840 0.7051
83.4856 -27.6598 0.4873 0.7034
87.2627 -25.4737 0.5037 0.6952
36.2617 0.1162 0.2009 0.8650
43.7714 9.7252 0.2484 0.8358
37.5521 9.7701 0.2150 0.8562
32.8032 9.8045 0.1897 0.8720
27.5603 10.4444 0.1633 0.8888
27.3591 11.5075 0.1645 0.8881
27.3676 12.6858 0.1671 0.8863
27.3856 15.1699 0.1735 0.8823
27.3549 17.8310 0.1809 0.8776
26.7023 25.2367 0.2036 0.8633
27.4778 27.9038 0.2170 0.8550
27.4930 30.0011 0.2255 0.8498
27.4590 32.2130 0.2345 0.8442
27.5788 37.5019 0.2579 0.8301
27.4118 40.2241 0.2697 0.8231
27.6003 43.8008 0.2868 0.8129
27.6082 47.5133 0.3045 0.8027
26.8017 50.1907 0.3153 0.7964
5.0148 10.2615 0.0633 0.9553
26.8157 60.2636 0.3655 0.7681
10.7012 33.2976 0.1938 0.8694
1.9833 83.5871 0.4633 0.7157
-1.0191 83.6588 0.4636 0.7156
-0.7922 16.4625 0.0913 0.9362
-1.6762 13.9137 0.0776 0.9455
-2.1860 13.9173 0.0781 0.9452
-2.7019 13.9211 0.0786 0.9449
-3.6263 11.7473 0.0681 0.9520
-4.0948 11.7507 0.0689 0.9514
-5.5806 11.7614 0.0721 0.9493
-7.2463 11.7994 0.0767 0.9461
-7.8461 11.8038 0.0785 0.9449
-9.1390 11.8131 0.0828 0.9420
-9.8408 11.8182 0.0852 0.9403
-11.3828 11.8294 0.0910 0.9364
-12.2369 11.8355 0.0943 0.9342
-13.1577 11.8422 0.0981 0.9316
-66.9148 56.0103 0.4835 0.7054
-72.6403 56.4949 0.5099 0.6920
-57.2351 41.3041 0.3911 0.7540
-57.8293 38.6538 0.3854 0.7571
-57.5952 35.5744 0.3751 0.7628
-82.5774 35.8602 0.4988 0.6976
-91.2660 35.7968 0.5432 0.6756
-34.7684 9.4756 0.1997 0.8658
-85.0494 19.9290 0.4840 0.7051
-55.4071 -19.8675 0.3261 0.7902
-88.1181 -38.9397 0.5338 0.6802
-80.9151 -39.2866 0.4984 0.6978
-67.9123 -39.2285 0.4345 0.7307
-62.9659 -39.4516 0.4117 0.7429
-39.5269 -31.1502 0.2788 0.8177
-28.0029 -23.7465 0.2034 0.8634
-31.8527 -31.2057 0.2471 0.8366
-25.6842 -31.2504 0.2241 0.8506
-23.8675 -31.2635 0.2179 0.8544
-20.5093 -31.2878 0.2073 0.8610
-18.2326 -32.7164 0.2075 0.8609
-18.3086 -43.2180 0.2601 0.8288
-16.9569 -44.4009 0.2633 0.8269
-13.1366 -43.5440 0.2520 0.8337
-11.3833 -43.2962 0.2480 0.8360
-9.6959 -43.1172 0.2449 0.8380
-2.8159 -15.0227 0.0847 0.9407
-0.7422 -9.5475 -0.0929 0.9624
-0.3980 -9.5439 -0.0926 0.9625
-0.0551 -9.5404 -0.0925 0.9626
0.6293 -9.5159 -0.0925 0.9626
0.9730 -9.5119 -0.0927 0.9625
1.6696 -9.5125 -0.0936 0.9621
2.3764 -9.4821 -0.0948 0.9617
2.7368 -9.4654 -0.0955 0.9614
30.6803 -83.2038 -0.8599 0.7014
13.0242 -31.7597 -0.3328 0.8717
28.4122 -62.7652 -0.6681 0.7591
17.2455 -31.8029 -0.3508 0.8653
20.6888 -32.3705 -0.3725 0.8575
28.4946 -41.2425 -0.4861 0.8183
28.5240 -38.2708 -0.4628 0.8262
28.5505 -35.5668 -0.4422 0.8332
34.1072 -34.1948 -0.4683 0.8243
22.0975 -20.6181 -0.2931 0.8861
55.7143 -35.8101 -0.6423 0.7673
34.6646 -20.5607 -0.3908 0.8511
23.5801 -9.7407 -0.2474 0.9030
83.4607 -31.0186 -0.8634 0.7004
83.4850 -27.6596 -0.8528 0.7034
23.0010 -6.7144 -0.2323 0.9086
91.8392 -23.2668 -0.9187 0.6846
75.4140 -2.4669 -0.7317 0.7395
43.7712 9.7251 -0.4348 0.8358
37.5519 9.7701 -0.3762 0.8562
32.8031 9.8045 -0.3320 0.8720
29.0498 9.8316 -0.2974 0.8845
27.5601 10.4444 -0.2858 0.8888
27.4473 20.8428 -0.3342 0.8712
27.4587 22.4502 -0.3439 0.8677
26.7023 25.2366 -0.3563 0.8633
27.4775 27.9035 -0.3797 0.8550
27.6693 34.9252 -0.4320 0.8367
27.7931 44.1067 -0.5055 0.8118
27.6081 47.5132 -0.5328 0.8027
26.0303 48.7462 -0.5358 0.8017
19.4276 43.6602 -0.4634 0.8260
14.0847 34.9828 -0.3657 0.8600
9.6648 34.2478 -0.3451 0.8673
10.0311 41.1429 -0.4106 0.8442
14.3475 69.6181 -0.6892 0.7525
14.3033 84.6755 -0.8327 0.7093
-0.7026 57.6768 -0.5593 0.7939
-0.9752 11.5840 -0.1127 0.9546
-2.1860 13.9173 -0.1366 0.9452
-2.7019 13.9210 -0.1375 0.9449
-2.9733 12.8369 -0.1278 0.9487
-4.0948 11.7507 -0.1207 0.9514
-5.0701 11.7577 -0.1242 0.9501
-6.6729 11.7953 -0.1314 0.9472
-7.2463 11.7994 -0.1343 0.9461
-7.8460 11.8038 -0.1374 0.9449
-8.4756 11.8083 -0.1409 0.9435
-9.1389 11.8131 -0.1448 0.9420
-9.8408 11.8182 -0.1491 0.9403
-60.6189 50.7403 -0.7665 0.7289
-71.3366 55.4810 -0.8763 0.6966
-72.1810 52.0899 -0.8631 0.7004
-57.4808 35.5037 -0.6551 0.7632
-62.3466 35.4824 -0.6956 0.7505
-67.9852 35.5233 -0.7438 0.7358
-74.4721 35.5702 -0.8003 0.7188
-76.7134 30.0889 -0.7990 0.7192
-81.9720 25.5346 -0.8325 0.7093
-82.1153 22.3794 -0.8253 0.7114
-78.8172 15.5071 -0.7789 0.7252
-68.5937 1.0116 -0.6652 0.7600
-88.9453 -5.0808 -0.8639 0.7002
-90.1893 -8.4087 -0.8783 0.6960
-77.7084 -10.0700 -0.7598 0.7309
-71.0743 -19.8607 -0.7156 0.7444
-57.9196 -18.4504 -0.5894 0.7841
-55.3889 -22.1355 -0.5784 0.7877
-45.4643 -24.1281 -0.4991 0.8139
-37.3735 -23.4165 -0.4276 0.8383
-36.9761 -25.0597 -0.4331 0.8364
-12.6144 -9.9411 -0.1557 0.9378
-11.5192 -10.5020 -0.1511 0.9395
-19.3529 -23.5469 -0.2955 0.8852
-18.6524 -26.3417 -0.3130 0.8789
-19.2506 -31.8018 -0.3605 0.8618
-19.2707 -34.5791 -0.3839 0.8535
-19.2937 -37.7462 -0.4110 0.8440
-10.7692 -28.1987 -0.2927 0.8863
-10.7354 -31.4543 -0.3223 0.8755
-0.3953 -9.4805 -0.2366 0.9627
0.6262 -9.4693 -0.2367 0.9627
0.9687 -9.4696 -0.2374 0.9626
1.6621 -9.4697 -0.2398 0.9623
2.0137 -9.4638 -0.2413 0.9620
10.0483 -20.2314 -0.5633 0.9136
11.9745 -20.3071 -0.5879 0.9100
14.0047 -20.2701 -0.6144 0.9061
16.4453 -20.4867 -0.6551 0.9002
19.0227 -20.4929 -0.6973 0.8942
21.9244 -20.4565 -0.7478 0.8869
24.0058 -20.8380 -0.7928 0.8806
25.4750 -20.5573 -0.8164 0.8772
27.5633 -20.6538 -0.8590 0.8713
29.6504 -20.5983 -0.9004 0.8655
32.2048 -20.6995 -0.9547 0.8580
34.6647 -20.5607 -1.0051 0.8511
41.4228 -20.7062 -1.1549 0.8309
22.0581 -10.0534 -0.6045 0.9076
23.4727 -9.6963 -0.6334 0.9034
22.0526 -7.3063 -0.5794 0.9112
65.8129 -16.6733 -1.6931 0.7621
59.4145 -8.3977 -1.4964 0.7866
62.0508 -6.5084 -1.5559 0.7791
68.8412 -4.7301 -1.7208 0.7587
37.1359 -1.2147 -0.9266 0.8619
36.2713 0.1163 -0.9046 0.8649
72.9870 10.7937 -1.8400 0.7444
43.7709 9.7250 -1.1182 0.8358
34.8415 9.0649 -0.8978 0.8658
32.8029 9.8044 -0.8538 0.8720
27.5677 14.0019 -0.7711 0.8836
27.3445 16.4567 -0.7959 0.8801
18.9687 13.3586 -0.5786 0.9113
13.5854 11.9462 -0.4512 0.9302
18.9141 19.2073 -0.6723 0.8978
18.9060 20.6308 -0.6979 0.8941
18.9929 22.2811 -0.7301 0.8895
19.0134 23.9993 -0.7636 0.8847
18.9324 25.7444 -0.7969 0.8800
13.4956 23.2258 -0.6699 0.8981
18.9603 35.5063 -1.0038 0.8512
5.0141 10.2599 -0.2848 0.9553
13.5236 33.5890 -0.9030 0.8651
10.9729 30.3561 -0.8050 0.8788
9.7581 30.3629 -0.7953 0.8802
9.7622 40.0398 -1.0278 0.8480
14.6956 71.3069 -1.8156 0.7473
3.9605 66.3418 -1.6574 0.7665
1.3728 57.8567 -1.4433 0.7933
-0.7922 16.4625 -0.4110 0.9362
-0.9752 11.5839 -0.2899 0.9546
-1.6762 13.9136 -0.3495 0.9455
-2.1860 13.9173 -0.3513 0.9452
-4.5755 11.7541 -0.3146 0.9508
-6.6729 11.7953 -0.3380 0.9472
-7.2463 11.7994 -0.3453 0.9461
-8.4755 11.8083 -0.3625 0.9435
-9.1389 11.8131 -0.3725 0.9420
-9.8408 11.8182 -0.3835 0.9403
-10.5866 11.8236 -0.3958 0.9385
-11.3828 11.8293 -0.4094 0.9364
-12.2368 11.8355 -0.4246 0.9342
-13.1577 11.8422 -0.4415 0.9316
-36.2354 28.1815 -1.1448 0.8322
-36.2586 24.2356 -1.0876 0.8399
-33.6230 20.7677 -0.9856 0.8537
-33.7379 19.2007 -0.9681 0.8561
-26.4727 11.4961 -0.7197 0.8909
-30.3586 10.6667 -0.8025 0.8792
-51.6537 6.3572 -1.2979 0.8120
-64.6212 5.6073 -1.6176 0.7714
-50.4695 0.7443 -1.2588 0.8171
-70.8096 -1.4983 -1.7663 0.7532
-70.7035 -4.0388 -1.7661 0.7532
-70.5084 -6.5738 -1.7660 0.7533
-70.2240 -9.1001 -1.7659 0.7533
-63.0201 -15.1939 -1.6166 0.7715
-62.4382 -17.4474 -1.6168 0.7715
-61.7768 -19.6791 -1.6169 0.7715
-55.2927 -19.8265 -1.4649 0.7905
-45.4647 -24.1283 -1.2836 0.8139
-37.3735 -23.4166 -1.0999 0.8382
-36.9765 -25.0599 -1.1140 0.8363
-13.4211 -9.8169 -0.4147 0.9356
-12.4821 -9.8369 -0.3963 0.9384
-11.5933 -9.8311 -0.3791 0.9410
-11.4067 -10.3993 -0.3849 0.9401
-27.3112 -26.7566 -0.9535 0.8581
-19.3529 -23.5470 -0.7601 0.8852
-36.1610 -59.7377 -1.7414 0.7562
-9.3786 -20.0976 -0.5531 0.9151
-8.5178 -20.1065 -0.5446 0.9163
-7.6820 -20.1151 -0.5370 0.9175
-6.8485 -20.0657 -0.5287 0.9187
-1.4318 -9.5134 -0.2399 0.9622
-1.0830 -9.5024 -0.2385 0.9625
-0.3948 -9.4684 -0.3809 0.9628
-0.0546 -9.4629 -0.3803 0.9628
0.9676 -9.4592 -0.3822 0.9627
1.3120 -9.4576 -0.3838 0.9625
1.6597 -9.4559 -0.3859 0.9623
2.0117 -9.4545 -0.3885 0.9620
2.3693 -9.4542 -0.3917 0.9617
7.6858 -20.8434 -0.8929 0.9149
13.0844 -20.4724 -0.9765 0.9073
14.0047 -20.2701 -0.9902 0.9061
15.4143 -20.6813 -1.0367 0.9019
16.4692 -20.5165 -1.0574 0.9000
17.6866 -20.4813 -1.0876 0.8973
25.4751 -20.5574 -1.3157 0.8772
29.6505 -20.5983 -1.4511 0.8654
32.1176 -20.6435 -1.5345 0.8583
21.1966 -10.5956 -0.9524 0.9095
23.4149 -9.6724 -1.0182 0.9036
39.4145 -14.6486 -1.6900 0.8451
21.1398 -7.0039 -0.8951 0.9147
21.3243 -6.2250 -0.8928 0.9149
44.6809 -7.9606 -1.8241 0.8339
44.9444 -6.3525 -1.8244 0.8338
45.1494 -4.7357 -1.8246 0.8338
45.2883 3.4036 -1.8254 0.8338
41.3215 4.6021 -1.6711 0.8467
41.1303 6.0825 -1.6711 0.8467
40.5873 9.0177 -1.6711 0.8467
32.8028 9.8044 -1.3760 0.8719
27.3584 11.5073 -1.1929 0.8880
24.8363 11.5125 -1.1002 0.8962
27.5674 14.0018 -1.2427 0.8836
27.3849 15.1695 -1.2582 0.8822
14.1887 9.9924 -0.6975 0.9329
13.4476 11.8251 -0.7197 0.9308
13.4584 12.7197 -0.7443 0.9285
18.9029 20.6274 -1.1245 0.8940
18.9139 22.1884 -1.1718 0.8898
18.9620 25.7847 -1.2864 0.8797
13.9811 20.5159 -0.9978 0.9054
13.3651 21.2099 -1.0076 0.9045
13.3936 23.0502 -1.0715 0.8988
19.0320 35.6407 -1.6239 0.8507
13.3508 33.1599 -1.4367 0.8667
11.4999 31.8140 -1.3596 0.8733
9.9063 35.1033 -1.4660 0.8641
9.0926 44.1196 -1.8105 0.8350
4.6606 35.2548 -1.4293 0.8673
-0.5010 41.1249 -1.6530 0.8482
-4.0948 11.7506 -0.5001 0.9514
-4.5755 11.7541 -0.5070 0.9508
-5.5806 11.7614 -0.5232 0.9492
-6.6729 11.7952 -0.5447 0.9472
-7.2463 11.7994 -0.5565 0.9461
-9.1389 11.8131 -0.6003 0.9420
-9.8408 11.8182 -0.6181 0.9403
-10.5866 11.8235 -0.6379 0.9384
-11.3518 11.7971 -0.6580 0.9366
-12.2035 11.8033 -0.6824 0.9343
-22.1085 18.5056 -1.1588 0.8910
-33.0716 25.7209 -1.6839 0.8456
-8.7299 4.5615 -0.3959 0.9613
-26.3882 12.6038 -1.1754 0.8895
-27.4479 9.6440 -1.1693 0.8901
-30.7262 9.5714 -1.2935 0.8791
-43.1495 10.1109 -1.7812 0.8374
-43.9663 5.4111 -1.7804 0.8375
-44.1269 3.8289 -1.7802 0.8375
-43.6754 -7.2624 -1.7795 0.8376
-43.3869 -8.8255 -1.7795 0.8376
-40.9610 -14.6875 -1.7489 0.8401
-14.4343 -6.3786 -0.6343 0.9388
-13.8980 -6.7479 -0.6209 0.9400
-13.9656 -7.4116 -0.6355 0.9387
-35.1245 -20.2891 -1.6303 0.8501
-12.3025 -9.6953 -0.6296 0.9392
-11.2947 -10.2972 -0.6143 0.9406
-18.6389 -24.4147 -1.2345 0.8843
-18.6529 -26.3424 -1.2973 0.8788
-18.6684 -28.4795 -1.3686 0.8726
-21.6495 -35.7648 -1.6803 0.8459
-9.6636 -20.7083 -0.9185 0.9126
-7.7560 -20.3087 -0.8737 0.9167
-5.4526 -20.7388 -0.8619 0.9177
-2.1228 -9.4399 -0.3889 0.9620
-0.7344 -9.4469 -0.5255 0.9628
-0.0546 -9.4582 -0.5246 0.9628
0.2850 -9.4567 -0.5247 0.9628
0.6253 -9.4551 -0.5256 0.9628
1.1355 -6.4697 -0.3643 0.9740
1.6180 -6.4563 -0.3692 0.9737
2.1445 -6.5289 -0.3812 0.9728
7.5214 -20.3977 -1.2058 0.9166
9.2338 -20.3984 -1.2419 0.9142
10.0483 -20.2315 -1.2529 0.9135
11.0831 -20.4387 -1.2896 0.9111
12.0669 -20.4639 -1.3176 0.9092
13.0842 -20.4721 -1.3476 0.9073
14.0047 -20.2702 -1.3665 0.9060
15.4941 -20.7884 -1.4380 0.9013
16.4542 -20.4979 -1.4579 0.9001
17.6866 -20.4813 -1.5009 0.8973
19.0228 -20.4930 -1.5508 0.8940
21.8713 -20.4070 -1.6591 0.8871
22.5956 -19.6138 -1.6595 0.8870
23.2910 -18.7949 -1.6600 0.8870
30.7032 -11.4110 -1.8167 0.8770
21.0644 -6.1491 -1.2171 0.9158
32.6058 -3.4200 -1.8184 0.8769
32.7103 -2.2475 -1.8185 0.8769
32.7916 0.1051 -1.8188 0.8769
29.6994 4.3921 -1.6652 0.8867
29.0541 7.5592 -1.6651 0.8867
28.7630 8.5969 -1.6650 0.8867
24.8255 10.4419 -1.4938 0.8977
19.6473 10.8834 -1.2457 0.9140
13.7323 8.9513 -0.9092 0.9364
13.3717 9.4170 -0.9071 0.9366
13.3609 10.1460 -0.9305 0.9350
13.3235 10.8933 -0.9545 0.9334
13.3609 11.7488 -0.9868 0.9312
13.3360 12.6040 -1.0177 0.9291
18.8635 23.8102 -1.6848 0.8854
13.4027 23.0659 -1.4796 0.8986
15.3923 28.8248 -1.8124 0.8773
13.2774 29.8386 -1.8114 0.8774
12.1944 30.2874 -1.8109 0.8774
4.1232 11.4068 -0.6727 0.9526
9.9841 31.0663 -1.8099 0.8775
4.5164 21.9150 -1.2410 0.9143
2.8441 29.6804 -1.6537 0.8874
1.7763 29.7538 -1.6532 0.8874
0.7068 29.7887 -1.6527 0.8875
-0.7570 15.7309 -0.8735 0.9389
-1.6561 13.7465 -0.7679 0.9460
-2.6694 13.7538 -0.7771 0.9454
-3.1683 11.7439 -0.6747 0.9524
-4.0948 11.7506 -0.6902 0.9514
-4.5755 11.7541 -0.6996 0.9507
-5.5806 11.7613 -0.7220 0.9492
-7.1800 11.6914 -0.7610 0.9465
-8.3551 11.6404 -0.7947 0.9442
-9.0090 11.6452 -0.8166 0.9427
-9.7009 11.6502 -0.8409 0.9411
-12.0629 11.6673 -0.9308 0.9350
-12.9707 11.6738 -0.9679 0.9325
-22.0901 18.4903 -1.5978 0.8910
-25.4894 19.8240 -1.7910 0.8787
-26.8334 17.9358 -1.7901 0.8787
-28.0389 15.9574 -1.7894 0.8788
-8.7218 4.5573 -0.5458 0.9613
