ply
format ascii 1.0
element vertex 1545
property float32 x
property float32 y
property float32 z
property float32 I
end_header
-53.0820 35.4806 6.2104 0.7737
-63.1170 35.9209 7.0638 0.7469
-68.8205 35.9598 7.5527 0.7319
-62.9251 27.3260 6.6728 0.7590
-66.0803 15.4841 6.6016 0.7613
-68.6065 13.4982 6.8011 0.7550
-69.7142 11.1334 6.8669 0.7530
-80.8657 9.9525 7.9250 0.7208
-61.2868 -41.5356 7.2013 0.7426
-54.1305 -42.6589 6.7036 0.7581
-50.4199 -42.7561 6.4302 0.7667
-34.4390 -31.3976 4.5330 0.8292
-32.5952 -31.9332 4.4385 0.8324
-32.3604 -34.0642 4.5701 0.8279
-34.9326 -39.5209 5.1305 0.8090
-24.8007 -40.9705 4.6584 0.8249
-16.3081 -31.9053 3.4853 0.8659
-14.1149 -33.3185 3.5196 0.8647
-8.4146 -32.0046 3.2188 0.8755
-5.9216 -31.5921 3.1264 0.8788
-2.2988 -15.2736 1.5024 0.9398
-5.0605 -44.4016 4.3468 0.8356
-3.4524 -44.4126 3.6487 0.8363
-0.2517 -43.6124 3.5723 0.8394
1.3054 -43.3079 3.5489 0.8404
2.7764 -41.9827 3.4462 0.8446
4.2896 -41.9332 3.4526 0.8444
6.1702 -44.4782 3.6780 0.8351
7.8087 -44.4894 3.6997 0.8342
8.8730 -41.7003 3.4921 0.8427
10.4680 -41.7696 3.5271 0.8413
15.3928 -41.7447 3.6443 0.8365
18.2738 -44.5608 3.9449 0.8242
20.9399 -42.1606 3.8558 0.8278
24.1929 -44.6147 4.1570 0.8157
25.0899 -42.5491 4.0459 0.8202
26.7617 -41.8725 4.0703 0.8192
61.8574 -71.6317 7.7521 0.6840
59.7511 -59.9045 6.9302 0.7121
61.9080 -57.7633 6.9352 0.7119
61.9609 -49.9998 6.5214 0.7265
59.7783 -44.7930 6.1184 0.7410
59.8511 -41.5787 5.9691 0.7464
59.8722 -38.4825 5.8296 0.7515
60.9387 -36.1447 5.8033 0.7525
66.0906 -36.0583 6.1666 0.7392
74.0219 -37.0016 6.7783 0.7174
79.5836 -36.2718 7.1637 0.7040
72.1795 -7.5709 5.9445 0.7473
40.0001 11.9556 3.4195 0.8457
40.1015 13.5720 3.4676 0.8437
40.1128 15.2014 3.5136 0.8418
40.0738 16.8555 3.5609 0.8399
40.0981 20.3662 3.6837 0.8349
38.8778 21.5358 3.6403 0.8366
40.1877 26.1960 3.9293 0.8249
40.2171 30.5399 4.1362 0.8165
39.2179 37.0653 4.4199 0.8053
11.4126 11.5896 1.3323 0.9368
9.8880 11.6000 1.2485 0.9407
9.2797 11.7131 1.2240 0.9418
8.6405 11.7494 1.1946 0.9431
7.4090 11.7578 1.1383 0.9458
6.2966 11.7914 1.0949 0.9478
5.2500 11.7985 1.0577 0.9495
4.7517 11.8019 1.0421 0.9502
3.7950 11.8084 1.0159 0.9514
3.3333 11.8116 1.0052 0.9519
1.9686 11.6539 0.9681 0.9537
1.5631 11.8236 0.9769 0.9533
-0.1442 11.8353 0.9695 0.9536
-0.5697 11.8382 0.9708 0.9535
-1.1713 13.9135 1.1437 0.9455
-1.6766 13.9169 1.1481 0.9453
-43.7852 77.3966 7.2835 0.6999
-34.5290 56.2249 5.4044 0.7674
-43.6919 60.8724 6.1373 0.7403
-44.6635 49.8819 5.4842 0.7644
-44.7482 37.4560 4.7798 0.7912
-45.5543 35.4293 4.7269 0.7933
-49.1281 35.4536 4.9624 0.7842
-57.4920 35.5107 5.5349 0.7625
-63.7134 27.6683 5.6895 0.7567
-65.7114 25.7737 5.7815 0.7533
-68.0419 23.9069 5.9072 0.7487
-79.7459 12.7354 6.6146 0.7232
-90.0702 -35.9956 7.9448 0.6775
-77.6529 -41.2107 7.2006 0.7027
-61.2691 -41.5237 6.0624 0.7430
-55.1437 -43.4574 5.7507 0.7544
-34.4390 -31.3976 3.8172 0.8294
-32.3604 -34.0642 3.8484 0.8281
-23.8606 -33.6970 3.3819 0.8473
-25.9480 -39.5848 3.8768 0.8270
-23.2760 -41.7663 3.9164 0.8254
-15.2559 -32.6921 2.9550 0.8652
-14.1149 -33.3185 2.9638 0.8648
-14.1637 -41.4989 3.5916 0.8386
-12.8075 -42.4532 3.6320 0.8370
-8.4131 -31.9992 2.7101 0.8756
-7.1024 -31.5841 2.6516 0.8782
-5.9216 -31.5921 2.6327 0.8790
-2.2986 -15.2724 1.2650 0.9399
-1.7680 -42.3990 2.8257 0.8436
1.3397 -44.4453 2.9608 0.8367
6.1702 -44.4782 2.9900 0.8353
7.8087 -44.4894 3.0077 0.8344
12.8735 -44.5240 3.0861 0.8304
13.7161 -41.7579 2.9267 0.8384
15.3835 -41.7194 2.9608 0.8367
18.2738 -44.5608 3.2070 0.8244
20.9362 -42.1532 3.1340 0.8281
25.0855 -42.5417 3.2885 0.8204
30.8559 -44.6601 3.6145 0.8044
32.6827 -43.8506 3.6416 0.8031
59.7261 -59.8796 5.6315 0.7125
61.9017 -57.7574 5.6374 0.7122
59.8749 -41.5953 4.8545 0.7466
61.0135 -36.1890 4.7236 0.7525
66.3160 -36.1812 5.0302 0.7387
72.1618 -36.0717 5.3719 0.7237
79.5836 -36.2718 5.8237 0.7043
46.8612 10.4116 3.1964 0.8249
40.0909 11.9827 2.7862 0.8456
40.1129 15.2014 2.8564 0.8420
40.0742 16.8557 2.8948 0.8401
40.0981 20.3662 2.9947 0.8350
40.1817 22.2581 3.0586 0.8318
40.1878 26.1960 3.1943 0.8250
40.2023 28.3124 3.2742 0.8211
40.1571 30.4943 3.3575 0.8170
40.0922 32.7793 3.4483 0.8125
40.2953 40.9201 3.8241 0.7944
40.3166 43.9946 3.9735 0.7872
9.8880 11.6000 1.0149 0.9407
9.3048 11.7449 0.9977 0.9417
8.0099 11.7537 0.9471 0.9446
6.8163 11.7308 0.9034 0.9471
6.2966 11.7914 0.8901 0.9478
5.7643 11.7950 0.8742 0.9487
5.2500 11.7985 0.8599 0.9495
1.5631 11.8236 0.7941 0.9533
1.1333 11.8266 0.7911 0.9535
0.7062 11.8295 0.7891 0.9536
0.2808 11.8324 0.7881 0.9537
-0.1442 11.8353 0.7881 0.9537
-0.5697 11.8382 0.7892 0.9536
-2.6879 13.8494 0.9394 0.9450
-43.8222 77.4620 5.9261 0.6999
-43.8634 71.4244 5.5812 0.7146
-45.0987 40.5897 4.0401 0.7841
-70.2010 54.5979 5.9218 0.7001
-49.6482 35.8290 4.0769 0.7824
-53.5041 35.7628 4.2853 0.7726
-62.4556 35.5445 4.7851 0.7497
-68.0994 35.5830 5.1162 0.7349
-80.2061 24.9846 5.5938 0.7141
-72.2014 19.6775 4.9830 0.7408
-89.7424 -35.8646 6.4352 0.6788
-74.6236 -43.1052 5.7384 0.7079
-61.2812 -41.5318 4.9294 0.7432
-56.7310 -41.4959 4.6802 0.7544
-55.4669 -43.7121 4.7024 0.7534
-50.4199 -42.7561 4.4019 0.7672
-34.4390 -31.3976 3.1032 0.8296
-32.5874 -31.9255 3.0376 0.8329
-32.3604 -34.0642 3.1286 0.8283
-26.2524 -31.9416 2.7529 0.8473
-24.3158 -31.8507 2.6682 0.8516
-23.8607 -33.6970 2.7493 0.8474
-24.8007 -40.9705 3.1890 0.8253
-15.2559 -32.6921 2.4022 0.8653
-15.1458 -39.6585 2.8268 0.8435
-14.1637 -41.4989 2.9198 0.8388
-7.1840 -23.8129 1.6562 0.9051
-5.9216 -31.5921 2.1403 0.8791
-2.2984 -15.2713 1.0283 0.9400
-5.0605 -44.4016 2.9757 0.8360
-0.2517 -43.6124 2.2372 0.8397
1.3397 -44.4453 2.2809 0.8369
2.8856 -43.6338 2.2432 0.8393
4.4120 -43.1300 2.2240 0.8406
6.1702 -44.4782 2.3034 0.8354
9.1841 -43.1626 2.2637 0.8380
12.8735 -44.5240 2.3775 0.8306
18.2738 -44.5608 2.4706 0.8246
25.0811 -42.5343 2.5329 0.8206
26.7802 -41.9014 2.5509 0.8194
13.3438 -15.4522 1.0473 0.9215
59.7209 -64.3363 4.5029 0.7036
59.7511 -59.9046 4.3402 0.7126
59.9935 -44.9543 3.8456 0.7406
59.8960 -38.4979 3.6524 0.7519
60.6554 -35.9767 3.6176 0.7539
66.3160 -36.1812 3.8751 0.7389
72.4647 -36.2231 4.1557 0.7229
87.5070 -36.1481 4.8567 0.6844
46.8611 10.4116 2.4624 0.8251
40.2160 12.0201 2.1531 0.8453
40.0981 20.3662 2.3070 0.8352
40.8375 24.5772 2.4449 0.8262
40.1878 26.1960 2.4608 0.8252
40.2174 30.5402 2.5904 0.8169
40.1833 32.8537 2.6625 0.8123
40.2003 35.3497 2.7460 0.8070
40.2957 40.9205 2.9460 0.7945
9.8880 11.6000 0.7819 0.9408
9.3048 11.7449 0.7686 0.9418
8.0099 11.7537 0.7296 0.9446
7.4090 11.7578 0.7129 0.9459
6.8163 11.7308 0.6960 0.9471
5.7487 11.7632 0.6716 0.9489
4.7388 11.7700 0.6509 0.9505
3.7848 11.7766 0.6345 0.9517
2.8728 11.7828 0.6221 0.9526
1.5588 11.7917 0.6101 0.9535
1.1302 11.7946 0.6078 0.9537
-0.5681 11.8062 0.6063 0.9538
-1.1713 13.9135 0.7162 0.9456
-2.1865 13.9204 0.7228 0.9451
-2.6879 13.8494 0.7237 0.9451
-9.5521 18.3958 1.0633 0.9203
-44.0319 71.6988 4.3161 0.7139
-44.0447 66.2619 4.0814 0.7271
-43.6220 56.3864 3.6569 0.7516
-45.0069 54.0503 3.6080 0.7545
-49.6484 55.4493 3.8179 0.7422
-45.0562 46.8237 3.3333 0.7708
-70.2010 54.5978 4.5620 0.7003
-53.6440 35.8563 3.3099 0.7723
-83.6522 51.6689 5.0436 0.6745
-83.6798 47.6236 4.9390 0.6800
-69.3176 36.2195 4.0119 0.7311
-62.5241 24.5236 3.4452 0.7641
-63.3476 19.7331 3.4035 0.7666
-64.4346 17.5608 3.4258 0.7653
-68.6065 13.4982 3.5867 0.7557
-73.9209 11.8052 3.8399 0.7409
-89.5407 -35.7840 4.9463 0.6796
-77.6496 -41.2090 4.5093 0.7032
-66.8617 -41.8925 4.0473 0.7290
-61.3160 -41.5555 3.7996 0.7433
-56.8854 -41.6089 3.6153 0.7541
-50.4199 -42.7561 3.3911 0.7674
-24.3517 -23.8571 1.7487 0.8724
-24.3158 -31.8507 2.0555 0.8517
-23.8606 -33.6970 2.1180 0.8476
-15.4445 -23.5614 1.4451 0.8933
-24.8007 -40.9705 2.4567 0.8255
-16.3081 -31.9053 1.8380 0.8663
-14.8287 -31.7767 1.7988 0.8690
-15.1458 -39.6585 2.1777 0.8436
-5.9216 -31.5921 1.6488 0.8792
-2.2983 -15.2702 0.7921 0.9400
-3.0820 -39.6475 1.4328 0.8529
-1.6562 -39.7186 1.4323 0.8529
-0.2293 -39.7339 1.4316 0.8530
2.0454 -19.9947 0.7242 0.9227
5.5121 -39.7343 1.4453 0.8517
6.9867 -39.8059 1.4561 0.8506
8.4732 -39.8219 1.4669 0.8496
11.5226 -39.8519 1.4947 0.8470
13.0763 -39.8101 1.5098 0.8456
14.7064 -39.8834 1.5316 0.8435
16.3629 -39.9012 1.5538 0.8415
20.9884 -42.2583 1.7000 0.8279
24.9723 -42.3497 1.7714 0.8214
26.9204 -42.1207 1.8011 0.8187
12.1967 -16.3644 0.7353 0.9216
13.2106 -15.2981 0.7283 0.9223
59.7209 -64.3363 3.1628 0.7037
59.3983 -51.5600 2.8340 0.7299
59.6512 -48.1360 2.7617 0.7358
59.8749 -41.5953 2.6268 0.7469
71.6339 -35.8078 2.8855 0.7258
79.5810 -36.2706 3.1511 0.7046
45.2608 10.0561 1.6705 0.8306
40.1924 10.4571 1.4964 0.8469
40.3014 12.0456 1.5155 0.8450
40.1129 15.2015 1.5456 0.8422
40.0981 20.3662 1.6204 0.8353
9.8880 11.6000 0.5492 0.9408
7.9882 11.7219 0.5111 0.9448
6.2796 11.7596 0.4803 0.9480
5.7487 11.7632 0.4717 0.9489
3.3333 11.8116 0.4422 0.9521
2.4355 11.8177 0.4347 0.9529
1.5631 11.8236 0.4297 0.9534
1.1333 11.8266 0.4281 0.9536
0.7062 11.8295 0.4270 0.9537
0.2808 11.8324 0.4264 0.9537
-0.1442 11.8353 0.4265 0.9537
-2.6879 13.8494 0.5083 0.9451
-9.5510 18.3937 0.7467 0.9204
-43.7563 60.9621 2.7037 0.7406
-43.6220 56.3864 2.5686 0.7518
-44.6381 53.6074 2.5134 0.7564
-44.6635 49.8819 2.4124 0.7649
-44.6870 46.4400 2.3221 0.7726
-49.1281 35.4536 2.1829 0.7847
-53.0819 35.4806 2.3005 0.7745
-57.4920 35.5107 2.4347 0.7630
-68.0994 35.5830 2.7684 0.7353
-22.0381 9.5703 0.8657 0.9083
-64.5624 22.6844 2.4656 0.7604
-72.2014 19.6775 2.6963 0.7412
-24.4557 -23.9590 1.2335 0.8719
-32.3604 -34.0642 1.6929 0.8286
-26.1246 -31.7861 1.4824 0.8482
-23.8606 -33.6970 1.4877 0.8477
-24.8007 -40.9705 1.7256 0.8256
-23.2761 -41.7663 1.7228 0.8258
-12.6222 -41.8389 1.5746 0.8395
-7.0812 -31.4898 1.1629 0.8788
-5.9040 -31.4978 1.1546 0.8796
-2.2981 -15.2690 0.5563 0.9401
-3.0820 -39.6475 0.8264 0.8529
-1.6619 -39.8528 0.8289 0.8525
-0.2517 -43.6124 0.9063 0.8399
1.1963 -39.6907 0.8252 0.8531
5.5121 -39.7343 0.8336 0.8517
11.5654 -39.9998 0.8653 0.8465
14.7645 -40.0408 0.8868 0.8430
16.4112 -40.0190 0.8988 0.8411
21.7288 -40.0708 0.9472 0.8333
24.8297 -42.1079 1.0158 0.8224
9.9460 -15.5618 0.3838 0.9288
11.3176 -16.3808 0.4137 0.9234
12.1967 -16.3644 0.4241 0.9216
59.8277 -69.2811 1.9022 0.6933
59.7209 -64.3363 1.8242 0.7038
59.7511 -59.9045 1.7582 0.7128
59.7792 -55.7770 1.6990 0.7210
59.6061 -48.0996 1.5917 0.7361
59.9935 -44.9543 1.5579 0.7409
59.8749 -41.5953 1.5150 0.7470
59.8960 -38.4979 1.4796 0.7521
66.3160 -36.1812 1.5699 0.7392
71.5609 -35.7713 1.6625 0.7261
79.5810 -36.2706 1.8174 0.7048
87.5070 -36.1481 1.9675 0.6847
45.2608 10.0561 0.9635 0.8307
40.0909 11.9827 0.8695 0.8459
40.1129 15.2015 0.8914 0.8423
40.0859 18.5812 0.9182 0.8380
40.0981 20.3662 0.9346 0.8353
40.1637 22.2481 0.9541 0.8322
40.7949 24.5516 0.9894 0.8266
40.1878 26.1960 0.9969 0.8254
40.2023 28.3124 1.0218 0.8214
40.2003 35.3497 1.1124 0.8072
40.3005 38.0885 1.1523 0.8010
40.2957 40.9205 1.1934 0.7947
9.8880 11.6000 0.3167 0.9408
9.3048 11.7449 0.3114 0.9418
8.6405 11.7494 0.3031 0.9433
5.7643 11.7950 0.2728 0.9488
5.2500 11.7985 0.2684 0.9496
4.2673 11.8052 0.2609 0.9510
3.3333 11.8116 0.2550 0.9521
2.4355 11.8177 0.2507 0.9529
1.5631 11.8236 0.2478 0.9534
-1.6715 13.8744 0.2904 0.9456
-2.1798 13.8779 0.2919 0.9453
-2.6942 13.8814 0.2938 0.9450
-44.0331 71.7006 1.7485 0.7142
-43.8552 65.9768 1.6463 0.7284
-43.7563 60.9621 1.5594 0.7407
-44.6381 53.6074 1.4496 0.7565
-44.6635 49.8819 1.3914 0.7650
-44.6870 46.4400 1.3393 0.7727
-44.7291 40.2571 1.2505 0.7860
-53.0819 35.4806 1.3268 0.7746
-57.4919 35.5106 1.4042 0.7631
-62.4556 35.5445 1.4933 0.7501
-68.0994 35.5830 1.5967 0.7354
-69.4153 24.3895 1.5289 0.7450
-80.2061 24.9846 1.7457 0.7146
-72.2014 19.6775 1.5551 0.7413
-79.7459 12.7355 1.6781 0.7239
-85.7896 -17.4509 1.8193 0.7045
-74.6236 -43.1052 1.7909 0.7084
-49.9481 -39.3629 1.3215 0.7754
-34.3362 -31.3039 0.9656 0.8304
-24.5971 -24.0975 0.7156 0.8713
-32.2530 -33.9511 0.9731 0.8291
-25.7763 -31.3623 0.8436 0.8501
-23.7404 -33.5272 0.8537 0.8484
-25.9480 -39.5848 0.9836 0.8275
-14.9522 -26.8300 0.6383 0.8844
-16.0644 -31.4285 0.7335 0.8683
-14.6707 -31.4381 0.7209 0.8704
-13.6567 -32.2371 0.7275 0.8693
-5.9040 -31.4978 0.6659 0.8797
-2.2979 -15.2679 0.3209 0.9401
-5.0605 -44.4016 0.9287 0.8363
-3.4524 -44.4126 0.2468 0.8368
-0.2517 -43.6124 0.2416 0.8399
1.3052 -43.3000 0.2400 0.8409
2.8856 -43.6338 0.2423 0.8395
10.5250 -41.9968 0.2399 0.8410
12.8735 -44.5240 0.2568 0.8308
15.4982 -42.0307 0.2482 0.8359
18.2738 -44.5608 0.2669 0.8248
19.2192 -42.4570 0.2582 0.8299
20.9004 -42.0811 0.2603 0.8287
24.1929 -44.6147 0.2812 0.8163
24.8297 -42.1079 0.2708 0.8224
9.9460 -15.5619 0.1023 0.9288
12.1967 -16.3644 0.1131 0.9216
13.1594 -16.3933 0.1165 0.9194
59.7792 -55.7770 0.4530 0.7211
59.8974 -44.8823 0.4147 0.7413
59.8452 -41.5746 0.4037 0.7472
66.3160 -36.1812 0.4186 0.7392
71.1529 -35.5674 0.4407 0.7275
79.4746 -36.2221 0.4839 0.7051
27.2226 -10.1174 0.1609 0.8903
40.1924 10.4571 0.2301 0.8469
40.0909 11.9827 0.2318 0.8459
40.1018 13.5721 0.2346 0.8442
39.5419 23.7975 0.2557 0.8314
40.1878 26.1960 0.2658 0.8254
40.2174 30.5402 0.2798 0.8171
40.3005 38.0885 0.3072 0.8011
39.6251 40.2395 0.3129 0.7978
9.8880 11.6000 0.0845 0.9409
9.3048 11.7449 0.0830 0.9418
8.6405 11.7494 0.0808 0.9433
8.0099 11.7537 0.0788 0.9447
7.4090 11.7578 0.0770 0.9459
6.8163 11.7308 0.0752 0.9472
6.2966 11.7914 0.0741 0.9479
5.7643 11.7950 0.0727 0.9488
5.2500 11.7985 0.0716 0.9497
4.7517 11.8019 0.0705 0.9504
4.2673 11.8052 0.0696 0.9510
2.8728 11.7828 0.0672 0.9526
1.5631 11.8236 0.0661 0.9534
1.1333 11.8266 0.0658 0.9536
0.7062 11.8295 0.0657 0.9537
0.2808 11.8324 0.0656 0.9538
-0.1442 11.8353 0.0656 0.9538
-1.1678 13.8710 0.0771 0.9458
-9.5488 18.3896 0.1148 0.9205
-44.0345 71.7029 0.4662 0.7142
-43.8567 65.9791 0.4390 0.7284
-43.7563 60.9621 0.4158 0.7407
-43.6220 56.3864 0.3950 0.7519
-45.2612 54.3557 0.3919 0.7536
-66.6201 55.7636 0.4814 0.7064
-77.4762 55.9113 0.5294 0.6824
-53.6439 35.8562 0.3575 0.7725
-83.0297 36.0567 0.5016 0.6962
-72.2014 19.6775 0.4146 0.7413
-84.0705 16.5407 0.4747 0.7098
-73.9209 11.8052 0.4148 0.7412
-84.8181 -17.2533 0.4796 0.7074
-73.9758 -39.2593 0.4640 0.7153
-62.5651 -39.2005 0.4091 0.7443
-50.0950 -39.4787 0.3534 0.7748
-46.5962 -39.5136 0.3385 0.7832
-29.5891 -31.1470 0.2380 0.8421
-25.6216 -31.1741 0.2236 0.8509
-23.8087 -31.1865 0.2174 0.8548
-18.8984 -31.2199 0.2022 0.8642
-13.2422 -31.2585 0.1881 0.8730
-10.6746 -31.2760 0.1831 0.8762
-5.9040 -31.4978 0.1776 0.8797
-5.0605 -44.4016 0.2476 0.8363
1.8345 -27.7398 -0.2696 0.8948
10.3806 -31.6032 -0.3225 0.8754
41.3632 -83.2810 -0.9016 0.6894
13.1594 -16.3933 -0.2038 0.9193
10.6578 -9.9443 -0.1413 0.9434
46.8688 -32.5599 -0.5534 0.7959
37.4292 -20.4209 -0.4134 0.8432
40.9171 -20.4534 -0.4436 0.8328
25.7786 -10.6488 -0.2705 0.8944
25.8166 -9.5949 -0.2671 0.8957
28.8193 -9.5482 -0.2944 0.8856
57.6570 -14.6070 -0.5767 0.7883
49.1368 -10.5872 -0.4874 0.8179
73.9173 -7.7531 -0.7207 0.7428
37.2876 0.1195 -0.3616 0.8614
52.4383 9.6898 -0.5171 0.8079
44.2325 9.8276 -0.4394 0.8342
40.1924 10.4571 -0.4027 0.8469
40.0742 16.8556 -0.4216 0.8404
40.0981 20.3662 -0.4361 0.8354
40.1818 22.2581 -0.4454 0.8321
40.3942 28.4476 -0.4791 0.8207
22.2819 22.6274 -0.3079 0.8807
9.8880 11.6000 -0.1478 0.9408
9.3048 11.7449 -0.1453 0.9418
8.0099 11.7537 -0.1379 0.9447
6.8163 11.7307 -0.1316 0.9472
6.2966 11.7914 -0.1296 0.9479
5.7643 11.7950 -0.1273 0.9488
5.2500 11.7985 -0.1252 0.9497
4.2673 11.8052 -0.1217 0.9510
3.7950 11.8084 -0.1203 0.9516
3.3333 11.8116 -0.1190 0.9521
1.5631 11.8236 -0.1156 0.9534
0.7062 11.8295 -0.1149 0.9537
0.2808 11.8324 -0.1148 0.9538
-0.5697 11.8382 -0.1149 0.9537
-1.1677 13.8710 -0.1350 0.9458
-1.6715 13.8744 -0.1355 0.9456
-2.1798 13.8779 -0.1362 0.9454
-18.6540 80.5375 -0.8016 0.7184
-9.5478 18.3875 -0.2009 0.9205
-44.0359 71.7053 -0.8159 0.7142
-43.8582 65.9813 -0.7682 0.7284
-25.3573 32.7771 -0.4018 0.8472
-44.6381 53.6074 -0.6764 0.7565
-46.5140 44.9886 -0.6275 0.7719
-45.1156 40.6049 -0.5886 0.7844
-52.1919 40.5915 -0.6411 0.7676
-52.2495 37.7062 -0.6248 0.7728
-62.4556 35.5445 -0.6968 0.7502
-64.4049 30.7618 -0.6921 0.7516
-62.7676 27.2576 -0.6635 0.7605
-62.7824 22.0590 -0.6453 0.7663
-63.3476 19.7331 -0.6434 0.7669
-64.4346 17.5608 -0.6476 0.7656
-66.0802 15.4841 -0.6581 0.7622
-68.6065 13.4982 -0.6780 0.7560
-99.5322 -9.2797 -0.9693 0.6704
-94.4995 -12.2459 -0.9240 0.6831
-62.7632 -10.4363 -0.6169 0.7753
-84.8138 -17.2524 -0.8395 0.7074
-82.1638 -19.8094 -0.8195 0.7131
-62.2779 -19.8387 -0.6338 0.7699
-44.7481 -19.7743 -0.4744 0.8223
-42.6433 -22.6309 -0.4681 0.8244
-42.6411 -24.6309 -0.4775 0.8212
-32.7190 -23.9324 -0.3931 0.8503
-32.7452 -27.7679 -0.4163 0.8422
-25.6933 -23.4243 -0.3371 0.8702
-24.2227 -23.7308 -0.3288 0.8732
-24.2480 -27.4329 -0.3550 0.8638
-25.6216 -31.1741 -0.3913 0.8509
-22.0912 -31.1982 -0.3707 0.8582
-15.4007 -23.4945 -0.2724 0.8937
-14.5474 -24.0322 -0.2724 0.8937
-14.5617 -26.1293 -0.2901 0.8872
-14.5827 -31.2494 -0.3344 0.8711
-13.2422 -31.2585 -0.3292 0.8730
-7.1050 -23.5511 -0.2385 0.9063
-6.5240 -34.8059 -0.3434 0.8679
-2.2976 -15.2657 -0.1497 0.9401
-3.0088 -72.1553 -1.8010 0.7490
2.1760 -72.1925 -1.8012 0.7490
1.6029 -24.2376 -0.6058 0.9074
2.7877 -20.0952 -0.5059 0.9220
4.2790 -20.1100 -0.5127 0.9210
7.4260 -20.1390 -0.5353 0.9177
8.2621 -20.1473 -0.5430 0.9166
10.9383 -20.1716 -0.5722 0.9123
11.9002 -20.1812 -0.5843 0.9105
9.9460 -15.5619 -0.4606 0.9288
11.3176 -16.3808 -0.4965 0.9234
13.1594 -16.3933 -0.5242 0.9193
9.4700 -10.2018 -0.3471 0.9458
10.5642 -9.8569 -0.3603 0.9438
25.7303 -20.7632 -0.8245 0.8761
29.8183 -20.7149 -0.9055 0.8648
32.0454 -20.5970 -0.9500 0.8586
41.1912 -20.5904 -1.1484 0.8317
24.9733 -11.3821 -0.6844 0.8960
26.2713 -9.7639 -0.6989 0.8939
28.7862 -9.5372 -0.7563 0.8857
63.4813 -18.5314 -1.6492 0.7675
29.4392 -6.3431 -0.7510 0.8865
66.8204 -11.9050 -1.6926 0.7622
71.8478 -7.5361 -1.8016 0.7490
72.0720 -4.9521 -1.8016 0.7490
37.2956 0.1195 -0.9301 0.8614
72.1867 2.8246 -1.8016 0.7490
72.0387 5.4140 -1.8016 0.7490
65.4194 9.6745 -1.6492 0.7675
47.5524 8.7870 -1.2060 0.8241
44.2325 9.8276 -1.1300 0.8342
37.5636 11.2273 -0.9777 0.8548
31.6136 13.2970 -0.8553 0.8718
31.6487 16.0747 -0.8852 0.8676
31.6284 20.6166 -0.9415 0.8598
26.1942 18.4472 -0.7990 0.8797
25.9455 19.7024 -0.8125 0.8778
25.9897 21.2491 -0.8372 0.8743
23.5158 22.2250 -0.8069 0.8786
22.2962 24.3302 -0.8230 0.8763
9.8880 11.6000 -0.3801 0.9408
9.3048 11.7449 -0.3737 0.9418
8.0099 11.7537 -0.3547 0.9447
7.4090 11.7578 -0.3466 0.9459
6.8163 11.7308 -0.3383 0.9472
5.2500 11.7985 -0.3220 0.9496
4.7517 11.8019 -0.3173 0.9504
4.2673 11.8052 -0.3130 0.9510
3.7950 11.8084 -0.3093 0.9516
3.3333 11.8116 -0.3061 0.9521
2.8728 11.7828 -0.3025 0.9526
1.9686 11.6539 -0.2947 0.9538
1.1333 11.8266 -0.2963 0.9536
0.2808 11.8324 -0.2952 0.9537
-1.1678 13.8710 -0.3471 0.9458
-2.1798 13.8779 -0.3503 0.9453
-2.6942 13.8814 -0.3526 0.9450
-16.3010 70.3788 -1.8016 0.7490
-23.3679 60.0304 -1.6065 0.7728
-21.3682 49.5535 -1.3458 0.8058
-9.5467 18.3855 -0.5167 0.9205
-13.8381 24.4608 -0.7009 0.8936
-18.3182 23.6784 -0.7466 0.8871
-47.2846 45.7339 -1.6405 0.7686
-44.7291 40.2571 -1.5007 0.7860
-53.0819 35.4806 -1.5923 0.7746
-59.6735 28.5019 -1.6492 0.7675
-60.6581 26.3416 -1.6492 0.7675
-61.5646 24.1472 -1.6492 0.7675
-63.8037 17.3889 -1.6492 0.7675
-72.1492 3.6575 -1.8016 0.7490
-72.1243 -4.1200 -1.8016 0.7490
-71.6429 -9.2840 -1.8016 0.7490
-57.3948 -9.5436 -1.4510 0.7923
-63.6909 -17.7975 -1.6492 0.7675
-45.0494 -19.9075 -1.2283 0.8211
-42.7815 -24.7120 -1.2321 0.8206
-42.7468 -26.7832 -1.2580 0.8172
-42.8203 -29.0203 -1.2900 0.8130
-32.7190 -23.9324 -1.0109 0.8503
-32.7317 -25.7951 -1.0393 0.8464
-32.7452 -27.7679 -1.0707 0.8422
-24.2349 -25.5109 -0.8775 0.8687
-44.4935 -54.1358 -1.7475 0.7555
-40.7261 -57.5151 -1.7575 0.7543
-15.4007 -23.4945 -0.7006 0.8937
-14.5780 -28.5205 -0.7988 0.8797
-25.5393 -66.8735 -1.7852 0.7509
-7.1050 -23.5511 -0.6135 0.9063
-6.1936 -23.5573 -0.6074 0.9071
-5.9071 -26.2686 -0.6715 0.8979
-2.2974 -15.2645 -0.3850 0.9401
-8.1715 -71.6972 -1.7996 0.7492
-1.7767 -42.6075 -1.7140 0.8431
-0.2461 -42.6472 -1.7141 0.8430
1.6029 -24.2376 -0.9763 0.9073
2.0492 -20.0321 -0.8093 0.9226
2.8040 -20.2128 -0.8202 0.9216
3.6505 -20.7982 -0.8487 0.9189
4.3905 -20.6336 -0.8479 0.9190
5.8021 -20.0671 -0.8396 0.9198
7.7026 -20.8891 -0.8948 0.9147
9.3789 -20.7187 -0.9141 0.9130
9.9862 -20.1064 -0.9023 0.9140
12.1671 -20.6336 -0.9627 0.9086
9.9460 -15.5619 -0.7423 0.9287
8.6402 -10.7635 -0.5547 0.9462
9.2842 -10.0017 -0.5485 0.9468
9.7146 -9.7395 -0.5529 0.9464
10.4310 -9.7327 -0.5734 0.9445
10.0443 -6.4559 -0.4799 0.9533
10.8800 -6.4533 -0.5084 0.9506
36.0208 -19.6525 -1.6492 0.8485
25.4623 -9.4632 -1.0918 0.8970
29.0088 -6.2503 -1.1927 0.8880
44.1300 -7.8624 -1.8016 0.8357
44.3838 -6.2733 -1.8016 0.8357
44.8247 0.1436 -1.8016 0.8357
44.7907 1.7526 -1.8016 0.8357
40.7810 4.5419 -1.6492 0.8485
40.5917 6.0029 -1.6492 0.8485
40.3500 7.4561 -1.6492 0.8485
40.0564 8.8997 -1.6492 0.8485
39.7111 10.3319 -1.6492 0.8485
37.5858 11.2339 -1.5767 0.8547
31.5163 16.0074 -1.4207 0.8680
31.6548 17.5347 -1.4544 0.8651
26.6182 17.3508 -1.2770 0.8806
25.8776 18.2243 -1.2721 0.8810
25.9322 19.6923 -1.3087 0.8778
25.8790 21.1586 -1.3435 0.8747
31.6064 27.7928 -1.6916 0.8449
24.1908 22.8630 -1.3378 0.8752
22.3772 22.7242 -1.2818 0.8801
9.8880 11.6000 -0.6126 0.9408
8.6405 11.7494 -0.5862 0.9433
8.0099 11.7537 -0.5717 0.9447
6.8163 11.7308 -0.5453 0.9471
5.7643 11.7950 -0.5276 0.9488
4.2673 11.8052 -0.5045 0.9510
3.7950 11.8084 -0.4985 0.9516
3.3333 11.8116 -0.4933 0.9521
1.9686 11.6539 -0.4750 0.9538
1.5631 11.8236 -0.4793 0.9534
1.1333 11.8266 -0.4775 0.9536
0.7062 11.8295 -0.4763 0.9537
-0.5697 11.8382 -0.4763 0.9537
-1.1677 13.8710 -0.5595 0.9458
-1.6715 13.8744 -0.5617 0.9456
-2.1798 13.8779 -0.5646 0.9453
-11.6755 43.2777 -1.8016 0.8357
-13.2215 42.8307 -1.8016 0.8357
-9.2026 26.4081 -1.1240 0.8941
-17.7493 41.1612 -1.8016 0.8357
-13.8087 22.4852 -1.0605 0.8998
-14.6255 22.0030 -1.0619 0.8996
-17.5220 24.4120 -1.2077 0.8867
-18.0714 23.3593 -1.1870 0.8885
-31.0805 32.2998 -1.8016 0.8357
-32.2199 31.1633 -1.8016 0.8357
-21.0205 17.5950 -1.1018 0.8961
-34.0269 26.4640 -1.7325 0.8415
-20.9335 15.1068 -1.0376 0.9018
-23.5873 14.5690 -1.1143 0.8950
-35.6622 20.2960 -1.6492 0.8485
-37.0265 17.6850 -1.6492 0.8485
-38.1999 14.9830 -1.6492 0.8485
-38.7131 13.6021 -1.6492 0.8485
-40.2613 7.9213 -1.6492 0.8485
-40.5197 6.4710 -1.6492 0.8485
-40.7259 5.0123 -1.6492 0.8485
-44.2499 3.8396 -1.7852 0.8371
-44.7675 2.2695 -1.8016 0.8357
-44.8201 0.6610 -1.8016 0.8357
-44.8149 -0.9483 -1.8016 0.8357
-44.7520 -2.5564 -1.8016 0.8357
-44.4533 -5.7606 -1.8016 0.8357
-44.2178 -7.3526 -1.8016 0.8357
-43.5764 -10.5060 -1.8016 0.8357
-38.1030 -15.2275 -1.6492 0.8485
-32.1851 -15.6268 -1.4380 0.8666
-35.5314 -20.5242 -1.6492 0.8485
-35.0647 -21.9697 -1.6631 0.8473
-34.2670 -23.2236 -1.6637 0.8473
-31.6321 -26.8250 -1.6670 0.8470
-26.5943 -32.3576 -1.6834 0.8456
-25.4600 -33.3496 -1.6863 0.8454
-24.2870 -34.2992 -1.6892 0.8451
-15.4007 -23.4945 -1.1291 0.8936
-14.5617 -26.1293 -1.2023 0.8871
-17.8993 -38.3562 -1.7012 0.8441
-15.1358 -39.6293 -1.7050 0.8438
-13.7159 -40.1867 -1.7067 0.8437
-7.1050 -23.5511 -0.9887 0.9062
-7.8460 -41.8586 -1.7117 0.8433
-2.2973 -15.2634 -0.6204 0.9401
-4.8268 -42.3505 -1.7132 0.8431
-1.2690 -30.4314 -1.6893 0.8851
-0.1759 -30.4722 -1.6901 0.8851
0.9185 -30.4735 -1.6910 0.8850
1.6029 -24.2376 -1.3472 0.9073
2.0492 -20.0321 -1.1169 0.9225
3.5520 -20.2371 -1.1396 0.9210
4.3887 -20.6252 -1.1696 0.9190
5.0755 -20.2522 -1.1580 0.9198
6.6510 -20.2487 -1.1821 0.9182
9.1851 -20.2907 -1.2353 0.9146
9.9862 -20.1064 -1.2452 0.9140
11.0023 -20.2896 -1.2801 0.9117
12.1779 -20.6520 -1.3298 0.9084
9.9460 -15.5619 -1.0243 0.9287
7.9401 -10.6532 -0.7369 0.9482
8.3786 -9.7025 -0.7110 0.9499
8.9958 -9.6910 -0.7334 0.9484
11.1056 -9.6401 -0.8157 0.9428
9.4707 -6.5793 -0.6396 0.9549
9.8475 -6.3294 -0.6493 0.9542
10.6315 -6.3058 -0.6856 0.9517
11.7329 -6.4013 -0.7413 0.9479
28.9888 -14.4907 -1.7975 0.8782
30.0217 -12.4016 -1.8016 0.8780
30.8341 -10.2157 -1.8016 0.8780
26.4133 -7.7106 -1.5261 0.8956
26.2976 -6.6623 -1.5046 0.8970
31.9788 -5.6975 -1.8016 0.8780
32.1626 -4.5459 -1.8016 0.8780
32.3051 -3.3884 -1.8016 0.8780
31.9416 5.9023 -1.8016 0.8780
31.7091 7.0451 -1.8016 0.8780
31.4358 8.1788 -1.8016 0.8780
30.7680 10.4131 -1.8016 0.8780
30.3744 11.5109 -1.8016 0.8780
28.4142 15.7396 -1.8016 0.8780
27.8309 16.7494 -1.8016 0.8780
27.2117 17.7377 -1.8016 0.8780
24.3929 21.4497 -1.8016 0.8780
17.1677 16.2254 -1.3102 0.9097
22.7911 23.1445 -1.8016 0.8780
8.0099 11.7537 -0.7889 0.9446
6.8163 11.7308 -0.7525 0.9471
5.2359 11.7667 -0.7143 0.9497
4.7389 11.7701 -0.7037 0.9504
4.2557 11.7733 -0.6943 0.9511
3.7848 11.7766 -0.6861 0.9517
3.3243 11.7797 -0.6789 0.9521
2.8728 11.7828 -0.6727 0.9526
2.4289 11.7858 -0.6674 0.9529
1.9686 11.6539 -0.6555 0.9538
0.7062 11.8295 -0.6573 0.9536
-0.5697 11.8382 -0.6574 0.9536
-1.1677 13.8710 -0.7721 0.9458
-1.6715 13.8744 -0.7751 0.9456
-2.6942 13.8814 -0.7843 0.9449
-6.7094 28.9677 -1.6492 0.8877
-7.7449 28.7082 -1.6492 0.8877
-8.7705 28.4117 -1.6492 0.8877
-9.1928 26.3801 -1.5494 0.8941
-11.7830 30.2698 -1.8016 0.8780
-9.5045 18.3042 -1.1439 0.9207
-14.5890 21.9481 -1.4617 0.8998
-20.3410 24.4282 -1.7631 0.8804
-20.3608 22.7397 -1.6929 0.8849
-20.7125 21.5250 -1.6568 0.8872
-21.4718 20.7677 -1.6568 0.8872
-22.2034 19.9835 -1.6568 0.8872
-22.9065 19.1736 -1.6568 0.8872
-20.9335 15.1068 -1.4318 0.9017
-21.7137 14.5137 -1.4486 0.9007
-22.4529 13.8683 -1.4637 0.8997
-28.7891 15.0428 -1.8016 0.8780
-29.3106 13.9996 -1.8016 0.8780
-30.2395 11.8607 -1.8016 0.8780
-31.8713 6.2706 -1.8016 0.8780
-32.2391 3.9678 -1.8016 0.8780
-32.4788 0.4790 -1.8016 0.8780
-32.4750 -0.6872 -1.8016 0.8780
-32.4294 -1.8525 -1.8016 0.8780
-32.3420 -3.0154 -1.8016 0.8780
-31.5775 -7.6132 -1.8016 0.8780
-31.2839 -8.7418 -1.8016 0.8780
-30.1628 -12.0542 -1.8016 0.8780
-29.7106 -13.1292 -1.8016 0.8780
-25.7668 -14.8838 -1.6504 0.8876
-25.1972 -15.7875 -1.6492 0.8877
-22.4235 -15.1970 -1.5024 0.8972
-22.6783 -19.2312 -1.6492 0.8877
-21.9734 -20.0329 -1.6492 0.8877
-20.6715 -21.7553 -1.6643 0.8867
-19.9947 -22.6209 -1.6745 0.8861
-19.1772 -23.3329 -1.6751 0.8860
-18.3342 -24.0156 -1.6758 0.8860
-15.4007 -23.4945 -1.5581 0.8936
-14.5474 -24.0322 -1.5581 0.8936
-14.5617 -26.1293 -1.6591 0.8871
-12.8113 -27.4535 -1.6803 0.8857
-11.8232 -27.9089 -1.6811 0.8857
-10.8189 -28.3288 -1.6819 0.8856
-9.7997 -28.7127 -1.6827 0.8856
-5.9071 -26.2686 -1.4933 0.8977
-5.6003 -29.8779 -1.6860 0.8853
-3.4456 -30.2323 -1.6877 0.8852
-0.9944 -23.8471 -1.6889 0.9087
0.7196 -23.8754 -1.6902 0.9087
2.8040 -20.2128 -1.4440 0.9214
5.0767 -20.2570 -1.4778 0.9197
8.3194 -20.2870 -1.5516 0.9158
9.9862 -20.1064 -1.5886 0.9139
11.8381 -20.0758 -1.6492 0.9108
12.5511 -19.6380 -1.6492 0.9108
7.8721 -10.5621 -0.9321 0.9485
7.9286 -9.8770 -0.8962 0.9505
8.3049 -9.6171 -0.8991 0.9503
8.9017 -9.5896 -0.9259 0.9489
9.6133 -9.6380 -0.9633 0.9469
11.0486 -9.5906 -1.0353 0.9430
9.4674 -6.0851 -0.7964 0.9559
22.7732 -11.3837 -1.8016 0.9029
23.1672 -10.5589 -1.8016 0.9029
23.8650 -8.8695 -1.8016 0.9029
24.6802 -6.2526 -1.8016 0.9029
25.4598 0.0816 -1.8016 0.9029
25.4405 0.9955 -1.8016 0.9029
25.3035 2.8181 -1.8016 0.9029
25.1860 3.7246 -1.8016 0.9029
24.8539 5.5220 -1.8016 0.9029
22.2713 12.3369 -1.8016 0.9029
21.8141 13.1284 -1.8016 0.9029
21.3288 13.9030 -1.8016 0.9029
17.7135 12.4747 -1.5331 0.9168
16.2764 13.3076 -1.4877 0.9191
16.3527 16.6063 -1.6492 0.9108
9.8880 11.6000 -1.0786 0.9407
8.6405 11.7494 -1.0320 0.9432
7.4090 11.7578 -0.9834 0.9458
6.2078 11.6250 -0.9325 0.9485
5.6830 11.6286 -0.9159 0.9494
4.6846 11.6354 -0.8876 0.9509
3.7415 11.6419 -0.8653 0.9521
3.2863 11.6450 -0.8562 0.9526
2.4012 11.6510 -0.8418 0.9534
1.5410 11.6568 -0.8320 0.9539
1.1173 11.6597 -0.8288 0.9541
0.6962 11.6626 -0.8267 0.9542
0.2768 11.6655 -0.8257 0.9543
-1.6715 13.8744 -0.9889 0.9455
-2.6942 13.8814 -1.0006 0.9449
-6.0706 22.5018 -1.6492 0.9108
-6.8744 22.2694 -1.6492 0.9108
-7.6693 22.0082 -1.6492 0.9108
-10.9141 23.0020 -1.8016 0.9029
-9.4975 18.2908 -1.4584 0.9207
-14.0938 21.2031 -1.8016 0.9029
-16.2915 19.5651 -1.8016 0.9029
-19.5232 16.3417 -1.8016 0.9029
-20.0973 15.6304 -1.8016 0.9029
-20.3897 13.6288 -1.7355 0.9063
-20.4010 12.6010 -1.6968 0.9083
-20.7518 10.8432 -1.6568 0.9104
-21.1277 10.0913 -1.6568 0.9104
-21.4763 9.3263 -1.6568 0.9104
-21.9297 8.6014 -1.6669 0.9099
-24.3079 7.5720 -1.8016 0.9029
-24.5640 6.6946 -1.8016 0.9029
-24.7885 5.8085 -1.8016 0.9029
-25.1413 4.0151 -1.8016 0.9029
-25.2693 3.1100 -1.8016 0.9029
-25.3646 2.2009 -1.8016 0.9029
-25.4572 0.3754 -1.8016 0.9029
-25.1151 -4.1762 -1.8016 0.9029
-24.7507 -5.9673 -1.8016 0.9029
-24.2588 -7.7277 -1.8016 0.9029
-23.9658 -8.5935 -1.8016 0.9029
-23.6419 -9.4482 -1.8016 0.9029
-22.4891 -11.9351 -1.8016 0.9029
-22.0462 -12.7347 -1.8016 0.9029
-21.5749 -13.5178 -1.8016 0.9029
-20.1044 -14.7054 -1.7626 0.9049
-18.6786 -14.7201 -1.6828 0.9090
-17.7755 -15.0736 -1.6492 0.9108
-16.6482 -16.3100 -1.6492 0.9108
-15.4351 -17.4625 -1.6492 0.9108
-14.1425 -18.5249 -1.6492 0.9108
-12.0690 -19.9379 -1.6492 0.9108
-10.6074 -20.7524 -1.6492 0.9108
-9.8871 -21.1870 -1.6544 0.9105
-6.8616 -22.7521 -1.6817 0.9091
-5.2265 -23.2420 -1.6857 0.9089
-4.3905 -23.4234 -1.6864 0.9089
-2.2855 -15.1852 -1.0866 0.9403
-2.7007 -23.6961 -1.6876 0.9088
-1.4846 -19.0984 -1.6492 0.9260
-0.1105 -19.1557 -1.6492 0.9260
0.5771 -19.1473 -1.6492 0.9260
3.3116 -18.8676 -1.6492 0.9260
4.6568 -18.5813 -1.6492 0.9260
6.6273 -17.9730 -1.6492 0.9260
7.2682 -17.7236 -1.6492 0.9260
7.8997 -17.4513 -1.6492 0.9260
9.1314 -16.8395 -1.6492 0.9260
10.3161 -16.1410 -1.6492 0.9260
10.8888 -15.7602 -1.6492 0.9260
7.9111 -9.8552 -1.0880 0.9505
8.2050 -7.6556 -0.9661 0.9559
8.2019 -6.6186 -0.9074 0.9586
8.4570 -6.3370 -0.9098 0.9585
19.6153 -7.2901 -1.8016 0.9194
20.8120 -2.1829 -1.8016 0.9194
20.9150 -0.6841 -1.8016 0.9194
20.9261 0.0671 -1.8016 0.9194
20.9102 0.8182 -1.8016 0.9194
20.8673 1.5683 -1.8016 0.9194
20.7010 3.0614 -1.8016 0.9194
20.4280 4.5387 -1.8016 0.9194
20.0498 5.9926 -1.8016 0.9194
19.8217 6.7085 -1.8016 0.9194
16.0477 10.4605 -1.6492 0.9260
15.6619 11.0299 -1.6492 0.9260
15.2559 11.5849 -1.6492 0.9260
13.9220 13.1579 -1.6492 0.9260
12.9421 14.1228 -1.6492 0.9260
9.3048 11.7449 -1.2900 0.9416
8.6405 11.7494 -1.2556 0.9431
8.0099 11.7537 -1.2245 0.9445
7.4090 11.7578 -1.1965 0.9457
6.7527 11.6213 -1.1572 0.9475
5.6830 11.6286 -1.1143 0.9494
4.6846 11.6354 -1.0799 0.9509
4.2071 11.6387 -1.0655 0.9515
3.7415 11.6419 -1.0528 0.9521
3.2863 11.6450 -1.0417 0.9526
2.8400 11.6480 -1.0322 0.9530
2.4012 11.6510 -1.0241 0.9534
1.5410 11.6568 -1.0123 0.9539
0.6962 11.6626 -1.0059 0.9542
0.2768 11.6655 -1.0046 0.9542
-0.5616 11.6712 -1.0060 0.9542
-1.1678 13.8710 -1.1984 0.9456
-2.6942 13.8814 -1.2174 0.9448
-5.6502 18.3037 -1.6492 0.9260
-6.3036 18.0891 -1.6492 0.9260
-7.5852 17.5903 -1.6492 0.9260
-9.4323 16.6729 -1.6492 0.9260
-10.9510 17.8320 -1.8016 0.9194
-12.2022 17.0003 -1.8016 0.9194
-13.3904 16.0811 -1.8016 0.9194
-14.5097 15.0789 -1.8016 0.9194
-17.3976 11.6288 -1.8016 0.9194
-19.1944 8.3354 -1.8016 0.9194
-19.4812 7.6410 -1.8016 0.9194
-19.7430 6.9368 -1.8016 0.9194
-20.3743 4.7742 -1.8016 0.9194
-20.5325 4.0398 -1.8016 0.9194
-20.6643 3.3001 -1.8016 0.9194
-20.8478 1.8090 -1.8016 0.9194
-20.9239 0.3086 -1.8016 0.9194
-20.9215 -0.4427 -1.8016 0.9194
-20.8358 -1.9426 -1.8016 0.9194
-20.6427 -3.4325 -1.8016 0.9194
-20.5062 -4.1713 -1.8016 0.9194
-20.3433 -4.9047 -1.8016 0.9194
-19.1406 -8.4583 -1.8016 0.9194
-18.8246 -9.1399 -1.8016 0.9194
-18.1204 -10.4669 -1.8016 0.9194
-17.7329 -11.1106 -1.8016 0.9194
-16.8901 -12.3543 -1.8016 0.9194
-16.4358 -12.9526 -1.8016 0.9194
-15.9602 -13.5343 -1.8016 0.9194
-15.4641 -14.0984 -1.8016 0.9194
-13.9727 -14.7084 -1.7466 0.9218
-13.0098 -14.7186 -1.6912 0.9242
-10.5017 -16.0208 -1.6492 0.9260
-9.3252 -16.7330 -1.6492 0.9260
-8.7185 -17.0569 -1.6492 0.9260
-8.1006 -17.3589 -1.6492 0.9260
-7.4723 -17.6385 -1.6492 0.9260
-6.8343 -17.8954 -1.6492 0.9260
-6.1875 -18.1292 -1.6492 0.9260
-5.5328 -18.3396 -1.6492 0.9260
-4.8709 -18.5264 -1.6492 0.9260
-3.5292 -18.8281 -1.6492 0.9260
1.0726 -16.2185 -1.6492 0.9367
1.6541 -16.1696 -1.6492 0.9367
2.2334 -16.0998 -1.6492 0.9367
2.8099 -16.0092 -1.6492 0.9367
3.3828 -15.8980 -1.6492 0.9367
5.0723 -15.4422 -1.6492 0.9367
5.6233 -15.2502 -1.6492 0.9367
6.7030 -14.8075 -1.6492 0.9367
8.6745 -14.7109 -1.7328 0.9336
9.3976 -14.7039 -1.7706 0.9322
8.1527 -10.9385 -1.3842 0.9466
8.2686 -9.5751 -1.2836 0.9504
8.8644 -9.5495 -1.3220 0.9490
9.5738 -9.5984 -1.3755 0.9470
7.7991 -6.7699 -1.0479 0.9593
8.8212 -6.1281 -1.0898 0.9577
10.2808 -6.0978 -1.2128 0.9531
15.8822 -7.9391 -1.8016 0.9311
16.1570 -7.3639 -1.8016 0.9311
16.4109 -6.7791 -1.8016 0.9311
16.6437 -6.1857 -1.8016 0.9311
17.0445 -4.9756 -1.8016 0.9311
17.2122 -4.3606 -1.8016 0.9311
17.4807 -3.1144 -1.8016 0.9311
17.5812 -2.4850 -1.8016 0.9311
17.3333 3.8511 -1.8016 0.9311
16.8188 5.6922 -1.8016 0.9311
14.2183 7.8760 -1.6492 0.9367
13.9264 8.3813 -1.6492 0.9367
13.6166 8.8758 -1.6492 0.9367
13.2892 9.3589 -1.6492 0.9367
12.5835 10.2882 -1.6492 0.9367
12.2061 10.7333 -1.6492 0.9367
8.6171 11.7176 -1.4758 0.9432
8.0099 11.7537 -1.4432 0.9444
7.4090 11.7578 -1.4101 0.9457
6.7527 11.6213 -1.3638 0.9474
6.2078 11.6250 -1.3372 0.9484
5.6830 11.6286 -1.3133 0.9493
5.1760 11.6321 -1.2918 0.9501
4.6846 11.6354 -1.2727 0.9508
4.2071 11.6387 -1.2557 0.9515
3.7415 11.6419 -1.2407 0.9520
3.2863 11.6450 -1.2277 0.9525
2.8400 11.6480 -1.2165 0.9529
2.4012 11.6510 -1.2070 0.9533
1.9686 11.6539 -1.1992 0.9536
1.5410 11.6568 -1.1930 0.9538
1.1173 11.6597 -1.1885 0.9540
-0.1421 11.6683 -1.1840 0.9542
-1.1678 13.8710 -1.4124 0.9456
-1.6715 13.8744 -1.4179 0.9454
-2.1798 13.8779 -1.4254 0.9451
-5.3487 15.3487 -1.6492 0.9367
-5.8962 15.1468 -1.6492 0.9367
-6.9677 14.6848 -1.6492 0.9367
-8.5060 13.8506 -1.6492 0.9367
-9.4778 13.2046 -1.6492 0.9367
-10.8647 14.0439 -1.8016 0.9311
-12.3115 12.7945 -1.8016 0.9311
-12.7629 12.3443 -1.8016 0.9311
-13.1978 11.8783 -1.8016 0.9311
-14.0160 10.9007 -1.8016 0.9311
-14.3982 10.3906 -1.8016 0.9311
-14.7619 9.8671 -1.8016 0.9311
-15.1066 9.3308 -1.8016 0.9311
-15.7371 8.2229 -1.8016 0.9311
-16.2865 7.0726 -1.8016 0.9311
-16.5299 6.4835 -1.8016 0.9311
-16.9525 5.2808 -1.8016 0.9311
-17.1311 4.6689 -1.8016 0.9311
-17.6230 2.1689 -1.8016 0.9311
-17.7332 0.8990 -1.8016 0.9311
-17.7540 0.2618 -1.8016 0.9311
-17.7270 -1.0126 -1.8016 0.9311
-17.6793 -1.6483 -1.8016 0.9311
-17.3996 -3.5393 -1.8016 0.9311
-17.1008 -4.7786 -1.8016 0.9311
-16.9183 -5.3893 -1.8016 0.9311
-16.4880 -6.5893 -1.8016 0.9311
-15.9728 -7.7552 -1.8016 0.9311
-15.6841 -8.3236 -1.8016 0.9311
-15.3752 -8.8812 -1.8016 0.9311
-14.6984 -9.9615 -1.8016 0.9311
-14.3313 -10.4827 -1.8016 0.9311
-13.5423 -11.4839 -1.8016 0.9311
-13.1213 -11.9626 -1.8016 0.9311
-12.6835 -12.4259 -1.8016 0.9311
-11.7593 -13.3039 -1.8016 0.9311
-10.7745 -14.1133 -1.8016 0.9311
-7.5246 -14.7212 -1.6775 0.9357
-6.8748 -14.7322 -1.6495 0.9367
-6.3403 -14.9663 -1.6492 0.9367
-5.2501 -15.3827 -1.6492 0.9367
-4.6946 -15.5612 -1.6492 0.9367
-4.1330 -15.7197 -1.6492 0.9367
-3.5660 -15.8579 -1.6492 0.9367
-2.9945 -15.9757 -1.6492 0.9367
-2.2825 -15.1652 -1.5561 0.9402
-0.6135 -14.7130 -1.7212 0.9424
-0.0849 -14.7133 -1.7198 0.9425
0.4435 -14.7132 -1.7205 0.9424
0.9730 -14.7126 -1.7234 0.9423
2.0407 -14.7103 -1.7359 0.9419
2.5816 -14.7085 -1.7455 0.9416
3.6850 -14.7037 -1.7718 0.9408
4.2505 -14.7006 -1.7886 0.9402
4.7944 -14.5962 -1.7957 0.9400
6.3564 -14.0419 -1.8016 0.9398
7.8292 -13.2772 -1.8016 0.9398
9.6488 -12.0200 -1.8016 0.9398
8.2595 -9.5646 -1.4771 0.9504
10.8851 -10.9131 -1.8016 0.9398
7.7825 -6.7555 -1.2045 0.9593
8.1946 -6.1403 -1.1969 0.9596
8.8488 -6.1473 -1.2594 0.9575
9.5134 -6.1147 -1.3218 0.9555
11.1993 -6.1102 -1.4912 0.9499
14.4481 -5.3697 -1.8016 0.9398
14.6315 -4.8476 -1.8016 0.9398
14.9416 -3.7854 -1.8016 0.9398
15.2620 -2.1571 -1.8016 0.9398
15.3296 -1.6079 -1.8016 0.9398
15.4054 -0.5039 -1.8016 0.9398
15.4136 0.0494 -1.8016 0.9398
15.3189 1.7061 -1.8016 0.9398
15.2478 2.2549 -1.8016 0.9398
15.1571 2.8008 -1.8016 0.9398
15.0467 3.3431 -1.8016 0.9398
14.5900 4.9379 -1.8003 0.9399
13.1941 5.0001 -1.6492 0.9448
13.0061 5.4706 -1.6492 0.9448
12.8014 5.9339 -1.6492 0.9448
11.8203 7.7050 -1.6492 0.9448
11.5361 8.1243 -1.6492 0.9448
11.2371 8.5332 -1.6492 0.9448
9.9001 10.0536 -1.6492 0.9448
9.5328 10.4025 -1.6492 0.9448
7.9143 11.6134 -1.6426 0.9450
4.6846 11.6354 -1.4661 0.9507
2.8400 11.6480 -1.4013 0.9529
2.4012 11.6510 -1.3904 0.9532
1.5410 11.6568 -1.3743 0.9538
-0.1421 11.6683 -1.3639 0.9541
-0.5616 11.6712 -1.3657 0.9540
-1.1216 13.3230 -1.5627 0.9476
-2.0746 13.2082 -1.5627 0.9476
-3.0169 13.0253 -1.5627 0.9476
-3.6752 13.6227 -1.6492 0.9448
-4.1618 13.4820 -1.6492 0.9448
-4.6431 13.3240 -1.6492 0.9448
-6.5022 12.5223 -1.6492 0.9448
-6.9475 12.2808 -1.6492 0.9448
-7.3839 12.0235 -1.6492 0.9448
-7.8107 11.7507 -1.6492 0.9448
-8.6337 11.1600 -1.6492 0.9448
-9.0287 10.8429 -1.6492 0.9448
-11.8195 9.8934 -1.8016 0.9398
-12.1670 9.4628 -1.8016 0.9398
-12.4989 9.0199 -1.8016 0.9398
-13.1138 8.0999 -1.8016 0.9398
-13.3961 7.6239 -1.8016 0.9398
-13.6611 7.1382 -1.8016 0.9398
-14.1381 6.1396 -1.8016 0.9398
-14.3493 5.6282 -1.8016 0.9398
-14.5421 5.1095 -1.8016 0.9398
-14.7162 4.5842 -1.8016 0.9398
-14.8712 4.0530 -1.8016 0.9398
-15.0071 3.5165 -1.8016 0.9398
-15.1237 2.9756 -1.8016 0.9398
-15.3939 0.7804 -1.8016 0.9398
-15.4120 0.2273 -1.8016 0.9398
-15.4102 -0.3261 -1.8016 0.9398
-15.1043 -3.0724 -1.8016 0.9398
-14.5091 -5.2026 -1.8016 0.9398
-14.3130 -5.7200 -1.8016 0.9398
-13.3470 -7.7097 -1.8016 0.9398
-12.4408 -9.0998 -1.8016 0.9398
-12.1061 -9.5405 -1.8016 0.9398
-11.3904 -10.3845 -1.8016 0.9398
-11.0103 -10.7867 -1.8016 0.9398
-9.7869 -11.9079 -1.8016 0.9398
-9.3531 -12.2515 -1.8016 0.9398
-8.4500 -12.8909 -1.8016 0.9398
-7.9819 -13.1860 -1.8016 0.9398
-7.5034 -13.4640 -1.8016 0.9398
-7.0152 -13.7247 -1.8016 0.9398
-6.0125 -14.1926 -1.8016 0.9398
-4.4332 -14.6950 -1.7941 0.9401
-3.8656 -14.7027 -1.7769 0.9406
-1.6767 -14.7113 -1.7306 0.9421
-0.5671 -13.5998 -1.8016 0.9466
0.8982 -13.5820 -1.8016 0.9466
1.3852 -13.5410 -1.8016 0.9466
1.8704 -13.4825 -1.8016 0.9466
2.3531 -13.4067 -1.8016 0.9466
5.1646 -12.5938 -1.8016 0.9466
5.6133 -12.4003 -1.8016 0.9466
6.9139 -11.7250 -1.8016 0.9466
7.7373 -11.1987 -1.8016 0.9466
8.5208 -10.6148 -1.8016 0.9466
9.2604 -9.9760 -1.8016 0.9466
7.7772 -6.7509 -1.3631 0.9593
7.8950 -6.3709 -1.3428 0.9599
8.1702 -6.1221 -1.3513 0.9596
8.7954 -6.1102 -1.4175 0.9577
11.1993 -6.1102 -1.6886 0.9498
12.5805 -5.1968 -1.8016 0.9466
12.9210 -4.2809 -1.8016 0.9466
13.1948 -3.3428 -1.8016 0.9466
13.3063 -2.8670 -1.8016 0.9466
13.4006 -2.3875 -1.8016 0.9466
13.4777 -1.9049 -1.8016 0.9466
13.5796 -0.9331 -1.8016 0.9466
13.6116 0.0436 -1.8016 0.9466
13.1731 3.4273 -1.8016 0.9466
13.0416 3.8980 -1.8016 0.9466
12.8650 4.3540 -1.7976 0.9467
11.6516 4.4156 -1.6492 0.9510
11.4856 4.8310 -1.6492 0.9510
11.3048 5.2401 -1.6492 0.9510
11.1094 5.6426 -1.6492 0.9510
10.8997 6.0377 -1.6492 0.9510
10.1874 7.1745 -1.6492 0.9510
9.9233 7.5355 -1.6492 0.9510
9.0557 8.5587 -1.6492 0.9510
8.7426 8.8782 -1.6492 0.9510
8.4183 9.1863 -1.6492 0.9510
7.7375 9.7666 -1.6492 0.9510
7.3820 10.0381 -1.6492 0.9510
5.8693 10.9913 -1.6492 0.9510
5.4710 11.1949 -1.6492 0.9510
5.0656 11.3840 -1.6492 0.9510
4.6537 11.5585 -1.6492 0.9510
4.2071 11.6387 -1.6380 0.9513
3.7415 11.6419 -1.6185 0.9519
3.2863 11.6450 -1.6015 0.9524
2.8400 11.6480 -1.5869 0.9528
2.4012 11.6510 -1.5745 0.9531
1.9686 11.6539 -1.5643 0.9534
0.6962 11.6626 -1.5464 0.9540
-0.1421 11.6683 -1.5445 0.9540
-0.5616 11.6712 -1.5466 0.9539
-0.9905 11.7654 -1.5627 0.9535
-1.8345 11.6799 -1.5649 0.9534
-2.7066 11.6858 -1.5876 0.9528
-3.6752 11.9058 -1.6492 0.9510
-4.1002 11.7663 -1.6492 0.9510
-4.9339 11.4417 -1.6492 0.9510
-5.7420 11.0583 -1.6492 0.9510
-6.8976 10.3769 -1.6492 0.9510
-7.6243 9.8553 -1.6492 0.9510
-7.9731 9.5752 -1.6492 0.9510
-8.6396 8.9785 -1.6492 0.9510
-8.9563 8.6626 -1.6492 0.9510
-10.7446 8.3565 -1.8016 0.9466
-11.0376 7.9654 -1.8016 0.9466
-11.3164 7.5640 -1.8016 0.9466
-11.5807 7.1530 -1.8016 0.9466
-12.2825 5.8665 -1.8016 0.9466
-12.6718 4.9702 -1.8016 0.9466
-12.8420 4.5121 -1.8016 0.9466
-12.9957 4.0482 -1.8016 0.9466
-13.1326 3.5791 -1.8016 0.9466
-13.5607 1.1767 -1.8016 0.9466
-13.5942 0.6891 -1.8016 0.9466
-13.6101 0.2007 -1.8016 0.9466
-13.5895 -0.7763 -1.8016 0.9466
-13.5528 -1.2636 -1.8016 0.9466
-13.4987 -1.7493 -1.8016 0.9466
-13.4273 -2.2327 -1.8016 0.9466
-13.2325 -3.1903 -1.8016 0.9466
-12.8128 -4.5943 -1.8016 0.9466
-12.4502 -5.5018 -1.8016 0.9466
-11.7866 -6.8083 -1.8016 0.9466
-11.2677 -7.6364 -1.8016 0.9466
-10.9863 -8.0360 -1.8016 0.9466
-10.6908 -8.4251 -1.8016 0.9466
-10.3815 -8.8035 -1.8016 0.9466
-10.0588 -9.1705 -1.8016 0.9466
-9.0146 -10.1987 -1.8016 0.9466
-7.8660 -11.1087 -1.8016 0.9466
-7.0487 -11.6444 -1.8016 0.9466
-6.6262 -11.8899 -1.8016 0.9466
-6.1951 -12.1201 -1.8016 0.9466
-4.8562 -12.7159 -1.8016 0.9466
-4.3967 -12.8820 -1.8016 0.9466
-3.9314 -13.0315 -1.8016 0.9466
-3.4611 -13.1642 -1.8016 0.9466
-2.5077 -13.3786 -1.8016 0.9466
-2.0258 -13.4600 -1.8016 0.9466
-1.5414 -13.5241 -1.8016 0.9466
-0.5075 -12.1711 -1.8016 0.9519
-0.0703 -12.1815 -1.8016 0.9519
0.3670 -12.1762 -1.8016 0.9519
1.2397 -12.1185 -1.8016 0.9519
1.6739 -12.0662 -1.8016 0.9519
2.9613 -11.8163 -1.8016 0.9519
3.8015 -11.5734 -1.8016 0.9519
4.6220 -11.2708 -1.8016 0.9519
5.0236 -11.0976 -1.8016 0.9519
6.1875 -10.4933 -1.8016 0.9519
6.5602 -10.2644 -1.8016 0.9519
6.9244 -10.0223 -1.8016 0.9519
7.2797 -9.7673 -1.8016 0.9519
7.6257 -9.4996 -1.8016 0.9519
8.2876 -8.9281 -1.8016 0.9519
7.7911 -6.7630 -1.5258 0.9591
8.2074 -6.1500 -1.5168 0.9594
10.2475 -6.5865 -1.8016 0.9519
10.8962 -5.4467 -1.8016 0.9519
11.0847 -5.0521 -1.8016 0.9519
11.4186 -4.2438 -1.8016 0.9519
11.5636 -3.8312 -1.8016 0.9519
11.6937 -3.4136 -1.8016 0.9519
11.8087 -2.9916 -1.8016 0.9519
11.9084 -2.5658 -1.8016 0.9519
12.0618 -1.7048 -1.8016 0.9519
12.1153 -1.2708 -1.8016 0.9519
12.1531 -0.8350 -1.8016 0.9519
12.1752 -0.3983 -1.8016 0.9519
12.1817 0.0390 -1.8016 0.9519
12.1724 0.4763 -1.8016 0.9519
12.1069 1.3484 -1.8016 0.9519
12.0507 1.7821 -1.8016 0.9519
11.9789 2.2135 -1.8016 0.9519
11.8917 2.6421 -1.8016 0.9519
11.7892 3.0673 -1.8016 0.9519
11.6715 3.4885 -1.8016 0.9519
11.5306 3.9024 -1.8003 0.9520
11.1807 4.2371 -1.7683 0.9528
10.2790 4.3235 -1.6492 0.9559
9.9423 5.0498 -1.6492 0.9559
9.7546 5.4034 -1.6492 0.9559
9.5544 5.7501 -1.6492 0.9559
8.8809 6.7439 -1.6492 0.9559
8.6331 7.0584 -1.6492 0.9559
8.3741 7.3637 -1.6492 0.9559
8.1044 7.6596 -1.6492 0.9559
6.9247 8.7406 -1.6492 0.9559
6.2798 9.2149 -1.6492 0.9559
5.9449 9.4344 -1.6492 0.9559
5.6024 9.6417 -1.6492 0.9559
5.2527 9.8366 -1.6492 0.9559
3.7908 10.4871 -1.6492 0.9559
3.0286 10.7321 -1.6492 0.9559
2.6414 10.8339 -1.6492 0.9559
2.2508 10.9217 -1.6492 0.9559
1.4615 11.0550 -1.6492 0.9559
1.0637 11.1004 -1.6492 0.9559
0.6645 11.1314 -1.6492 0.9559
-0.5360 11.1383 -1.6492 0.9559
-0.9355 11.1119 -1.6492 0.9559
-1.7303 11.0162 -1.6492 0.9559
-2.1246 10.9470 -1.6492 0.9559
-2.5162 10.8636 -1.6492 0.9559
-3.6695 10.5302 -1.6492 0.9559
-4.4155 10.2398 -1.6492 0.9559
-4.7803 10.0747 -1.6492 0.9559
-5.1388 9.8966 -1.6492 0.9559
-5.4908 9.7057 -1.6492 0.9559
-5.8356 9.5024 -1.6492 0.9559
-6.5024 9.0592 -1.6492 0.9559
-7.1356 8.5694 -1.6492 0.9559
-7.7320 8.0353 -1.6492 0.9559
-8.0154 7.7526 -1.6492 0.9559
-9.3412 7.8190 -1.8016 0.9519
-9.6158 7.4786 -1.8016 0.9519
-10.1276 6.7694 -1.8016 0.9519
-10.5872 6.0254 -1.8016 0.9519
-10.7967 5.6414 -1.8016 0.9519
-11.6305 3.6230 -1.8016 0.9519
-11.7530 3.2031 -1.8016 0.9519
-11.8604 2.7792 -1.8016 0.9519
-12.0905 1.4880 -1.8016 0.9519
-12.1361 1.0531 -1.8016 0.9519
-12.1661 0.6167 -1.8016 0.9519
-12.1804 0.1796 -1.8016 0.9519
-12.1790 -0.2577 -1.8016 0.9519
-12.1619 -0.6947 -1.8016 0.9519
-12.1291 -1.1308 -1.8016 0.9519
-12.0807 -1.5655 -1.8016 0.9519
-11.9372 -2.4282 -1.8016 0.9519
-11.8424 -2.8551 -1.8016 0.9519
-11.7323 -3.2784 -1.8016 0.9519
-11.4668 -4.1117 -1.8016 0.9519
-11.1423 -4.9238 -1.8016 0.9519
-9.0021 -8.2071 -1.8016 0.9519
-8.3901 -8.8318 -1.8016 0.9519
-8.0676 -9.1273 -1.8016 0.9519
-7.3920 -9.6826 -1.8016 0.9519
-7.0396 -9.9417 -1.8016 0.9519
-6.6782 -10.1880 -1.8016 0.9519
-6.3082 -10.4211 -1.8016 0.9519
-5.9301 -10.6409 -1.8016 0.9519
-5.1513 -11.0389 -1.8016 0.9519
-4.7518 -11.2167 -1.8016 0.9519
-3.9348 -11.5287 -1.8016 0.9519
-3.5184 -11.6625 -1.8016 0.9519
-2.6726 -11.8849 -1.8016 0.9519
-2.2443 -11.9732 -1.8016 0.9519
-1.3794 -12.1033 -1.8016 0.9519
-0.8540 -10.9858 -1.8016 0.9563
-0.4591 -11.0094 -1.8016 0.9563
0.3320 -11.0139 -1.8016 0.9563
0.7271 -10.9949 -1.8016 0.9563
1.1213 -10.9617 -1.8016 0.9563
3.0606 -10.5853 -1.8016 0.9563
3.4386 -10.4687 -1.8016 0.9563
4.1808 -10.1950 -1.8016 0.9563
4.5441 -10.0383 -1.8016 0.9563
5.2526 -9.6864 -1.8016 0.9563
5.9340 -9.2846 -1.8016 0.9563
7.4965 -8.0758 -1.8016 0.9563
8.0566 -7.5172 -1.8016 0.9563
8.3212 -7.2232 -1.8016 0.9563
8.2925 -6.2137 -1.6942 0.9589
9.0495 -6.2867 -1.8016 0.9563
10.0266 -4.5698 -1.8016 0.9563
10.4598 -3.4655 -1.8016 0.9563
10.5775 -3.0878 -1.8016 0.9563
10.7717 -2.3209 -1.8016 0.9563
10.9105 -1.5421 -1.8016 0.9563
10.9588 -1.1495 -1.8016 0.9563
11.0130 -0.3602 -1.8016 0.9563
11.0105 0.4308 -1.8016 0.9563
10.9879 0.8258 -1.8016 0.9563
10.9004 1.6120 -1.8016 0.9563
10.8355 2.0022 -1.8016 0.9563
10.7566 2.3899 -1.8016 0.9563
9.1515 4.2420 -1.6492 0.9599
8.9933 4.5678 -1.6492 0.9599
7.5748 6.6608 -1.6492 0.9599
7.3308 6.9284 -1.6492 0.9599
7.0774 7.1871 -1.6492 0.9599
5.9759 8.1261 -1.6492 0.9599
5.6804 8.3353 -1.6492 0.9599
5.3775 8.5339 -1.6492 0.9599
4.7513 8.8977 -1.6492 0.9599
3.7673 9.3569 -1.6492 0.9599
3.0863 9.6031 -1.6492 0.9599
2.3893 9.7998 -1.6492 0.9599
0.2393 10.0840 -1.6492 0.9599
-0.1229 10.0861 -1.6492 0.9599
-0.8462 10.0513 -1.6492 0.9599
-1.2064 10.0144 -1.6492 0.9599
-1.5651 9.9647 -1.6492 0.9599
-2.6273 9.7386 -1.6492 0.9599
-2.9752 9.6381 -1.6492 0.9599
-3.3192 9.5250 -1.6492 0.9599
-3.6590 9.3998 -1.6492 0.9599
-4.6483 8.9519 -1.6492 0.9599
-4.9667 8.7793 -1.6492 0.9599
-5.5837 8.4003 -1.6492 0.9599
-5.8817 8.1945 -1.6492 0.9599
-6.1720 7.9781 -1.6492 0.9599
-6.9939 7.2683 -1.6492 0.9599
-7.2503 7.0126 -1.6492 0.9599
-9.7661 5.1029 -1.8016 0.9563
-10.1070 4.3891 -1.8016 0.9563
-10.3959 3.6527 -1.8016 0.9563
-10.5203 3.2771 -1.8016 0.9563
-10.6312 2.8974 -1.8016 0.9563
-10.7283 2.5139 -1.8016 0.9563
-10.8117 2.1272 -1.8016 0.9563
-10.8810 1.7377 -1.8016 0.9563
-10.9777 0.9525 -1.8016 0.9563
-11.0048 0.5579 -1.8016 0.9563
-11.0165 -0.2331 -1.8016 0.9563
-11.0010 -0.6284 -1.8016 0.9563
-10.7978 -2.1964 -1.8016 0.9563
-10.7120 -2.5826 -1.8016 0.9563
-10.6124 -2.9655 -1.8016 0.9563
-10.4991 -3.3445 -1.8016 0.9563
-10.2321 -4.0891 -1.8016 0.9563
-9.9123 -4.8127 -1.8016 0.9563
-9.3375 -5.8504 -1.8016 0.9563
-8.4040 -7.1266 -1.8016 0.9563
-8.1428 -7.4237 -1.8016 0.9563
-7.5892 -7.9888 -1.8016 0.9563
-5.7061 -9.4264 -1.8016 0.9563
-5.0151 -9.8115 -1.8016 0.9563
-4.6596 -9.9852 -1.8016 0.9563
-4.2982 -10.1460 -1.8016 0.9563
-2.8018 -10.6567 -1.8016 0.9563
-0.7792 -10.0241 -1.8016 0.9600
-0.4189 -10.0457 -1.8016 0.9600
0.3029 -10.0498 -1.8016 0.9600
0.6635 -10.0325 -1.8016 0.9600
1.3816 -9.9590 -1.8016 0.9600
1.7382 -9.9030 -1.8016 0.9600
2.7927 -9.6588 -1.8016 0.9600
3.1376 -9.5523 -1.8016 0.9600
3.8149 -9.3026 -1.8016 0.9600
4.4725 -9.0049 -1.8016 0.9600
4.7928 -8.8386 -1.8016 0.9600
5.1070 -8.6608 -1.8016 0.9600
5.4146 -8.4719 -1.8016 0.9600
5.7152 -8.2721 -1.8016 0.9600
6.0085 -8.0616 -1.8016 0.9600
6.2940 -7.8407 -1.8016 0.9600
6.5714 -7.6097 -1.8016 0.9600
7.1004 -7.1187 -1.8016 0.9600
7.8246 -6.3141 -1.8016 0.9600
8.0462 -6.0291 -1.8016 0.9600
8.2574 -5.7364 -1.8016 0.9600
8.4580 -5.4363 -1.8016 0.9600
8.6477 -5.1292 -1.8016 0.9600
8.8262 -4.8155 -1.8016 0.9600
8.9934 -4.4955 -1.8016 0.9600
9.4246 -3.5027 -1.8016 0.9600
9.8288 -2.1178 -1.8016 0.9600
