ply
format ascii 1.0
element vertex 1542
property float32 x
property float32 y
property float32 z
property float32 I
end_header
-76.3256 26.8174 12.8822 0.7206
-77.4135 24.1147 12.9113 0.7201
-79.2814 21.6071 13.0849 0.7169
-81.2443 19.0374 13.2875 0.7132
-83.4153 16.4118 13.5374 0.7087
-84.8777 13.5550 13.6869 0.7060
-40.4714 -31.8945 8.2052 0.8116
-37.3930 -34.0908 8.0575 0.8147
-30.3088 -31.9046 7.0074 0.8367
-27.2981 -33.2139 6.8460 0.8402
-27.8910 -36.5338 7.3190 0.8301
-27.8944 -39.3937 7.6863 0.8224
-20.7043 -31.5854 6.0138 0.8582
-19.1286 -31.6002 5.8820 0.8610
-19.1213 -34.3110 6.2547 0.8529
-19.1423 -37.4500 6.6973 0.8434
-19.2650 -41.2831 7.2543 0.8315
-18.1559 -42.8575 7.4116 0.8282
-16.5388 -43.3061 7.3817 0.8288
-13.0908 -43.3924 7.2172 0.8323
-8.1821 -43.6516 7.0720 0.8354
-6.4733 -43.0099 6.9259 0.8385
-1.8220 -43.6945 6.2822 0.8380
9.3162 -43.7833 6.4303 0.8345
16.1615 -43.8295 6.7105 0.8280
19.2146 -42.4469 6.6931 0.8284
20.8617 -42.0033 6.7370 0.8274
46.1612 -85.1271 13.9107 0.6762
48.2394 -81.8077 13.6426 0.6813
48.2558 -75.5030 12.8720 0.6962
46.6384 -67.5035 11.7862 0.7178
48.2462 -55.8697 10.6040 0.7421
46.4760 -43.3645 9.1311 0.7735
46.4728 -37.5016 8.5783 0.7856
52.0702 -36.1733 9.1077 0.7740
61.7479 -36.6246 10.3130 0.7482
30.8193 10.4305 4.6739 0.8768
26.5489 13.4844 4.2775 0.8866
26.5565 14.7106 4.3610 0.8845
26.5329 15.9683 4.4485 0.8824
26.5617 20.1703 4.7910 0.8739
26.0609 21.3073 4.8356 0.8728
25.5723 22.4867 4.8917 0.8714
26.7749 27.1900 5.4817 0.8571
26.6532 33.6427 6.1656 0.8408
26.3907 35.8862 6.3989 0.8353
25.4614 37.3621 6.4948 0.8330
26.8014 42.5329 7.2217 0.8162
26.5951 45.7698 7.6042 0.8074
27.6714 56.6221 9.0531 0.7752
29.0699 65.3296 10.2717 0.7490
-1.4802 30.7587 4.4236 0.8830
-1.8200 11.5872 1.6849 0.9537
-2.2495 11.5901 1.6960 0.9534
-2.6852 11.5931 1.7094 0.9530
-3.1284 11.5960 1.7253 0.9526
-3.5806 11.5991 1.7438 0.9521
-4.5176 11.6054 1.7890 0.9509
-5.0058 11.6087 1.8160 0.9502
-5.5098 11.6121 1.8463 0.9494
-6.0314 11.6156 1.8801 0.9485
-7.7286 11.6271 2.0055 0.9451
-8.3463 11.6283 2.0561 0.9438
-8.9206 11.5309 2.0942 0.9428
-9.5252 11.4392 2.1383 0.9416
-11.0170 11.4492 2.2824 0.9378
-16.1906 11.6841 2.8682 0.9225
-58.6418 39.1969 10.1324 0.7520
-36.9665 22.8328 6.2415 0.8390
-62.9440 35.8225 10.4036 0.7463
-74.3832 35.5278 11.8414 0.7167
-80.5940 31.6110 12.4360 0.7048
-82.1620 28.8681 12.5099 0.7033
-90.9504 28.3315 13.6842 0.6805
-92.6233 21.7038 13.6657 0.6808
-82.8959 10.2024 11.9978 0.7135
-78.1795 -41.4902 12.7140 0.6993
-71.5221 -41.3136 11.8650 0.7162
-48.2151 -30.2094 8.1733 0.7946
-47.3664 -32.1014 8.2196 0.7936
-45.8107 -33.5082 8.1532 0.7950
-37.3934 -34.0911 7.2688 0.8151
-38.3068 -37.5288 7.7035 0.8052
-30.3088 -31.9046 6.3214 0.8371
-28.2544 -31.9655 6.1285 0.8416
-19.1668 -41.0728 6.5109 0.8326
-16.6489 -43.5944 6.7035 0.8281
-14.7079 -43.0933 6.5410 0.8319
-13.1589 -43.6180 6.5446 0.8318
-9.4528 -42.0362 6.1893 0.8402
-8.1821 -43.6516 6.3797 0.8357
-6.5036 -43.2110 6.2772 0.8381
-4.7562 -41.7313 6.0335 0.8439
-3.2414 -41.6978 5.3589 0.8448
-0.2570 -44.5271 5.7054 0.8356
1.2603 -41.8141 5.3601 0.8448
2.7619 -41.7628 5.3628 0.8447
5.8385 -42.0873 5.4443 0.8425
7.3782 -42.0366 5.4685 0.8419
10.9755 -43.7944 5.7850 0.8335
12.2803 -42.4723 5.6649 0.8367
13.7582 -41.8862 5.6490 0.8371
16.1615 -43.8294 5.9855 0.8283
17.9789 -43.8417 6.0715 0.8261
19.2115 -42.4400 5.9691 0.8287
48.1958 -75.4091 11.4671 0.6970
48.3333 -64.8491 10.3632 0.7217
48.5652 -48.6900 8.8116 0.7578
46.3359 -43.2337 8.1201 0.7745
46.2930 -40.1841 7.8545 0.7810
48.2403 -36.1475 7.7238 0.7842
52.0702 -36.1733 8.1238 0.7744
61.7474 -36.6243 9.1988 0.7486
84.6326 -42.3055 12.1235 0.6828
34.8075 10.4036 4.6549 0.8637
28.1907 10.6833 3.8628 0.8855
26.5501 11.1673 3.6906 0.8903
26.5660 13.4931 3.8178 0.8868
26.5744 14.7205 3.8925 0.8847
26.5327 15.9682 3.9679 0.8826
26.5419 17.3011 4.0595 0.8801
26.0608 21.3072 4.3132 0.8731
26.6348 33.6194 5.4957 0.8412
26.7702 42.4834 6.4340 0.8167
25.4506 47.6605 6.9229 0.8042
28.0302 62.9930 8.8344 0.7573
27.2524 75.3926 10.2719 0.7238
2.1233 89.4874 11.4694 0.6970
-1.0182 83.5877 10.7110 0.7138
-1.4802 30.7587 3.9457 0.8832
-1.5834 13.1432 1.6962 0.9480
-1.8200 11.5872 1.5029 0.9538
-2.2495 11.5901 1.5128 0.9535
-2.6852 11.5931 1.5248 0.9531
-3.1284 11.5961 1.5389 0.9527
-4.5176 11.6054 1.5957 0.9510
-5.5098 11.6121 1.6469 0.9495
-6.5733 11.6193 1.7105 0.9476
-7.7286 11.6271 1.7889 0.9453
-9.0016 11.6357 1.8850 0.9424
-9.6927 11.6403 1.9409 0.9407
-13.6999 11.4673 2.2892 0.9305
-58.2723 38.9499 8.9808 0.7538
-62.2829 35.4462 9.1823 0.7490
-81.9292 35.5788 11.4448 0.6975
-88.2728 34.6229 12.1494 0.6822
-76.3269 26.8179 10.3660 0.7216
-76.0613 23.6934 10.2077 0.7252
-76.5087 20.8514 10.1607 0.7263
-79.4554 15.6327 10.3759 0.7214
-84.7486 -41.1478 12.0712 0.6839
-79.8722 -42.3885 11.5860 0.6944
-47.3669 -32.1018 7.3317 0.7939
-45.7766 -33.4834 7.2670 0.7956
-40.3914 -31.8315 6.5894 0.8127
-37.5656 -31.8556 6.3110 0.8199
-38.3072 -37.5292 6.8713 0.8055
-27.9915 -36.6655 5.9106 0.8303
-28.0109 -39.5582 6.2107 0.8224
-20.6671 -31.5286 4.8304 0.8590
-20.2284 -39.5749 5.6948 0.8359
-16.6489 -43.5944 5.9793 0.8285
-13.1646 -43.6368 5.8401 0.8321
-11.6866 -44.4499 5.8890 0.8308
-8.1821 -43.6515 5.6905 0.8360
-6.6951 -44.4836 5.7639 0.8341
-3.2433 -41.7222 4.7152 0.8450
-1.8563 -44.5162 5.0201 0.8358
-0.2570 -44.5270 5.0171 0.8359
1.2602 -41.8073 4.7127 0.8450
2.7629 -41.7789 4.7176 0.8449
7.3791 -42.0419 4.8094 0.8421
9.4913 -44.6064 5.1385 0.8323
11.1818 -44.6178 5.1827 0.8310
12.2775 -42.4627 4.9804 0.8370
13.7580 -41.8856 4.9674 0.8374
47.7711 -59.5108 8.5984 0.7355
47.8155 -51.5109 7.9190 0.7536
48.5652 -48.6900 7.7485 0.7582
46.4750 -43.3636 7.1619 0.7742
48.2403 -36.1474 6.7920 0.7845
52.0701 -36.1732 7.1437 0.7748
66.4089 -36.2319 8.5237 0.7375
84.1655 -42.0720 10.6020 0.6847
34.7138 10.3756 4.0823 0.8643
27.4514 10.4032 3.3077 0.8885
26.5076 12.2872 3.2919 0.8890
26.5155 13.4675 3.3508 0.8872
26.5509 18.6985 3.6590 0.8775
26.5612 20.1699 3.7578 0.8744
25.9178 21.1903 3.7720 0.8739
26.6052 25.1449 4.1247 0.8630
26.6363 31.2478 4.6263 0.8477
26.6344 33.6190 4.8326 0.8414
26.5194 36.0613 5.0435 0.8351
26.7698 42.4827 5.6577 0.8170
26.5950 45.7696 5.9644 0.8081
25.4593 47.6768 6.0898 0.8045
26.7456 54.7277 6.8633 0.7826
27.0079 67.0805 8.1477 0.7475
26.0966 81.2016 9.6101 0.7094
2.0810 87.7036 9.8846 0.7025
-1.0182 83.5877 9.4188 0.7143
-1.5324 18.2025 2.0582 0.9291
-1.5835 13.1440 1.4917 0.9481
-2.2495 11.5901 1.3303 0.9536
-2.6852 11.5931 1.3408 0.9532
-3.1284 11.5961 1.3533 0.9528
-3.5805 11.5991 1.3678 0.9523
-4.5176 11.6054 1.4032 0.9511
-5.0058 11.6087 1.4244 0.9504
-5.5098 11.6121 1.4482 0.9496
-6.0315 11.6156 1.4747 0.9487
-7.1380 11.6231 1.5368 0.9466
-10.4270 11.6453 1.7612 0.9390
-11.2108 11.6506 1.8217 0.9370
-12.0514 11.6562 1.8891 0.9347
-15.9103 11.4818 2.2107 0.9241
-58.2728 38.9502 7.8974 0.7542
-77.7791 30.5069 9.4136 0.7144
-82.1518 22.3894 9.5939 0.7098
-95.3095 18.7520 10.9447 0.6764
-81.3222 -43.1580 10.3732 0.6903
-74.7914 -43.2021 9.7318 0.7063
-48.1400 -30.1623 6.4008 0.7956
-40.3789 -31.8216 5.7924 0.8131
-39.7037 -38.8973 6.2626 0.7995
-28.2313 -31.9395 4.8030 0.8423
-27.3424 -33.2678 4.8519 0.8409
-28.0466 -39.6085 5.4684 0.8225
-20.7043 -31.5853 4.2552 0.8590
-19.1223 -34.3127 4.4259 0.8537
-19.1117 -40.9546 5.0922 0.8337
-16.2113 -42.4486 5.1197 0.8328
-14.7079 -43.0933 5.1305 0.8325
-13.4064 -44.4383 5.2299 0.8296
-4.7536 -41.7082 4.7298 0.8445
-3.2491 -41.7975 4.0778 0.8449
-1.8563 -44.5162 4.3338 0.8361
-0.2570 -44.5270 4.3311 0.8361
1.2574 -41.7166 4.0595 0.8456
2.7636 -41.7887 4.0736 0.8451
4.5582 -44.5595 4.3568 0.8353
7.3915 -42.1127 4.1588 0.8421
9.4913 -44.6064 4.4359 0.8325
11.1819 -44.6178 4.4741 0.8312
12.2747 -42.4531 4.2985 0.8373
13.7741 -41.9347 4.2933 0.8375
16.4653 -44.6534 4.6292 0.8259
18.3169 -44.6659 4.6957 0.8236
19.2054 -42.4265 4.5298 0.8293
48.2186 -81.7725 9.2337 0.6828
48.3937 -64.9301 7.8768 0.7222
46.2391 -43.1434 6.1513 0.7756
46.3550 -40.2379 5.9706 0.7814
51.8935 -36.0505 6.1460 0.7757
58.3447 -37.5008 6.7462 0.7567
44.1305 -14.6210 4.5219 0.8296
30.8196 10.4306 3.1648 0.8774
26.5499 11.1672 2.8016 0.8907
26.5740 14.7203 2.9549 0.8851
26.5324 15.9680 3.0121 0.8830
26.5415 17.3008 3.0817 0.8804
25.3318 22.2753 3.2811 0.8732
26.6656 25.2020 3.5688 0.8629
26.6714 29.1045 3.8398 0.8533
26.6360 31.2475 3.9938 0.8479
26.6341 33.6185 4.1718 0.8417
25.6241 37.6008 4.4259 0.8329
26.7515 42.4537 4.8808 0.8174
26.5858 45.7538 5.1471 0.8084
25.4877 47.7300 5.2630 0.8046
26.7183 54.6718 5.9189 0.7831
26.2113 65.1020 6.8263 0.7542
27.2304 75.3319 7.7914 0.7248
26.9659 95.5548 9.6574 0.6710
-1.0182 83.5878 8.1310 0.7147
-1.8222 11.6015 1.1423 0.9539
-2.5695 13.2389 1.3117 0.9472
-3.5139 13.0250 1.3122 0.9472
-3.6219 11.7330 1.1944 0.9518
-4.5602 11.7147 1.2228 0.9507
-5.5617 11.7215 1.2620 0.9492
-6.0883 11.7251 1.2851 0.9483
-6.5733 11.6193 1.2985 0.9478
-7.1380 11.6231 1.3267 0.9467
-8.3485 11.6313 1.3926 0.9441
-9.0016 11.6357 1.4309 0.9426
-9.6927 11.6403 1.4734 0.9409
-10.4270 11.6453 1.5204 0.9391
-12.0515 11.6562 1.6308 0.9348
-15.0131 11.6762 1.8499 0.9264
-58.8987 39.3686 6.8909 0.7522
-58.4083 36.0766 6.6776 0.7589
-81.9294 35.5789 8.6881 0.6984
-85.1003 29.9005 8.7736 0.6959
-90.9522 28.3320 9.2660 0.6819
-52.4852 6.4596 5.1438 0.8085
-35.4753 -8.5529 3.5495 0.8636
-88.7849 -43.1076 9.6000 0.6726
-81.3221 -43.1579 8.9549 0.6907
-67.8663 -42.5219 7.7899 0.7248
-47.3678 -32.1024 5.5658 0.7946
-37.5655 -31.8555 4.7908 0.8204
-37.3946 -34.0922 4.9220 0.8160
-27.3873 -33.3225 4.1954 0.8408
-19.1291 -31.6011 3.5930 0.8620
-19.1226 -34.3132 3.8209 0.8540
-19.1679 -41.0751 4.4089 0.8335
-16.1966 -42.4102 4.4157 0.8332
-13.4064 -44.4383 4.5148 0.8298
-8.1821 -43.6515 4.3198 0.8365
-6.5499 -43.5190 4.2807 0.8379
-4.7510 -41.6857 4.0809 0.8448
-1.8563 -44.5162 3.6494 0.8363
-0.2570 -44.5270 3.6472 0.8364
4.5582 -44.5595 3.6688 0.8355
5.8384 -42.0861 3.4802 0.8432
7.4056 -42.1925 3.5087 0.8420
9.4913 -44.6063 3.7354 0.8327
11.1818 -44.6178 3.7676 0.8314
16.4653 -44.6534 3.8982 0.8261
18.3169 -44.6659 3.9542 0.8239
19.2023 -42.4198 3.8139 0.8295
20.8325 -41.9444 3.8360 0.8286
46.0543 -84.9298 7.9134 0.6786
48.1949 -75.4077 7.3302 0.6983
46.6383 -67.5032 6.7204 0.7194
48.4357 -64.9865 6.6387 0.7223
47.7709 -59.5107 6.2506 0.7362
48.4092 -56.0585 6.0667 0.7428
46.1644 -46.2829 5.3544 0.7692
46.3041 -43.2041 5.1872 0.7756
46.2904 -40.1818 5.0207 0.7819
46.4725 -37.5013 4.8912 0.7869
59.6823 -38.3605 5.8112 0.7522
66.4087 -36.2318 6.1963 0.7381
73.1610 -36.5712 6.6995 0.7202
79.4204 -36.1975 7.1490 0.7045
39.6515 10.3164 3.3559 0.8484
27.5815 10.4525 2.4159 0.8884
26.5497 11.1671 2.3592 0.8908
26.5574 12.3103 2.3976 0.8892
26.5654 13.4928 2.4405 0.8873
26.5412 17.3006 2.5950 0.8806
26.5507 18.6983 2.6599 0.8778
26.6422 21.7826 2.8187 0.8710
26.6536 23.4376 2.9071 0.8672
26.6574 27.0707 3.1119 0.8586
26.6712 29.1043 3.2335 0.8535
26.5851 31.1878 3.3567 0.8483
26.6516 33.6407 3.5154 0.8418
26.4340 35.9451 3.6546 0.8360
26.7690 42.4815 4.1128 0.8175
26.5864 45.7549 4.3344 0.8087
26.7267 54.6890 4.9858 0.7833
25.6038 57.5401 5.1585 0.7767
26.8411 66.6660 5.8865 0.7494
26.9802 74.6398 6.5008 0.7272
26.0565 81.0766 6.9754 0.7105
26.9607 95.5364 8.1308 0.6714
-1.0182 83.5879 6.8470 0.7150
-1.7417 14.4574 1.1927 0.9432
-4.0923 11.7435 1.0186 0.9513
-5.0668 11.7501 1.0481 0.9499
-7.2410 11.7908 1.1333 0.9460
-9.1067 11.7714 1.2190 0.9420
-9.8058 11.7761 1.2552 0.9404
-12.0515 11.6562 1.3733 0.9349
-12.9579 11.6624 1.4279 0.9324
-58.2938 36.0060 5.6121 0.7596
-77.7808 30.5076 6.8434 0.7151
-76.3290 26.8187 6.6266 0.7227
-76.5105 20.8519 6.4954 0.7274
-77.5961 18.1825 6.5279 0.7263
-88.7847 -43.1075 8.0840 0.6729
-47.3682 -32.1027 4.6869 0.7948
-45.8884 -33.5651 4.6568 0.7960
-40.3598 -31.8065 4.2090 0.8136
-37.5655 -31.8555 4.0343 0.8206
-43.7863 -42.8970 5.0207 0.7819
-28.2085 -31.9136 3.4887 0.8429
-27.9926 -36.6669 3.7785 0.8310
-28.0864 -39.6647 3.9809 0.8228
-20.7042 -31.5853 3.0934 0.8594
-19.1229 -34.3138 3.2176 0.8541
-20.3012 -39.7173 3.6535 0.8361
-18.8101 -44.4017 3.9497 0.8240
-14.7078 -43.0932 3.7296 0.8330
-11.6866 -44.4498 3.7645 0.8316
-8.1821 -43.6514 3.6377 0.8367
-0.6546 -15.6980 1.0462 0.9390
-0.0906 -15.7071 1.0459 0.9390
1.2586 -41.7544 2.7816 0.8458
2.7619 -41.7636 2.7870 0.8455
4.5582 -44.5594 2.9826 0.8356
5.8394 -42.0934 2.8297 0.8434
7.3928 -42.1199 2.8475 0.8425
9.4913 -44.6063 3.0367 0.8329
13.7873 -41.9749 2.9419 0.8377
16.4653 -44.6534 3.1690 0.8263
19.1993 -42.4131 3.1000 0.8297
20.8291 -41.9376 3.1179 0.8289
46.1575 -85.1201 6.4476 0.6783
48.2469 -75.4892 5.9655 0.6983
46.6382 -67.5032 5.4633 0.7197
46.2371 -57.5999 4.9182 0.7437
46.2642 -53.5745 4.7134 0.7529
56.3237 -36.2017 4.4583 0.7646
79.4202 -36.1974 5.8117 0.7048
82.6553 -34.1439 5.9548 0.6987
44.1259 -14.6195 3.0953 0.8300
26.5495 11.1670 1.9179 0.8910
26.6824 12.3682 1.9583 0.8888
26.5320 15.9677 2.0619 0.8833
26.6664 17.3822 2.1195 0.8802
26.6533 23.4373 2.3633 0.8674
26.7105 25.2444 2.4472 0.8630
26.6571 27.0704 2.5298 0.8587
26.6709 29.1040 2.6286 0.8536
26.6354 31.2468 2.7340 0.8482
26.7718 39.2849 3.1655 0.8265
26.7183 42.4009 3.3371 0.8180
25.4813 57.2647 4.1735 0.7778
26.9796 74.6380 5.2847 0.7275
-1.0182 83.5879 5.5663 0.7153
-1.6525 19.6285 1.3116 0.9241
-1.7418 14.4583 0.9697 0.9433
-2.7006 13.9146 0.9438 0.9448
-3.2237 13.9181 0.9513 0.9443
-3.6742 13.6192 0.9393 0.9450
-3.6221 11.7336 0.8177 0.9520
-4.5726 11.7468 0.8394 0.9507
-5.0668 11.7501 0.8520 0.9500
-6.1049 11.7571 0.8821 0.9483
-7.2410 11.7908 0.9213 0.9460
-10.5774 11.8133 1.0558 0.9384
-12.2253 11.8244 1.1325 0.9341
-13.1448 11.8306 1.1776 0.9316
-67.9106 35.4844 5.1020 0.7355
-77.9771 30.5846 5.5774 0.7148
-79.9480 28.0902 5.6425 0.7120
-82.5462 25.7135 5.7570 0.7071
-88.7846 -43.1074 6.5719 0.6732
-81.3218 -43.1578 6.1303 0.6914
-47.3686 -32.1030 3.8103 0.7950
-45.8888 -33.5654 3.7858 0.7962
-40.3502 -31.7990 3.4209 0.8139
-37.5654 -31.8555 3.2797 0.8208
-37.3954 -34.0929 3.3696 0.8164
-43.7863 -42.8969 4.0816 0.7821
-28.1971 -31.9008 2.8350 0.8431
-28.0863 -39.6647 3.2362 0.8230
-18.8101 -44.4017 3.2109 0.8242
-16.1675 -42.3338 3.0174 0.8339
-13.4064 -44.4382 3.0907 0.8302
-3.4518 -15.3498 1.0476 0.9389
-2.8978 -15.4596 1.0473 0.9389
-1.7801 -15.6191 1.0468 0.9389
-1.2700 -16.3378 0.8406 0.9365
-0.2570 -44.5269 2.2841 0.8367
1.2783 -42.4094 2.1765 0.8437
4.5582 -44.5594 2.2977 0.8358
9.4913 -44.6063 2.3394 0.8331
16.4653 -44.6533 2.4413 0.8264
18.3169 -44.6658 2.4764 0.8242
19.1963 -42.4063 2.3878 0.8299
46.0605 -72.0682 4.3874 0.7099
46.2070 -61.9962 3.9663 0.7337
46.2366 -57.5992 3.7888 0.7439
45.9007 -49.4481 3.4609 0.7632
46.3323 -43.2304 3.2506 0.7758
48.2399 -36.1471 3.0922 0.7855
52.0697 -36.1730 3.2523 0.7757
55.8687 -35.9094 3.4068 0.7664
61.3286 -36.3759 3.6577 0.7516
41.1602 -22.4565 2.4052 0.8288
79.4202 -36.1974 4.4772 0.7050
26.7350 13.5789 1.5382 0.8868
26.5733 14.7199 1.5583 0.8854
26.5317 15.9676 1.5885 0.8834
26.7517 17.4378 1.6381 0.8799
26.6529 23.4370 1.8206 0.8675
26.7105 25.2444 1.8853 0.8631
26.7826 27.1978 1.9580 0.8582
26.6351 31.2464 2.1061 0.8484
26.7513 36.3767 2.3163 0.8346
27.2942 40.0514 2.4862 0.8236
26.7740 46.0776 2.7337 0.8078
26.8022 50.1916 2.9188 0.7962
26.0708 81.1213 4.3709 0.7109
2.1231 89.4803 4.5913 0.6987
-1.0182 83.5880 4.2881 0.7155
-1.4665 30.4747 1.5651 0.8850
-1.7028 20.2270 1.0412 0.9219
-1.8222 11.6014 0.6024 0.9541
-2.7006 13.9146 0.7271 0.9448
-3.2237 13.9182 0.7329 0.9444
-3.6742 13.6193 0.7236 0.9451
-3.6222 11.7340 0.6299 0.9520
-4.5602 11.7148 0.6449 0.9509
-7.8401 11.7948 0.7265 0.9449
-8.4689 11.7991 0.7450 0.9435
-10.5774 11.8133 0.8134 0.9385
-11.3725 11.8186 0.8413 0.9364
-12.2253 11.8244 0.8725 0.9341
-16.3235 11.7800 1.0327 0.9225
-58.4099 36.0776 3.5217 0.7596
-62.9444 35.8228 3.7151 0.7482
-76.0816 36.3390 4.3250 0.7134
-90.9538 28.3326 4.8867 0.6828
-88.7844 -43.1074 5.0628 0.6735
-69.0136 -43.2408 4.1777 0.7217
-47.3691 -32.1033 2.9353 0.7952
-45.8893 -33.5658 2.9165 0.7963
-40.3408 -31.7915 2.6347 0.8141
-37.5654 -31.8554 2.5266 0.8210
-30.3086 -31.9044 2.2573 0.8384
-19.6715 -23.9345 1.5892 0.8833
-27.9933 -36.6678 2.3664 0.8313
-28.0863 -39.6647 2.4931 0.8231
-19.1294 -31.6016 1.8949 0.8625
-19.1690 -41.0774 2.3253 0.8340
-18.8101 -44.4017 2.4736 0.8244
-16.1530 -42.2958 2.3225 0.8342
-11.6866 -44.4497 2.3576 0.8319
-3.5072 -15.5962 0.8200 0.9380
-2.4577 -16.3297 0.8471 0.9360
-0.2298 -39.8127 1.4345 0.8527
4.0828 -39.9118 1.4455 0.8516
5.5388 -39.9273 1.4524 0.8510
7.0107 -39.9430 1.4612 0.8502
8.5018 -39.9562 1.4719 0.8492
10.0176 -39.9724 1.4848 0.8479
11.5452 -39.9302 1.4976 0.8467
13.1396 -40.0030 1.5171 0.8449
14.7568 -40.0202 1.5368 0.8431
18.3169 -44.6658 1.7394 0.8243
19.1170 -42.2313 1.6702 0.8306
19.8090 -39.8837 1.6045 0.8367
46.0975 -78.1754 3.2699 0.6954
46.0361 -72.0300 3.0800 0.7102
46.2064 -61.9954 2.7859 0.7338
46.2360 -57.5985 2.6612 0.7441
46.2631 -53.5733 2.5504 0.7533
46.3112 -46.4302 2.3628 0.7691
46.3755 -43.2707 2.2853 0.7758
46.3520 -40.2353 2.2115 0.7822
46.4723 -37.5012 2.1516 0.7874
61.1639 -36.2783 2.5622 0.7523
66.4062 -36.2305 2.7256 0.7388
44.1210 -14.6178 1.6747 0.8302
38.5879 10.0396 1.4366 0.8525
33.7925 10.1002 1.2708 0.8683
26.7152 12.3834 1.0609 0.8888
26.5730 14.7197 1.0945 0.8855
26.5315 15.9674 1.1157 0.8834
26.7514 17.4376 1.1505 0.8800
26.7609 18.8463 1.1793 0.8772
26.7105 25.2444 1.3242 0.8632
26.8680 27.2846 1.3797 0.8579
26.6348 31.2460 1.4793 0.8485
27.3707 40.1638 1.7512 0.8232
26.8276 42.5745 1.8131 0.8176
26.7557 46.0461 1.9188 0.8080
26.8241 66.6240 2.5877 0.7502
26.9783 74.6346 2.8594 0.7279
26.2107 81.5566 3.0865 0.7097
26.9655 95.5534 3.5773 0.6721
-1.0154 83.3569 3.0036 0.7163
-1.7118 14.2091 0.5157 0.9443
-2.6944 13.8827 0.5095 0.9450
-3.2163 13.8862 0.5136 0.9445
-3.6223 11.7342 0.4425 0.9520
-4.0923 11.7436 0.4481 0.9514
-5.5749 11.7493 0.4685 0.9493
-6.0883 11.7251 0.4760 0.9485
-7.8188 11.7628 0.5089 0.9450
-8.4459 11.7670 0.5219 0.9437
-9.1067 11.7714 0.5362 0.9422
-9.8058 11.7762 0.5521 0.9405
-13.1091 11.7984 0.6355 0.9318
-16.3237 11.7801 0.7252 0.9226
-58.2954 36.0069 2.4688 0.7601
-67.9109 35.4845 2.7607 0.7359
-77.7832 30.5085 3.0104 0.7157
-76.0649 23.6946 2.8705 0.7270
-76.5122 20.8524 2.8573 0.7280
-52.4784 6.4587 1.9053 0.8093
-88.7843 -43.1073 3.5560 0.6737
-81.3216 -43.1577 3.3171 0.6918
-38.0033 -23.8111 1.6158 0.8357
-46.6951 -31.6465 2.0324 0.7979
-45.8897 -33.5661 2.0485 0.7965
-37.3962 -34.0937 1.8233 0.8166
-27.9919 -31.6686 1.5229 0.8444
-20.6808 -31.5495 1.3592 0.8599
-19.0829 -31.5248 1.3277 0.8629
-19.1238 -34.3155 1.4154 0.8545
-20.3011 -39.7172 1.6071 0.8365
-18.8100 -44.4016 1.7374 0.8245
-15.1693 -39.7200 1.5319 0.8435
-13.5624 -39.7371 1.5128 0.8453
-11.9924 -39.7512 1.4960 0.8469
-10.4556 -39.7675 1.4815 0.8482
-7.4596 -39.7968 1.4589 0.8504
-2.4618 -16.3570 0.5960 0.9359
-1.2739 -16.3874 0.3416 0.9364
1.2062 -40.0183 0.8320 0.8520
2.7800 -42.0361 0.8754 0.8449
4.0948 -40.0293 0.8362 0.8513
9.4913 -44.6062 0.9477 0.8332
10.0549 -40.1210 0.8595 0.8475
13.1914 -40.1607 0.8784 0.8444
16.4662 -40.1531 0.9018 0.8406
19.0846 -42.1598 0.9617 0.8310
46.2168 -66.8931 1.6896 0.7223
46.2354 -57.5978 1.5349 0.7442
46.2626 -53.5726 1.4709 0.7534
46.3107 -46.4297 1.3627 0.7692
46.3313 -43.2295 1.3168 0.7761
46.3705 -37.4190 1.2382 0.7879
52.0696 -36.1729 1.3175 0.7760
55.6783 -35.7869 1.3754 0.7674
73.1585 -36.5700 1.6996 0.7209
82.6762 -30.7270 1.8329 0.7027
44.1166 -14.6164 0.9658 0.8303
29.0761 9.8405 0.6379 0.8844
27.3579 10.3677 0.6080 0.8895
26.4622 11.1303 0.5966 0.8915
26.5312 15.9673 0.6435 0.8835
26.5497 18.6976 0.6748 0.8782
26.8657 21.9653 0.7211 0.8704
26.6562 27.0695 0.7895 0.8590
26.6345 31.2457 0.8532 0.8485
26.6506 33.6395 0.8918 0.8422
26.7328 36.3515 0.9377 0.8348
27.3708 40.1639 1.0099 0.8233
26.8270 42.5736 1.0457 0.8176
26.7431 54.7225 1.2657 0.7837
26.9777 74.6328 1.6491 0.7280
27.0636 95.9009 2.0707 0.6712
1.9824 83.5457 1.7366 0.7158
-1.5143 31.4682 0.6547 0.8816
-1.7421 14.4609 0.3027 0.9434
-1.8222 11.6013 0.2440 0.9541
-2.6944 13.8827 0.2939 0.9450
-3.2237 13.9182 0.2969 0.9444
-4.0924 11.7436 0.2584 0.9515
-4.5727 11.7468 0.2619 0.9508
-5.0668 11.7502 0.2659 0.9501
-5.5750 11.7496 0.2702 0.9493
-6.1050 11.7572 0.2753 0.9484
-6.5733 11.6194 0.2774 0.9480
-9.1067 11.7714 0.3093 0.9422
-12.2253 11.8244 0.3534 0.9342
-13.1448 11.8306 0.3675 0.9317
-58.2332 45.2901 1.5330 0.7444
-58.2960 36.0073 1.4239 0.7602
-67.9110 35.4845 1.5923 0.7360
-90.9550 28.3329 1.9797 0.6831
-35.5736 9.6951 0.7662 0.8628
-46.2113 -31.3186 1.1601 0.7998
-39.7955 -31.3619 1.0529 0.8165
-28.4095 -24.0912 0.7741 0.8615
-37.2767 -33.9847 1.0482 0.8172
-29.8569 -31.4290 0.9008 0.8408
-27.7924 -31.4429 0.8721 0.8454
-19.8885 -24.1986 0.6509 0.8822
-27.9940 -36.6688 0.9587 0.8315
-22.2908 -31.4800 0.8016 0.8570
-20.6425 -31.4912 0.7825 0.8602
-19.0690 -31.5018 0.7652 0.8630
-11.2735 -20.2289 0.4812 0.9115
-19.1697 -41.0789 0.9420 0.8341
-12.0760 -31.6206 0.7034 0.8733
-12.0033 -39.7875 0.8636 0.8468
-3.5558 -15.8125 0.3368 0.9372
-1.1019 -9.6679 0.2022 0.9618
-0.7448 -9.5817 0.0533 0.9623
4.5582 -44.5593 0.2482 0.8360
5.8343 -42.0567 0.2353 0.8438
11.1818 -44.6176 0.2549 0.8319
12.1764 -42.1131 0.2429 0.8392
13.8364 -42.1243 0.2457 0.8375
15.5370 -42.1358 0.2488 0.8356
20.9457 -42.1723 0.2609 0.8283
43.7889 -80.7522 0.5090 0.6925
46.3117 -67.0306 0.4514 0.7219
46.2052 -61.9938 0.4284 0.7340
46.4265 -50.0145 0.3781 0.7611
46.3746 -43.2698 0.3514 0.7759
46.2881 -40.1798 0.3396 0.7826
46.4722 -37.5011 0.3308 0.7875
56.5442 -36.3435 0.3724 0.7642
66.3594 -36.2049 0.4189 0.7391
73.1579 -36.5696 0.4532 0.7210
82.6525 -34.1428 0.4955 0.6993
44.1123 -14.6150 0.2575 0.8304
87.1313 -25.4353 0.5029 0.6955
43.8422 9.7409 0.2488 0.8356
37.6015 9.7830 0.2153 0.8561
32.6372 9.7549 0.1887 0.8726
26.5643 13.4923 0.1651 0.8876
26.5726 14.7195 0.1683 0.8856
26.5310 15.9671 0.1716 0.8835
26.5400 17.2998 0.1755 0.8810
26.6408 21.7814 0.1907 0.8714
26.6521 23.4362 0.1966 0.8677
26.7106 25.2445 0.2036 0.8633
26.6341 31.2453 0.2275 0.8485
26.6503 33.6390 0.2378 0.8423
26.7504 36.3755 0.2502 0.8348
26.0343 48.7537 0.3062 0.8017
26.7426 54.7216 0.3375 0.7838
26.1333 58.7301 0.3562 0.7733
26.9771 74.6312 0.4397 0.7280
-1.7422 14.4619 0.0807 0.9434
-3.6225 11.7349 0.0681 0.9521
-4.0924 11.7436 0.0689 0.9515
-4.5727 11.7468 0.0698 0.9508
-5.0668 11.7502 0.0709 0.9501
-6.1050 11.7572 0.0734 0.9484
-6.5734 11.6194 0.0740 0.9480
-7.2410 11.7908 0.0767 0.9462
-8.4689 11.7991 0.0805 0.9436
-9.1067 11.7715 0.0825 0.9422
-9.8326 11.8083 0.0851 0.9404
-11.3725 11.8187 0.0909 0.9365
-12.2253 11.8244 0.0942 0.9342
-14.1420 11.8374 0.1022 0.9289
-16.3239 11.7803 0.1115 0.9226
-58.9020 39.3708 0.3925 0.7532
-62.9447 35.8229 0.4013 0.7485
-68.6319 35.8613 0.4291 0.7336
-91.8954 36.0437 0.5469 0.6738
-35.5739 9.6952 0.2043 0.8629
-92.6304 21.7054 0.5271 0.6835
-96.5606 15.4208 0.5418 0.6763
-52.4710 6.4579 0.2929 0.8094
-88.2248 -38.9868 0.5344 0.6799
-80.6176 -39.1421 0.4965 0.6987
-38.3007 -23.9975 0.2504 0.8346
-31.8734 -31.2260 0.2472 0.8365
-27.6261 -31.2547 0.2311 0.8463
-19.8741 -24.1811 0.1734 0.8823
-19.0288 -34.1451 0.2166 0.8553
-18.9658 -37.1047 0.2309 0.8465
-16.0053 -41.9093 0.2486 0.8357
-14.7078 -43.0930 0.2523 0.8335
-1.4460 -9.6075 0.0538 0.9619
-0.7393 -9.5101 -0.0925 0.9626
0.2866 -9.5071 -0.0922 0.9627
0.6276 -9.4893 -0.0922 0.9627
1.3126 -9.4621 -0.0926 0.9625
27.6629 -84.2185 -0.8596 0.7015
30.7230 -83.3196 -0.8611 0.7010
27.5994 -67.3013 -0.7053 0.7475
15.9855 -32.1855 -0.3485 0.8661
27.6683 -40.0465 -0.4720 0.8231
27.7750 -34.6007 -0.4302 0.8374
33.3052 -35.8792 -0.4747 0.8222
33.3132 -28.9171 -0.4278 0.8382
25.2628 -20.3860 -0.3148 0.8782
29.3927 -20.4192 -0.3470 0.8666
56.5441 -36.3435 -0.6518 0.7642
66.4059 -36.2303 -0.7334 0.7389
21.4684 -9.7846 -0.2288 0.9099
82.6518 -34.1425 -0.8671 0.6993
54.5656 -9.7217 -0.5374 0.8011
36.0047 0.1154 -0.3491 0.8659
43.8424 9.7409 -0.4355 0.8356
37.6016 9.7830 -0.3767 0.8561
29.0762 9.8406 -0.2976 0.8844
27.4294 10.3948 -0.2844 0.8893
26.5483 11.1665 -0.2793 0.8912
26.5561 12.3096 -0.2838 0.8895
26.7641 14.8256 -0.2967 0.8848
26.7411 18.8324 -0.3171 0.8774
26.6517 23.4359 -0.3441 0.8676
26.7503 36.3753 -0.4378 0.8348
26.4337 38.7889 -0.4551 0.8288
26.7727 46.0754 -0.5167 0.8080
26.0344 48.7537 -0.5359 0.8016
26.8727 54.9878 -0.5935 0.7828
26.1333 58.7301 -0.6233 0.7733
18.5889 46.1698 -0.4826 0.8195
13.0340 98.5947 -0.9643 0.6718
1.9988 84.2399 -0.8171 0.7139
-1.8222 11.6013 -0.1139 0.9541
-3.2237 13.9182 -0.1385 0.9445
-3.6742 13.6193 -0.1368 0.9451
-3.6225 11.7351 -0.1191 0.9521
-5.0668 11.7502 -0.1241 0.9501
-5.5752 11.7500 -0.1262 0.9493
-7.2410 11.7908 -0.1342 0.9462
-7.8401 11.7949 -0.1373 0.9449
-8.4689 11.7991 -0.1408 0.9436
-9.1067 11.7715 -0.1443 0.9422
-9.8326 11.8083 -0.1490 0.9404
-13.1449 11.8306 -0.1715 0.9317
-14.1420 11.8374 -0.1788 0.9289
-73.3835 57.0730 -0.9014 0.6894
-58.2771 38.9531 -0.6797 0.7555
-58.2970 36.0079 -0.6644 0.7603
-62.2836 35.4466 -0.6949 0.7508
-28.0001 12.1594 -0.2960 0.8851
-77.7855 30.5094 -0.8102 0.7159
-79.4606 15.6337 -0.7853 0.7233
-68.8491 1.0154 -0.6677 0.7592
-91.6282 -8.5428 -0.8923 0.6920
-81.3977 -19.6247 -0.8119 0.7154
-71.2898 -19.9208 -0.7177 0.7437
-56.1791 -22.4513 -0.5866 0.7850
-56.1735 -27.2738 -0.6055 0.7790
-46.2578 -24.5492 -0.5078 0.8110
-37.7569 -23.6567 -0.4320 0.8367
-12.8824 -10.1523 -0.1590 0.9365
-12.8818 -10.9238 -0.1638 0.9347
-28.0927 -25.6118 -0.3686 0.8589
-28.1056 -27.5348 -0.3815 0.8544
-29.6782 -31.2408 -0.4178 0.8417
-20.8171 -23.5514 -0.3048 0.8818
-19.4361 -25.4589 -0.3106 0.8797
-19.4496 -27.4676 -0.3264 0.8740
-20.5190 -31.3026 -0.3629 0.8609
-20.0465 -33.1166 -0.3754 0.8565
-11.7515 -27.7397 -0.2921 0.8865
-1.4351 -9.5351 -0.0935 0.9622
-0.7357 -9.4643 -0.2367 0.9627
-0.3947 -9.4647 -0.2362 0.9628
0.6255 -9.4587 -0.2364 0.9628
1.3110 -9.4505 -0.2379 0.9625
1.6587 -9.4505 -0.2393 0.9623
2.0114 -9.4531 -0.2410 0.9621
6.6542 -20.2585 -0.5318 0.9182
7.4730 -20.2665 -0.5387 0.9172
8.3144 -20.2748 -0.5465 0.9161
11.0074 -20.2991 -0.5759 0.9117
11.9753 -20.3086 -0.5880 0.9100
12.9488 -20.2602 -0.5996 0.9083
14.0439 -20.3268 -0.6161 0.9059
16.4299 -20.4676 -0.6545 0.9003
21.8026 -20.3429 -0.7436 0.8875
24.0637 -20.8882 -0.7947 0.8803
25.2625 -20.3858 -0.8095 0.8782
25.8580 -15.3372 -0.7498 0.8867
62.7212 -34.2200 -1.7818 0.7513
20.8771 -10.4359 -0.5821 0.9108
21.3133 -9.7139 -0.5841 0.9105
66.1787 -27.3376 -1.7857 0.7509
20.6923 -6.8556 -0.5436 0.9165
62.5448 -15.8453 -1.6090 0.7725
68.0750 -4.6775 -1.7017 0.7611
36.0150 0.1154 -0.8982 0.8658
73.5342 5.5263 -1.8390 0.7445
73.2777 8.1612 -1.8387 0.7445
72.4761 13.3925 -1.8380 0.7446
43.8426 9.7409 -1.1200 0.8355
34.0103 8.8486 -0.8764 0.8688
32.6366 9.7547 -0.8495 0.8726
27.4292 10.3947 -0.7315 0.8893
26.7555 13.5894 -0.7484 0.8869
26.7638 14.8254 -0.7630 0.8848
26.5305 15.9668 -0.7722 0.8835
26.5395 17.2995 -0.7900 0.8809
18.3703 12.9372 -0.5603 0.9140
13.2452 10.0581 -0.4148 0.9356
18.2927 17.2886 -0.6277 0.9042
18.2194 18.5018 -0.6476 0.9013
18.1904 19.8498 -0.6714 0.8979
18.3316 21.5053 -0.7047 0.8931
18.1776 22.9444 -0.7300 0.8895
18.2028 24.7523 -0.7662 0.8843
18.1229 26.5935 -0.8026 0.8792
13.6132 21.6036 -0.6368 0.9029
12.7145 21.8815 -0.6311 0.9037
18.2032 37.2478 -1.0339 0.8471
13.2252 32.8479 -0.8831 0.8679
8.7893 31.1451 -0.8070 0.8785
14.1493 68.6563 -1.7482 0.7554
12.0513 71.3435 -1.8044 0.7486
9.4757 71.6780 -1.8031 0.7488
1.5666 66.0239 -1.6470 0.7678
-1.4675 30.4961 -0.7614 0.8850
-1.8222 11.6012 -0.2929 0.9541
-2.6944 13.8827 -0.3527 0.9450
-3.6742 13.6193 -0.3518 0.9451
-3.6226 11.7354 -0.3063 0.9520
-4.0924 11.7436 -0.3101 0.9515
-5.0669 11.7502 -0.3191 0.9501
-6.1050 11.7572 -0.3304 0.9484
-6.5734 11.6194 -0.3329 0.9480
-7.2410 11.7908 -0.3451 0.9461
-9.1067 11.7715 -0.3712 0.9422
-10.5775 11.8133 -0.3954 0.9385
-11.3726 11.8187 -0.4090 0.9365
-12.2254 11.8245 -0.4242 0.9342
-14.1420 11.8374 -0.4599 0.9289
-37.0338 24.7538 -1.1109 0.8367
-37.0800 22.9030 -1.0869 0.8400
-56.4416 32.1218 -1.6196 0.7712
-34.4505 18.0009 -0.9694 0.8560
-27.3246 13.0511 -0.7552 0.8859
-27.2385 11.8287 -0.7406 0.8880
-27.2201 10.6764 -0.7292 0.8896
-31.1839 9.7139 -0.8145 0.8775
-62.5686 17.0522 -1.6173 0.7715
-63.1345 14.7938 -1.6171 0.7715
-64.0248 10.2248 -1.6169 0.7715
-52.3469 6.4425 -1.3153 0.8097
-57.5226 4.9913 -1.4399 0.7937
-48.3181 2.4494 -1.2065 0.8240
-69.9156 -11.6256 -1.7675 0.7531
-69.4676 -14.1307 -1.7679 0.7530
-62.5310 -17.4733 -1.6192 0.7712
-56.0866 -20.1111 -1.4859 0.7879
-15.8527 -7.0054 -0.4322 0.9330
-56.1734 -27.2737 -1.5572 0.7789
-14.4627 -9.8017 -0.4357 0.9325
-12.7606 -10.0563 -0.4052 0.9371
-12.7549 -10.8162 -0.4171 0.9353
-28.0930 -25.6120 -0.9481 0.8589
-28.1059 -27.5351 -0.9812 0.8543
-47.3421 -49.8364 -1.7142 0.7595
-19.4240 -23.6334 -0.7629 0.8848
-19.4363 -25.4592 -0.7988 0.8797
-38.3586 -58.5178 -1.7449 0.7558
-8.5226 -20.1179 -0.5449 0.9163
-7.6642 -20.0683 -0.5357 0.9176
-6.8711 -20.1320 -0.5305 0.9184
-2.8684 -9.5080 -0.2477 0.9610
-2.1330 -9.4854 -0.2425 0.9618
-1.4243 -9.4636 -0.2387 0.9624
-1.0786 -9.4638 -0.2375 0.9626
-0.7350 -9.4551 -0.3812 0.9627
-0.3942 -9.4538 -0.3803 0.9628
-0.0546 -9.4522 -0.3799 0.9629
0.2849 -9.4505 -0.3800 0.9629
1.6587 -9.4505 -0.3856 0.9623
5.8892 -20.3683 -0.8522 0.9186
6.7980 -20.6961 -0.8755 0.9165
7.6296 -20.6912 -0.8864 0.9155
8.3627 -20.3926 -0.8859 0.9155
12.0906 -20.5041 -0.9567 0.9091
12.9488 -20.2602 -0.9664 0.9082
21.8026 -20.3429 -1.1985 0.8875
29.3921 -20.4188 -1.4384 0.8665
25.8193 -15.3142 -1.2065 0.8868
19.8608 -10.8358 -0.9093 0.9134
20.7326 -9.4493 -0.9157 0.9128
22.9923 -9.4978 -0.9998 0.9052
19.8493 -7.3771 -0.8511 0.9187
19.8478 -6.5758 -0.8404 0.9197
44.0167 -11.1513 -1.8250 0.8338
44.9658 -6.3555 -1.8252 0.8338
45.1654 -4.7374 -1.8252 0.8338
36.9089 -1.2073 -1.4842 0.8626
45.3722 1.7754 -1.8250 0.8338
40.8589 7.5501 -1.6700 0.8468
40.5559 9.0107 -1.6698 0.8468
34.3809 8.9451 -1.4278 0.8674
32.6364 9.7546 -1.3691 0.8725
27.5820 10.4527 -1.1855 0.8886
26.5479 11.1663 -1.1576 0.8911
26.5556 12.3094 -1.1764 0.8894
24.4129 12.3996 -1.1005 0.8962
25.7110 15.4736 -1.2061 0.8868
13.5602 9.5498 -0.6666 0.9358
12.6685 10.3577 -0.6577 0.9366
12.6426 11.1172 -0.6766 0.9348
18.0419 18.3216 -1.0335 0.9022
17.9969 19.6386 -1.0706 0.8989
18.1056 21.2402 -1.1217 0.8943
18.1289 22.8830 -1.1734 0.8897
18.1489 24.6790 -1.2312 0.8846
13.7486 20.1748 -0.9812 0.9069
12.8058 20.3224 -0.9654 0.9083
12.6180 23.6294 -1.0766 0.8983
18.1212 40.7242 -1.7915 0.8366
12.5587 34.7431 -1.4848 0.8625
-0.4992 40.9831 -1.6473 0.8487
-1.4677 30.5006 -1.2273 0.8849
-1.5900 18.8869 -0.7618 0.9269
-1.7425 14.4645 -0.5856 0.9433
-1.8222 11.6012 -0.4720 0.9541
-3.2237 13.9182 -0.5742 0.9444
-3.6742 13.6193 -0.5670 0.9451
-3.6227 11.7357 -0.4936 0.9520
-4.0924 11.7436 -0.4998 0.9514
-4.5727 11.7469 -0.5066 0.9508
-5.5754 11.7504 -0.5228 0.9493
-7.2410 11.7908 -0.5561 0.9461
-7.8401 11.7949 -0.5692 0.9449
-9.8326 11.8083 -0.6176 0.9403
-10.5775 11.8134 -0.6373 0.9385
-13.1091 11.7985 -0.7089 0.9318
-33.8758 26.3464 -1.7248 0.8421
-16.3243 11.7805 -0.8091 0.9226
-33.9121 22.6672 -1.6394 0.8493
-34.6891 21.4262 -1.6387 0.8494
-35.4293 20.1634 -1.6384 0.8494
-27.2206 13.0014 -1.2124 0.8862
-27.1440 11.7877 -1.1894 0.8883
-27.0898 9.5182 -1.1540 0.8914
-31.0891 9.6844 -1.3088 0.8778
-42.7287 11.6451 -1.7800 0.8375
-43.1165 10.1032 -1.7799 0.8375
-43.4494 8.5486 -1.7798 0.8376
-43.7268 6.9832 -1.7797 0.8376
-43.9487 5.4090 -1.7797 0.8376
-44.1145 3.8279 -1.7797 0.8376
-44.2748 -0.9368 -1.7799 0.8375
-44.0999 -4.1116 -1.7801 0.8375
-42.2359 -13.4543 -1.7816 0.8374
-15.1268 -6.6846 -0.6647 0.9359
-35.8827 -19.0431 -1.6327 0.8499
-15.4848 -9.7021 -0.7344 0.9295
-14.3176 -9.7034 -0.6952 0.9331
-12.6655 -9.9813 -0.6481 0.9375
-12.3749 -10.4939 -0.6521 0.9371
-28.0933 -25.6123 -1.5279 0.8588
-28.1063 -27.5354 -1.5814 0.8543
-20.8170 -23.5513 -1.2633 0.8818
-19.4242 -23.6337 -1.2295 0.8847
-19.4501 -27.4683 -1.3528 0.8739
-8.6046 -20.3114 -0.8866 0.9155
-2.8546 -9.4621 -0.3972 0.9612
-2.4887 -9.4658 -0.3934 0.9616
-2.1293 -9.4690 -0.3901 0.9619
-1.7738 -9.4631 -0.3870 0.9622
-1.4234 -9.4575 -0.3844 0.9624
-1.0777 -9.4563 -0.3825 0.9626
-0.5106 -6.5685 -0.3654 0.9740
0.4311 -6.5192 -0.3624 0.9742
0.6691 -6.5410 -0.3647 0.9740
2.0114 -9.4530 -0.5360 0.9620
7.5227 -20.4013 -1.2060 0.9166
9.1553 -20.2251 -1.2313 0.9149
11.0833 -20.4390 -1.2896 0.9111
12.0668 -20.4637 -1.3176 0.9092
12.9487 -20.2602 -1.3336 0.9082
15.2903 -20.5151 -1.4191 0.9026
16.4299 -20.4676 -1.4557 0.9002
17.5327 -20.3031 -1.4879 0.8981
19.0413 -20.5129 -1.5524 0.8939
23.3277 -18.8245 -1.6626 0.8868
23.9855 -15.4165 -1.5814 0.8921
19.8326 -9.9137 -1.2298 0.9150
20.6590 -9.4157 -1.2592 0.9131
22.9177 -9.4670 -1.3753 0.9054
20.9886 -6.1270 -1.2127 0.9161
32.0556 -6.9068 -1.8187 0.8769
32.2838 -5.7518 -1.8188 0.8769
32.7156 -2.2479 -1.8188 0.8769
32.7746 -1.0721 -1.8188 0.8769
32.7909 0.1051 -1.8187 0.8769
32.6958 2.4572 -1.8185 0.8769
29.6880 4.3904 -1.6645 0.8867
29.5087 5.4528 -1.6644 0.8867
29.2910 6.5079 -1.6642 0.8867
28.7419 8.5906 -1.6638 0.8868
28.4112 9.6155 -1.6636 0.8868
24.0246 11.1362 -1.4687 0.8993
24.4593 13.5488 -1.5508 0.8940
14.0940 8.4822 -0.9124 0.9362
13.0831 8.5281 -0.8662 0.9394
12.6228 8.8896 -0.8563 0.9400
12.6162 9.5804 -0.8786 0.9385
12.5537 11.0390 -0.9272 0.9352
18.1846 21.3329 -1.5547 0.8938
13.6816 20.0763 -1.3475 0.9073
12.7673 20.2612 -1.3283 0.9085
12.5830 23.5638 -1.4816 0.8985
13.2469 29.7701 -1.8073 0.8776
12.1659 30.2168 -1.8067 0.8777
11.0698 30.6243 -1.8061 0.8777
3.7023 21.9177 -1.2329 0.9148
2.8920 21.8762 -1.2239 0.9154
2.8370 29.6064 -1.6496 0.8877
1.7718 29.6794 -1.6491 0.8877
0.7051 29.7141 -1.6485 0.8877
-0.3619 29.7105 -1.6480 0.8878
-1.5493 18.4026 -1.0243 0.9287
-1.6554 13.7407 -0.7676 0.9461
-1.8222 11.6011 -0.6513 0.9540
-2.6682 13.7476 -0.7767 0.9454
-4.5727 11.7469 -0.6992 0.9508
-6.5734 11.6194 -0.7404 0.9479
-7.1647 11.6666 -0.7594 0.9466
-7.7287 11.6272 -0.7744 0.9456
-9.0017 11.6358 -0.8160 0.9428
-10.4271 11.6454 -0.8670 0.9393
-11.2109 11.6507 -0.8968 0.9373
-12.0516 11.6564 -0.9299 0.9350
-23.2985 18.1201 -1.6370 0.8885
-16.3244 11.7806 -1.1166 0.9225
-26.7966 17.9112 -1.7877 0.8789
-28.0047 15.9380 -1.7872 0.8789
-27.2189 13.0007 -1.6730 0.8862
-28.6445 10.0644 -1.6840 0.8855
-30.7464 9.5777 -1.7861 0.8790
-31.0686 8.4674 -1.7860 0.8790
-31.5935 6.2160 -1.7859 0.8790
-31.9570 3.9331 -1.7858 0.8790
-32.1933 -0.6812 -1.7860 0.8790
-32.0649 -2.9895 -1.7862 0.8790
-31.7725 -5.2831 -1.7864 0.8789
-31.0302 -8.6709 -1.7870 0.8789
-30.7028 -9.7804 -1.7872 0.8789
-17.0588 -6.1168 -1.0051 0.9300
-14.7276 -6.5082 -0.8931 0.9375
-14.6271 -7.1019 -0.9018 0.9369
-16.5323 -9.5496 -1.0589 0.9264
-14.2382 -9.6496 -0.9540 0.9334
-13.1168 -9.5943 -0.9014 0.9370
-12.3648 -10.4854 -0.8992 0.9371
-15.7275 -15.4080 -1.2212 0.9156
-20.5281 -21.6096 -1.6532 0.8874
-19.9332 -22.5609 -1.6700 0.8864
-17.5019 -24.7170 -1.6798 0.8857
-15.7055 -25.9454 -1.6821 0.8856
-11.1712 -20.0454 -1.2728 0.9122
-10.3426 -20.2343 -1.2604 0.9130
-3.2153 -9.4207 -0.5521 0.9609
-2.8423 -9.4213 -0.5458 0.9613
-1.4227 -9.4528 -0.5302 0.9624
0.1932 -6.4106 -0.4538 0.9746
0.6566 -6.4186 -0.4566 0.9745
5.0591 -20.1869 -1.4726 0.9199
5.8892 -20.3683 -1.5003 0.9185
7.5244 -20.4061 -1.5390 0.9165
9.1554 -20.2250 -1.5710 0.9148
10.1736 -20.4836 -1.6184 0.9124
11.0833 -20.4390 -1.6453 0.9110
11.8932 -20.1693 -1.6569 0.9104
12.6122 -19.7335 -1.6572 0.9104
15.3182 -17.7387 -1.6585 0.9103
15.9479 -17.1804 -1.6588 0.9103
17.1450 -15.9971 -1.6593 0.9103
18.2552 -14.7312 -1.6599 0.9102
20.9837 -14.5774 -1.8080 0.9026
21.5627 -13.8593 -1.8138 0.9023
22.0488 -13.0778 -1.8140 0.9023
20.1229 -10.9788 -1.6221 0.9122
22.9348 -11.4645 -1.8144 0.9023
19.4936 -7.2449 -1.4716 0.9200
19.5170 -6.4662 -1.4549 0.9209
24.8648 -6.2993 -1.8151 0.9023
25.3996 -3.5900 -1.8152 0.9022
25.5122 -2.6759 -1.8152 0.9022
25.6380 -0.8386 -1.8152 0.9023
25.6510 0.0822 -1.8151 0.9023
25.5770 1.9222 -1.8150 0.9023
25.3704 3.7519 -1.8148 0.9023
24.2076 4.4732 -1.7420 0.9060
22.9326 5.0952 -1.6623 0.9101
22.7158 5.9101 -1.6609 0.9102
21.6266 9.0964 -1.6602 0.9102
20.9127 10.6218 -1.6598 0.9102
20.5150 11.3639 -1.6595 0.9102
12.6828 8.9318 -1.0977 0.9397
12.5447 10.2565 -1.1466 0.9371
12.4931 11.8074 -1.2164 0.9334
12.6203 12.8160 -1.2728 0.9304
17.2803 18.8567 -1.8099 0.9025
15.1431 20.5918 -1.8087 0.9026
13.6205 21.6153 -1.8079 0.9026
12.8328 22.0851 -1.8075 0.9026
12.0289 22.5262 -1.8070 0.9027
11.2099 22.9379 -1.8066 0.9027
10.3767 23.3199 -1.8062 0.9027
9.5306 23.6715 -1.8057 0.9027
8.6726 23.9923 -1.8053 0.9028
7.8038 24.2820 -1.8048 0.9028
3.1365 11.1142 -0.8172 0.9547
3.8807 15.9169 -1.1593 0.9364
3.6884 21.8351 -1.5670 0.9150
2.8811 21.7937 -1.5556 0.9156
1.3889 23.2651 -1.6492 0.9108
-1.1194 23.2618 -1.6480 0.9108
-1.5494 18.4042 -1.3069 0.9286
-1.6554 13.7407 -0.9794 0.9460
-1.8222 11.6011 -0.8310 0.9540
-3.1850 13.7510 -0.9988 0.9450
-3.6742 13.6193 -0.9982 0.9450
-3.6229 11.7364 -0.8692 0.9519
-4.5727 11.7469 -0.8920 0.9507
-5.0669 11.7502 -0.9055 0.9500
-5.5756 11.7508 -0.9204 0.9492
-6.5734 11.6194 -0.9447 0.9479
-7.1381 11.6232 -0.9652 0.9468
-7.7287 11.6272 -0.9879 0.9456
-8.3486 11.6314 -1.0131 0.9442
-9.6928 11.6405 -1.0719 0.9411
-11.2109 11.6507 -1.1441 0.9372
-12.9581 11.6625 -1.2336 0.9325
-18.2921 14.2264 -1.6398 0.9113
-16.3245 11.7807 -1.4245 0.9224
-20.1304 11.4565 -1.6390 0.9113
-20.5266 10.7255 -1.6388 0.9113
-20.8966 9.9809 -1.6387 0.9113
-21.2397 9.2235 -1.6386 0.9113
-21.5555 8.4546 -1.6384 0.9113
-21.8437 7.6749 -1.6383 0.9113
-24.1458 7.5216 -1.7896 0.9036
-24.3992 6.6497 -1.7895 0.9036
-24.8118 4.8817 -1.7894 0.9036
-24.9706 3.9878 -1.7894 0.9036
-25.0974 3.0889 -1.7893 0.9036
-25.1922 2.1860 -1.7893 0.9036
-25.2481 -1.4422 -1.7895 0.9036
-25.0820 -3.2503 -1.7897 0.9036
-24.9508 -4.1488 -1.7898 0.9035
-24.5926 -5.9292 -1.7901 0.9035
-24.1085 -7.6798 -1.7904 0.9035
-14.6773 -6.4859 -1.1355 0.9377
-14.5854 -7.0816 -1.1473 0.9371
-15.3659 -9.6276 -1.2831 0.9299
-14.1845 -9.6132 -1.2125 0.9336
-13.0779 -9.5659 -1.1466 0.9371
-12.4936 -9.8459 -1.1256 0.9382
-17.1475 -15.6332 -1.6420 0.9111
-15.7133 -15.3941 -1.5566 0.9156
-15.3768 -17.3964 -1.6430 0.9111
-14.7455 -17.9410 -1.6433 0.9111
-13.4262 -18.9610 -1.6440 0.9110
-12.7398 -19.4352 -1.6444 0.9110
-10.3450 -20.2391 -1.6084 0.9129
-9.4488 -20.2479 -1.5811 0.9143
-3.9860 -9.4092 -0.7231 0.9599
-3.3414 -9.7903 -0.7320 0.9594
-2.9544 -9.7931 -0.7238 0.9598
-2.4779 -9.4247 -0.6896 0.9617
-1.7699 -9.4424 -0.6798 0.9622
-1.4220 -9.4481 -0.6761 0.9624
-0.0368 -6.3744 -0.5488 0.9747
0.6519 -6.3724 -0.5515 0.9746
0.8844 -6.3749 -0.5541 0.9745
2.0114 -9.4530 -0.8321 0.9619
5.3345 -18.4499 -1.6535 0.9258
6.6471 -18.0266 -1.6541 0.9258
7.2912 -17.7797 -1.6544 0.9257
9.1654 -16.9020 -1.6553 0.9257
9.7679 -16.5650 -1.6556 0.9257
10.3579 -16.2064 -1.6559 0.9257
16.3716 -13.2112 -1.8112 0.9190
16.8372 -12.6164 -1.8114 0.9190
17.2810 -12.0051 -1.8116 0.9190
17.7026 -11.3782 -1.8117 0.9190
18.4766 -10.0806 -1.8121 0.9190
19.7344 -7.3344 -1.8125 0.9189
20.5840 -4.4351 -1.8128 0.9189
20.7304 -3.6934 -1.8128 0.9189
21.0075 -1.4434 -1.8129 0.9189
21.0455 -0.6884 -1.8128 0.9189
21.0562 0.0675 -1.8128 0.9189
21.0396 0.8233 -1.8128 0.9189
20.9958 1.5779 -1.8127 0.9189
20.8266 3.0800 -1.8125 0.9189
20.7015 3.8253 -1.8124 0.9190
20.5495 4.5657 -1.8123 0.9190
20.1659 6.0274 -1.8120 0.9190
19.9032 6.7360 -1.8090 0.9191
18.5341 9.4137 -1.7897 0.9199
18.2892 10.1310 -1.8000 0.9195
12.7362 8.3020 -1.3089 0.9408
12.5594 10.2685 -1.3967 0.9369
12.5507 11.0363 -1.4389 0.9351
12.4932 11.8075 -1.4799 0.9333
14.7416 14.9701 -1.8088 0.9191
14.1923 15.4870 -1.8085 0.9191
13.6249 15.9837 -1.8082 0.9191
13.0400 16.4596 -1.8079 0.9191
11.1887 17.7562 -1.8069 0.9192
9.8821 18.5060 -1.8062 0.9192
9.2097 18.8450 -1.8058 0.9192
8.5255 19.1596 -1.8054 0.9193
3.1929 18.9018 -1.6504 0.9259
1.1416 19.1234 -1.6493 0.9260
-0.2333 19.1479 -1.6486 0.9260
-1.8222 11.6011 -1.0110 0.9539
-3.6742 13.6194 -1.2145 0.9449
-3.6230 11.7366 -1.0575 0.9519
-4.0924 11.7437 -1.0707 0.9513
-4.5727 11.7469 -1.0852 0.9507
-5.0669 11.7502 -1.1017 0.9499
-6.1050 11.7572 -1.1405 0.9482
-6.5734 11.6194 -1.1493 0.9478
-7.1381 11.6232 -1.1743 0.9467
-7.7287 11.6272 -1.2020 0.9455
-8.3486 11.6314 -1.2326 0.9441
-9.0018 11.6358 -1.2665 0.9426
-9.6928 11.6405 -1.3041 0.9410
-11.2109 11.6507 -1.3920 0.9371
-12.0516 11.6564 -1.4435 0.9349
-15.0133 11.6764 -1.6374 0.9265
-16.8913 8.8260 -1.6408 0.9263
-17.1959 8.2135 -1.6407 0.9263
-17.4785 7.5904 -1.6405 0.9263
-17.7387 6.9576 -1.6404 0.9264
-18.1904 5.6664 -1.6403 0.9264
-20.2623 4.7479 -1.7917 0.9198
-20.4192 4.0175 -1.7917 0.9198
-20.5500 3.2819 -1.7916 0.9198
-20.6544 2.5420 -1.7916 0.9198
-20.8085 0.3069 -1.7917 0.9198
-20.7780 -1.1869 -1.7918 0.9198
-20.6410 -2.6748 -1.7919 0.9198
-20.0508 -5.6029 -1.7924 0.9198
-19.8384 -6.3195 -1.7925 0.9198
-15.2929 -6.1116 -1.4179 0.9360
-14.6728 -6.4840 -1.3811 0.9376
-14.5943 -7.0860 -1.3967 0.9369
-18.0403 -10.4207 -1.7936 0.9198
-13.2866 -10.4708 -1.4564 0.9343
-13.9725 -14.7082 -1.7466 0.9218
-13.0097 -14.7185 -1.6912 0.9242
-12.1283 -14.7566 -1.6445 0.9262
-11.5927 -15.1850 -1.6448 0.9262
-11.0422 -15.5942 -1.6451 0.9262
-8.7033 -17.0271 -1.6463 0.9261
-8.0880 -17.3320 -1.6466 0.9261
-3.9860 -9.4091 -0.8798 0.9598
-3.1910 -9.3494 -0.8505 0.9611
-2.8504 -9.4482 -0.8496 0.9612
-1.7691 -9.4381 -0.8267 0.9622
-1.0010 -6.6509 -0.5790 0.9734
-0.4920 -6.3288 -0.6441 0.9748
-0.0365 -6.3298 -0.6423 0.9749
0.4179 -6.3193 -0.6426 0.9749
0.6468 -6.3229 -0.6449 0.9748
0.8758 -6.3133 -0.6467 0.9747
5.0845 -15.4796 -1.6532 0.9366
6.1840 -15.0797 -1.6537 0.9366
7.3126 -14.7233 -1.6680 0.9360
8.6748 -14.7113 -1.7329 0.9336
9.3979 -14.7043 -1.7707 0.9322
11.1581 -13.9002 -1.8086 0.9308
12.1296 -13.0670 -1.8090 0.9308
12.5923 -12.6246 -1.8092 0.9308
13.4685 -11.6912 -1.8096 0.9308
13.8809 -11.2013 -1.8098 0.9308
14.2754 -10.6968 -1.8100 0.9308
15.9622 -7.9791 -1.8107 0.9308
16.2393 -7.4014 -1.8108 0.9308
16.7302 -6.2178 -1.8110 0.9308
17.3035 -4.3837 -1.8112 0.9307
17.4501 -3.7598 -1.8112 0.9307
17.6753 -2.4982 -1.8112 0.9307
17.8090 -1.2237 -1.8112 0.9307
17.8412 -0.5836 -1.8112 0.9307
17.8364 0.6979 -1.8111 0.9307
17.5502 3.2430 -1.8109 0.9308
17.4215 3.8707 -1.8108 0.9308
17.2703 4.4933 -1.8107 0.9308
16.6835 6.3225 -1.8103 0.9308
15.2792 9.1954 -1.8094 0.9308
12.7271 8.2961 -1.5415 0.9407
12.5192 8.8167 -1.5536 0.9403
13.7992 11.2822 -1.8085 0.9308
13.3836 11.7687 -1.8083 0.9309
12.4933 11.8076 -1.7442 0.9332
12.0358 13.1338 -1.8075 0.9309
11.0592 13.9594 -1.8070 0.9309
10.0261 14.7123 -1.8064 0.9309
9.4900 15.0603 -1.8062 0.9309
8.9418 15.3887 -1.8059 0.9309
7.2320 16.2526 -1.8049 0.9310
4.1023 10.1891 -1.1145 0.9568
4.0090 12.4745 -1.3295 0.9487
3.1644 11.2133 -1.1822 0.9542
3.0307 12.4305 -1.2982 0.9499
2.7394 13.2924 -1.3770 0.9469
2.7090 16.0374 -1.6503 0.9367
2.1312 16.1214 -1.6500 0.9367
1.5509 16.1846 -1.6497 0.9367
0.9687 16.2270 -1.6494 0.9367
-3.6231 11.7370 -1.2463 0.9518
-4.0924 11.7437 -1.2618 0.9512
-5.0669 11.7502 -1.2984 0.9499
-6.1050 11.7573 -1.3442 0.9481
-6.5734 11.6194 -1.3545 0.9477
-9.0018 11.6358 -1.4927 0.9426
-9.6929 11.6405 -1.5370 0.9409
-11.2109 11.6507 -1.6405 0.9371
-11.6414 11.2597 -1.6433 0.9370
-12.0369 10.8334 -1.6431 0.9370
-12.4167 10.3933 -1.6429 0.9370
-14.0669 8.0057 -1.6422 0.9370
-14.3442 7.4951 -1.6421 0.9370
-14.8432 6.4459 -1.6419 0.9370
-15.0643 5.9086 -1.6419 0.9370
-15.6104 4.2544 -1.6417 0.9370
-17.3412 3.4119 -1.7932 0.9314
-17.4522 2.7871 -1.7932 0.9314
-17.5409 2.1588 -1.7932 0.9314
-17.6507 0.8948 -1.7932 0.9314
-17.6457 -1.0080 -1.7933 0.9314
-17.5987 -1.6408 -1.7934 0.9314
-17.5291 -2.2715 -1.7935 0.9314
-17.1860 -4.1435 -1.7937 0.9314
-17.0273 -4.7580 -1.7938 0.9314
-16.6444 -5.9682 -1.7941 0.9314
-15.3395 -6.1303 -1.6761 0.9357
-16.1760 -7.1482 -1.7944 0.9314
-15.9105 -7.7250 -1.7946 0.9314
-14.9924 -9.3936 -1.7951 0.9313
-13.9006 -10.9547 -1.7958 0.9313
-13.3023 -11.2804 -1.7697 0.9323
-12.6474 -12.3905 -1.7965 0.9313
-11.7292 -13.2697 -1.7970 0.9313
-10.7501 -14.0813 -1.7975 0.9313
-9.6369 -14.7015 -1.7836 0.9318
-8.9036 -14.7087 -1.7445 0.9332
-8.2007 -14.7153 -1.7093 0.9345
-7.5246 -14.7212 -1.6775 0.9357
-6.8742 -14.7308 -1.6494 0.9367
-3.5682 -9.3432 -1.0148 0.9606
-3.1933 -9.3561 -1.0031 0.9610
-0.7213 -6.3288 -0.6463 0.9747
-0.4891 -6.2923 -0.7377 0.9749
-0.2623 -6.2903 -0.7359 0.9750
0.4150 -6.2749 -0.7350 0.9750
0.6411 -6.2671 -0.7363 0.9749
0.8676 -6.2541 -0.7380 0.9749
1.0972 -6.2514 -0.7418 0.9748
2.0114 -9.4530 -1.1296 0.9618
3.6850 -14.7040 -1.7718 0.9408
4.8033 -14.6233 -1.7991 0.9399
6.3725 -14.0775 -1.8062 0.9397
6.8747 -13.8415 -1.8064 0.9397
7.8520 -13.3160 -1.8069 0.9396
8.3260 -13.0272 -1.8071 0.9396
8.7893 -12.7215 -1.8073 0.9396
9.2414 -12.3992 -1.8075 0.9396
10.1094 -11.7068 -1.8079 0.9396
10.5242 -11.3376 -1.8081 0.9396
11.2685 -10.5140 -1.8014 0.9398
12.3852 -9.2804 -1.8089 0.9396
13.0210 -8.3692 -1.8092 0.9396
13.3140 -7.8969 -1.8093 0.9396
14.6986 -4.8698 -1.8099 0.9395
14.8644 -4.3392 -1.8099 0.9395
15.1381 -3.2617 -1.8100 0.9395
15.4494 -1.0615 -1.8100 0.9395
15.4774 -0.5062 -1.8100 0.9395
15.4854 0.0496 -1.8100 0.9395
15.4733 0.6054 -1.8100 0.9395
15.4412 1.1605 -1.8099 0.9395
15.3891 1.7139 -1.8099 0.9395
15.3171 2.2652 -1.8098 0.9395
14.4741 5.4852 -1.8092 0.9396
14.0412 6.5086 -1.8089 0.9396
13.7973 7.0078 -1.8088 0.9396
13.2566 7.9782 -1.8084 0.9396
12.9604 8.4481 -1.8083 0.9396
12.5193 8.8167 -1.7898 0.9402
10.8477 11.0159 -1.8071 0.9396
8.7007 12.7675 -1.8059 0.9397
7.7601 13.3551 -1.8054 0.9397
7.2747 13.6231 -1.8051 0.9397
6.7800 13.8734 -1.8049 0.9397
6.2767 14.1058 -1.8046 0.9397
3.5141 12.4522 -1.5123 0.9492
3.0307 12.4305 -1.4955 0.9498
2.6835 13.0212 -1.5539 0.9479
-0.1718 14.1064 -1.6489 0.9448
-1.5982 13.2661 -1.5618 0.9476
-1.8222 11.6010 -1.3726 0.9538
-3.0137 13.0116 -1.5611 0.9476
-3.6232 11.7373 -1.4358 0.9517
-4.0924 11.7437 -1.4536 0.9511
-5.0531 11.7182 -1.4916 0.9499
-5.5617 11.7216 -1.5165 0.9491
-7.1381 11.6233 -1.5943 0.9465
-7.7287 11.6272 -1.6319 0.9453
-8.2067 11.4337 -1.6450 0.9449
-8.6108 11.1305 -1.6448 0.9449
-9.3852 10.4817 -1.6445 0.9449
-10.1110 9.7794 -1.6441 0.9449
-10.4545 9.4093 -1.6440 0.9449
-11.6898 7.8136 -1.6435 0.9449
-12.2186 6.9538 -1.6432 0.9450
-12.4596 6.5103 -1.6431 0.9450
-13.0853 5.1324 -1.6429 0.9450
-14.9476 3.5026 -1.7944 0.9400
-15.2945 1.3271 -1.7944 0.9400
-15.3324 0.7773 -1.7944 0.9400
-15.3491 -0.3248 -1.7945 0.9400
-15.3279 -0.8756 -1.7945 0.9400
-15.2870 -1.4252 -1.7945 0.9400
-15.1464 -2.5186 -1.7947 0.9400
-15.0469 -3.0608 -1.7948 0.9400
-14.9281 -3.5991 -1.7948 0.9400
-14.6331 -4.6614 -1.7950 0.9400
-14.0501 -6.2088 -1.7954 0.9400
-13.8193 -6.7097 -1.7956 0.9400
-13.5707 -7.2020 -1.7957 0.9400
-13.0214 -8.1586 -1.7960 0.9400
-12.7214 -8.6216 -1.7962 0.9400
-12.0726 -9.5141 -1.7966 0.9400
-11.7246 -9.9424 -1.7968 0.9400
-11.3614 -10.3581 -1.7970 0.9400
-10.9836 -10.7605 -1.7972 0.9400
-9.7668 -11.8834 -1.7979 0.9399
-8.8914 -12.5568 -1.7984 0.9399
-8.4361 -12.8696 -1.7986 0.9399
-7.0066 -13.7078 -1.7994 0.9399
-6.5110 -13.9525 -1.7996 0.9399
-3.5692 -9.3457 -1.1693 0.9605
-2.8224 -9.3555 -1.1422 0.9614
-1.8071 -6.8734 -0.8307 0.9718
-1.4230 -6.3282 -0.7581 0.9742
-1.1795 -6.2928 -0.7483 0.9745
-0.9450 -6.2785 -0.7421 0.9748
-0.4843 -6.2297 -0.8270 0.9751
-0.2598 -6.2314 -0.8255 0.9751
0.1876 -6.2238 -0.8241 0.9752
0.6356 -6.2135 -0.8267 0.9751
1.0917 -6.2198 -0.8358 0.9748
2.8371 -13.3338 -1.8043 0.9465
3.3144 -13.2251 -1.8046 0.9465
4.7187 -12.7970 -1.8053 0.9465
5.6261 -12.4285 -1.8057 0.9464
6.0693 -12.2200 -1.8059 0.9464
6.5048 -11.9956 -1.8061 0.9464
6.9319 -11.7557 -1.8063 0.9464
7.3503 -11.5005 -1.8065 0.9464
7.7592 -11.2305 -1.8067 0.9464
8.9242 -10.3343 -1.8072 0.9464
10.6306 -8.5784 -1.8080 0.9464
11.2202 -7.7947 -1.8083 0.9464
11.7520 -6.9705 -1.8085 0.9464
11.9953 -6.5445 -1.8086 0.9464
12.2231 -6.1100 -1.8087 0.9464
12.4351 -5.6675 -1.8088 0.9464
12.6311 -5.2177 -1.8088 0.9464
13.2494 -3.3566 -1.8090 0.9463
13.3615 -2.8789 -1.8091 0.9463
13.5939 -1.4258 -1.8091 0.9463
13.6363 -0.9370 -1.8091 0.9463
