ply
format ascii 1.0
element vertex 1552
property float32 x
property float32 y
property float32 z
property float32 I
end_header
26.0420 16.9752 1.1200 0.8830
25.8487 18.2039 1.1391 0.8811
26.5021 25.0475 1.3139 0.8642
25.9962 26.3992 1.3349 0.8622
26.0481 32.8789 1.5114 0.8454
26.2057 38.4542 1.6767 0.8301
26.4389 41.9577 1.7868 0.8200
26.7007 50.0016 2.0423 0.7970
26.4657 54.1549 2.1718 0.7856
26.6893 59.9797 2.3654 0.7689
26.0508 81.0591 3.0677 0.7112
-1.0154 83.3515 3.0034 0.7163
-1.9471 40.4607 1.4595 0.8503
-2.4224 15.4223 0.5625 0.9394
-2.6943 13.8823 0.5095 0.9450
-3.2171 13.8894 0.5137 0.9445
-3.7491 13.8966 0.5186 0.9440
-4.5223 11.6174 0.4492 0.9513
-5.5708 11.7407 0.4682 0.9493
-6.1002 11.7479 0.4769 0.9484
-6.6503 11.7554 0.4866 0.9474
-7.8419 11.7975 0.5104 0.9449
-8.4740 11.8061 0.5236 0.9435
-12.2317 11.8306 0.6131 0.9342
-58.8326 39.3243 2.5497 0.7533
-68.7907 35.9442 2.7965 0.7330
-83.9429 36.4532 3.2974 0.6933
-78.1930 30.6692 3.0263 0.7145
-76.9105 27.0229 2.9372 0.7216
-77.2786 21.0612 2.8859 0.7257
-78.4677 18.3867 2.9038 0.7243
-80.5113 15.8404 2.9565 0.7201
-86.7714 -14.4284 3.1693 0.7032
-37.0021 -14.7875 1.4357 0.8526
-77.1881 -40.9641 3.1485 0.7049
-71.1868 -41.1200 2.9620 0.7196
-46.9566 -34.3465 2.0961 0.7923
-39.3703 -35.8935 1.9196 0.8080
-40.1461 -39.3307 2.0250 0.7986
-20.8297 -23.5657 1.1332 0.8817
-28.3731 -34.5219 1.6100 0.8362
-22.3847 -31.6126 1.3956 0.8564
-20.1606 -33.3051 1.4027 0.8557
-20.2097 -36.2641 1.4958 0.8469
-16.7820 -39.6144 1.5501 0.8418
-15.1399 -39.6430 1.5290 0.8438
-13.5200 -39.6129 1.5081 0.8457
-8.9379 -39.7462 1.4678 0.8495
-1.2066 -15.5221 0.3235 0.9396
-1.6602 -39.8127 0.8281 0.8526
-0.2310 -40.0278 0.8318 0.8520
1.2677 -42.0570 0.8744 0.8451
2.6377 -39.8851 0.8306 0.8522
3.2388 -15.2215 0.3234 0.9396
11.6334 -40.2354 0.8704 0.8457
14.7824 -40.0894 0.8879 0.8429
16.5407 -40.3349 0.9059 0.8399
18.1151 -40.0181 0.9128 0.8388
44.5189 -75.4984 1.8214 0.7042
44.8509 -70.1756 1.7307 0.7166
44.9209 -65.0175 1.6422 0.7289
44.9786 -48.4548 1.3739 0.7676
45.1883 -45.3044 1.3297 0.7741
45.2689 -39.2951 1.2457 0.7868
45.3060 -36.5600 1.2098 0.7922
52.6232 -36.5575 1.3315 0.7739
56.2141 -36.1314 1.3887 0.7654
61.8438 -36.6816 1.4942 0.7500
73.3433 -36.6624 1.7039 0.7203
80.7110 -36.7857 1.8432 0.7013
85.3161 -28.2663 1.8677 0.6980
43.4696 9.6581 0.9254 0.8368
31.8792 9.5283 0.6914 0.8754
26.4771 10.0339 0.5884 0.8929
25.7424 13.0748 0.6000 0.8909
25.8485 18.2037 0.6570 0.8812
25.8680 19.6435 0.6750 0.8781
25.9820 22.8471 0.7190 0.8707
26.5018 25.0471 0.7578 0.8643
26.0371 28.4124 0.8008 0.8571
26.0157 30.5199 0.8334 0.8518
26.0478 32.8785 0.8717 0.8455
26.2728 45.2151 1.0867 0.8112
26.7004 50.0011 1.1779 0.7971
-1.0168 83.4705 1.7347 0.7161
-2.4458 15.5713 0.3276 0.9389
-3.2245 13.9213 0.2970 0.9444
-3.7577 13.9286 0.2998 0.9439
-4.2920 13.9039 0.3024 0.9434
-4.5168 12.9614 0.2852 0.9466
-5.5860 11.7727 0.2708 0.9492
-6.6685 11.7875 0.2814 0.9473
-8.4971 11.8382 0.3028 0.9434
-11.3986 11.8457 0.3416 0.9363
-12.2319 11.8307 0.3536 0.9342
-13.2247 11.9024 0.3697 0.9313
-14.1974 11.8837 0.3847 0.9286
-58.7910 42.4269 1.5066 0.7482
-58.8331 39.3247 1.4706 0.7534
-83.2207 36.1395 1.8854 0.6956
-82.9447 32.5330 1.8515 0.7001
-84.8828 29.8240 1.8696 0.6977
-92.5832 28.8400 2.0151 0.6784
-36.3311 9.9015 0.7825 0.8601
-86.7546 -14.4257 1.8276 0.7034
-36.9989 -14.7863 0.8280 0.8526
-73.3702 -38.9379 1.7261 0.7173
-49.4461 -30.9807 1.2125 0.7918
-46.8148 -31.7276 1.1752 0.7975
-46.8493 -34.2680 1.2062 0.7928
-29.7558 -23.4498 0.7873 0.8594
-38.3149 -32.4911 1.0440 0.8179
-29.5412 -26.9324 0.8307 0.8522
-31.8667 -31.2195 0.9270 0.8365
-29.6861 -31.2491 0.8957 0.8416
-20.9952 -23.7529 0.6588 0.8809
-22.1993 -31.3508 0.7983 0.8575
-20.5651 -31.3730 0.7795 0.8606
-20.2570 -39.6309 0.9249 0.8369
-16.8316 -39.7312 0.8967 0.8414
-3.0694 -16.3753 0.3462 0.9355
-2.4658 -16.3834 0.3443 0.9359
3.2386 -15.2203 0.0862 0.9397
16.5154 -44.7893 0.2645 0.8262
17.4718 -42.6052 0.2551 0.8318
19.1543 -42.3137 0.2573 0.8304
43.9661 -81.0788 0.5110 0.6915
43.0915 -73.0776 0.4701 0.7122
44.9203 -65.0167 0.4379 0.7290
44.9836 -60.3547 0.4171 0.7400
45.0412 -56.1100 0.3987 0.7499
44.9792 -48.4553 0.3663 0.7676
45.2312 -45.3474 0.3549 0.7740
45.4073 -39.4153 0.3332 0.7862
52.6716 -36.5911 0.3553 0.7737
32.5178 -20.9006 0.2142 0.8567
73.3449 -36.6631 0.4543 0.7204
81.6528 -30.3466 0.4827 0.7058
89.3451 -26.0816 0.5157 0.6891
58.5943 -10.4395 0.3299 0.7881
35.8133 -1.1715 0.1985 0.8665
36.5938 9.5208 0.2095 0.8596
31.8790 9.5283 0.1844 0.8754
25.7984 10.8511 0.1551 0.8941
25.8135 11.9654 0.1576 0.8924
25.8292 13.1189 0.1605 0.8906
25.8120 15.5344 0.1669 0.8865
25.8297 16.8368 0.1708 0.8840
25.8482 18.2036 0.1752 0.8812
25.8678 19.6434 0.1800 0.8782
24.9680 23.5975 0.1903 0.8716
26.0096 26.4129 0.2054 0.8622
26.0475 32.8781 0.2324 0.8455
26.2049 38.4531 0.2578 0.8302
25.2608 40.0880 0.2626 0.8273
26.2812 53.7774 0.3316 0.7871
26.0474 58.5371 0.3550 0.7739
3.9660 41.3895 0.2304 0.8468
-1.0182 83.5812 0.4631 0.7158
-1.9886 41.3236 0.2292 0.8475
-2.2284 26.4701 0.1472 0.8992
-2.3891 19.8309 0.1107 0.9232
-2.4458 15.5712 0.0873 0.9389
-3.7577 13.9284 0.0799 0.9439
-4.5168 12.9617 0.0761 0.9466
-5.0736 11.7657 0.0710 0.9500
-5.5859 11.7726 0.0722 0.9492
-6.1167 11.7798 0.0735 0.9483
-7.8632 11.8295 0.0787 0.9448
-8.4970 11.8381 0.0807 0.9434
-9.1653 11.8472 0.0830 0.9418
-12.2320 11.8308 0.0943 0.9342
-59.4562 39.7412 0.3962 0.7512
-58.9884 36.4349 0.3842 0.7578
-83.9435 36.4534 0.5071 0.6935
-92.6786 36.3509 0.5516 0.6715
-36.3314 9.9016 0.2087 0.8602
-86.4289 20.2522 0.4919 0.7011
-96.4945 15.4102 0.5414 0.6765
-79.9592 -38.8225 0.4925 0.7008
-67.5706 -39.0312 0.4324 0.7319
-42.2309 -30.8899 0.2899 0.8112
-29.9342 -23.5904 0.2112 0.8586
-36.5182 -30.9674 0.2653 0.8257
-34.0045 -31.0016 0.2550 0.8319
-29.5089 -31.0626 0.2374 0.8425
-20.9783 -23.7338 0.1755 0.8810
-25.5739 -31.1161 0.2232 0.8512
-22.0668 -31.1637 0.2116 0.8583
-20.5653 -31.3734 0.2078 0.8607
-2.5195 -9.5828 0.0549 0.9611
-1.7921 -9.5606 0.0539 0.9618
-1.0879 -9.5448 0.0532 0.9623
-0.3955 -9.4833 -0.0920 0.9627
-0.0546 -9.4630 -0.0918 0.9629
3.2441 -31.7131 -0.3091 0.8803
3.2383 -15.2192 -0.1509 0.9397
26.2409 -90.7562 -0.9161 0.6853
26.3655 -71.5024 -0.7390 0.7372
26.4612 -58.4554 -0.6222 0.7736
26.4304 -48.7409 -0.5376 0.8011
26.6522 -38.5758 -0.4546 0.8290
20.5766 -20.6295 -0.2825 0.8900
32.3304 -30.1659 -0.4288 0.8379
24.2903 -21.0850 -0.3119 0.8793
32.3940 -26.1406 -0.4036 0.8466
61.8460 -36.6828 -0.6972 0.7500
19.9899 -9.9924 -0.2167 0.9145
21.6670 -9.8752 -0.2309 0.9091
81.6064 -33.7106 -0.8562 0.7024
20.4356 -6.7706 -0.2087 0.9175
73.7072 -21.5166 -0.7445 0.7355
94.3801 -23.9106 -0.9441 0.6774
79.7234 -8.3621 -0.7773 0.7257
95.2021 -6.5415 -0.9253 0.6827
35.8062 -1.1713 -0.3474 0.8665
35.7313 0.1145 -0.3465 0.8668
42.4899 9.4404 -0.4221 0.8402
26.4767 10.0338 -0.2746 0.8929
25.7982 10.8510 -0.2714 0.8941
25.8133 11.9653 -0.2759 0.8924
25.8118 15.5343 -0.2921 0.8865
26.0409 18.3392 -0.3088 0.8804
26.0605 19.7898 -0.3173 0.8773
25.9598 21.2247 -0.3251 0.8745
25.9815 22.8466 -0.3355 0.8708
24.6883 25.0712 -0.3412 0.8687
26.0471 32.8777 -0.4067 0.8455
26.1657 35.5804 -0.4282 0.8381
26.2045 38.4524 -0.4512 0.8302
24.3459 38.6361 -0.4428 0.8330
26.2720 45.2138 -0.5071 0.8112
18.1216 50.1328 -0.5169 0.8080
8.2364 33.7818 -0.3372 0.8701
18.2298 88.4560 -0.8757 0.6968
2.2378 94.3105 -0.9147 0.6857
-0.7031 57.7149 -0.5597 0.7938
-2.2284 26.4698 -0.2576 0.8992
-2.4458 15.5710 -0.1528 0.9389
-2.7005 13.9140 -0.1374 0.9449
-3.7576 13.9283 -0.1399 0.9439
-4.2920 13.9036 -0.1411 0.9435
-4.5170 12.9620 -0.1331 0.9466
-5.0735 11.7656 -0.1242 0.9500
-6.1167 11.7797 -0.1287 0.9483
-6.6683 11.7872 -0.1313 0.9473
-7.8631 11.8294 -0.1377 0.9448
-9.8460 11.8244 -0.1492 0.9403
-10.5965 11.8345 -0.1540 0.9384
-11.3983 11.8454 -0.1594 0.9364
-12.2321 11.8310 -0.1650 0.9342
-13.2243 11.9021 -0.1725 0.9313
-14.1970 11.8834 -0.1795 0.9286
-73.8784 57.4578 -0.9075 0.6877
-73.4722 53.0217 -0.8786 0.6960
-58.8342 39.3254 -0.6862 0.7535
-58.8744 36.3645 -0.6710 0.7582
-68.7866 35.9420 -0.7526 0.7331
-75.4396 36.0323 -0.8107 0.7157
-84.0738 13.4265 -0.8256 0.7114
-50.0679 2.5381 -0.4861 0.8183
-93.3876 -8.7069 -0.9095 0.6872
-94.0179 -19.1247 -0.9303 0.6813
-69.4105 -19.3957 -0.6988 0.7495
-57.2886 -20.5421 -0.5901 0.7839
-36.9926 -14.7837 -0.3863 0.8527
-57.3037 -25.3226 -0.6075 0.7783
-47.5127 -23.0688 -0.5121 0.8095
-47.2598 -25.0810 -0.5188 0.8073
-15.6826 -9.8260 -0.1795 0.9286
-14.5080 -9.8325 -0.1699 0.9323
-29.5811 -23.3122 -0.3652 0.8601
-29.5093 -31.0630 -0.4154 0.8425
-20.7121 -23.4325 -0.3033 0.8824
-20.4269 -24.8537 -0.3119 0.8792
-22.0670 -31.1640 -0.3703 0.8583
-11.6841 -20.9657 -0.2327 0.9085
-4.0365 -9.5282 -0.1003 0.9595
-3.6366 -9.5223 -0.0988 0.9600
-2.8718 -9.5193 -0.0964 0.9610
-2.5000 -9.5087 -0.0953 0.9614
-1.7812 -9.5027 -0.0937 0.9621
-0.3947 -9.4648 -0.2362 0.9628
-0.0546 -9.4601 -0.2359 0.9629
0.2853 -9.4638 -0.2361 0.9628
3.5594 -20.2792 -0.5135 0.9209
5.0881 -20.3025 -0.5220 0.9197
5.8740 -20.3156 -0.5274 0.9189
7.5011 -20.3427 -0.5407 0.9169
9.2206 -20.3693 -0.5576 0.9144
10.1242 -20.3843 -0.5676 0.9130
11.0621 -20.3999 -0.5787 0.9113
12.0042 -20.3576 -0.5894 0.9098
13.0579 -20.4311 -0.6047 0.9075
14.2249 -20.5889 -0.6241 0.9047
19.2618 -20.7505 -0.7061 0.8929
20.4414 -20.4939 -0.7219 0.8906
22.5341 -21.0254 -0.7686 0.8840
25.8149 -20.8316 -0.8273 0.8757
27.8450 -20.8649 -0.8677 0.8700
30.2477 -21.0132 -0.9185 0.8630
19.8021 -9.8986 -0.5521 0.9152
21.5754 -9.8334 -0.5913 0.9095
19.2514 -7.1549 -0.5122 0.9211
19.3737 -6.4188 -0.5090 0.9216
65.4985 -16.5936 -1.6850 0.7631
52.5668 -11.3262 -1.3410 0.8064
53.8135 -9.5877 -1.3632 0.8036
35.8033 -1.1712 -0.8934 0.8665
73.7603 2.8861 -1.8409 0.7443
73.6674 5.5364 -1.8423 0.7441
73.1902 10.8237 -1.8451 0.7438
72.8058 13.4534 -1.8464 0.7436
33.2328 8.6464 -0.8564 0.8716
28.4562 9.6307 -0.7492 0.8867
26.4765 10.0337 -0.7061 0.8929
25.8131 11.9652 -0.7095 0.8924
26.0211 13.2164 -0.7278 0.8898
26.0375 14.4231 -0.7423 0.8877
25.8292 16.8365 -0.7689 0.8839
12.5230 9.5096 -0.3921 0.9390
17.5597 16.5958 -0.6025 0.9079
17.6502 17.9238 -0.6273 0.9042
17.6390 19.2481 -0.6511 0.9008
17.4066 20.4201 -0.6692 0.8982
13.4355 21.3216 -0.6285 0.9041
12.3456 21.2467 -0.6128 0.9064
17.7081 39.7960 -1.0863 0.8401
13.0410 32.3905 -0.8708 0.8696
12.0249 33.2665 -0.8821 0.8680
9.8864 30.7622 -0.8058 0.8787
8.6852 30.7766 -0.7975 0.8799
8.2202 33.7151 -0.8654 0.8704
8.4281 40.8957 -1.0413 0.8461
4.0392 67.6599 -1.6903 0.7625
1.6067 67.7135 -1.6891 0.7626
-0.6993 57.4050 -1.4317 0.7948
-1.9886 41.3235 -1.0318 0.8474
-2.7005 13.9138 -0.3535 0.9449
-3.7576 13.9282 -0.3598 0.9439
-4.2919 13.9035 -0.3629 0.9434
-4.5170 12.9623 -0.3423 0.9466
-4.5221 11.6170 -0.3109 0.9513
-5.0735 11.7654 -0.3195 0.9500
-6.6683 11.7871 -0.3377 0.9473
-8.4968 11.8379 -0.3634 0.9434
-9.1651 11.8469 -0.3735 0.9418
-10.5964 11.8344 -0.3961 0.9384
-12.2322 11.8311 -0.4244 0.9342
-13.2242 11.9020 -0.4437 0.9313
-14.1968 11.8832 -0.4617 0.9286
-37.7449 23.3136 -1.1064 0.8374
-57.1403 32.5194 -1.6396 0.7687
-37.7884 19.7450 -1.0633 0.8432
-27.9017 10.9437 -0.7474 0.8870
-31.9890 9.9647 -0.8356 0.8745
-32.1492 8.7618 -0.8310 0.8752
-64.5486 7.9442 -1.6219 0.7709
-49.4997 2.5093 -1.2360 0.8201
-70.7893 -1.4979 -1.7658 0.7533
-70.3925 -6.5629 -1.7631 0.7536
-70.0611 -9.0790 -1.7618 0.7538
-69.6422 -11.5802 -1.7606 0.7539
-61.1737 -19.4870 -1.6011 0.7735
-17.7174 -6.3530 -0.4694 0.9275
-57.3078 -25.3244 -1.5625 0.7783
-47.5137 -23.0693 -1.3172 0.8095
-47.2602 -25.0812 -1.3343 0.8073
-16.7611 -9.6818 -0.4827 0.9255
-14.2039 -10.3895 -0.4389 0.9320
-29.0808 -24.6605 -0.9509 0.8585
-46.4641 -48.9106 -1.6824 0.7634
-20.4272 -24.8540 -0.8023 0.8792
-20.4535 -26.7916 -0.8406 0.8738
-39.4398 -55.6986 -1.7020 0.7610
-37.5163 -57.2329 -1.7066 0.7605
-12.1215 -20.0245 -0.5837 0.9106
-11.1684 -20.0404 -0.5721 0.9123
-3.6147 -9.4650 -0.2527 0.9603
-3.2274 -9.4560 -0.2492 0.9608
-2.8516 -9.4523 -0.2462 0.9613
-2.1266 -9.4568 -0.2417 0.9620
-1.4243 -9.4631 -0.2387 0.9624
-0.7349 -9.4538 -0.3811 0.9628
-0.0546 -9.4592 -0.3802 0.9628
0.2853 -9.4639 -0.3805 0.9628
1.3833 -20.9168 -0.8425 0.9195
2.1298 -20.8200 -0.8412 0.9196
2.8385 -20.4618 -0.8303 0.9206
3.2379 -15.2169 -0.6253 0.9396
9.3093 -20.5653 -0.9073 0.9136
12.0043 -20.3579 -0.9499 0.9097
13.1339 -20.5499 -0.9802 0.9070
16.3989 -20.4290 -1.0529 0.9004
17.9165 -20.7475 -1.1018 0.8961
19.2409 -20.7280 -1.1367 0.8930
27.8448 -20.8647 -1.3985 0.8700
30.0047 -20.8444 -1.4684 0.8639
32.4219 -20.8390 -1.5491 0.8570
18.4654 -10.0746 -0.8454 0.9192
21.4461 -9.7745 -0.9473 0.9100
18.5210 -6.8834 -0.7941 0.9239
43.3912 -12.6667 -1.8168 0.8345
43.8448 -11.1078 -1.8179 0.8344
44.5820 -7.9429 -1.8200 0.8342
36.6289 -1.1982 -1.4730 0.8635
40.9732 7.5713 -1.6747 0.8464
28.4555 9.6305 -1.2074 0.8867
26.4762 10.0336 -1.1380 0.8928
18.0134 10.8410 -0.8450 0.9193
11.9560 11.2997 -0.6612 0.9363
17.3821 18.9678 -1.0340 0.9021
17.3689 20.3760 -1.0761 0.8984
17.4384 22.0114 -1.1287 0.8937
17.4928 23.7868 -1.1867 0.8885
11.8992 20.4784 -0.9519 0.9095
17.6413 36.0982 -1.6148 0.8514
8.8255 31.2735 -1.3060 0.8780
10.3508 42.4537 -1.7563 0.8395
3.2798 34.2275 -1.3820 0.8714
-0.5070 41.6278 -1.6732 0.8465
-2.3013 19.1028 -0.7733 0.9259
-2.7005 13.9137 -0.5697 0.9448
-3.7576 13.9280 -0.5798 0.9439
-4.2919 13.9034 -0.5848 0.9434
-4.5221 11.6169 -0.5010 0.9513
-5.5858 11.7723 -0.5237 0.9492
-6.6682 11.7870 -0.5443 0.9472
-21.6005 35.1729 -1.6590 0.8477
-7.8629 11.8291 -0.5709 0.9447
-10.5962 11.8343 -0.6384 0.9384
-11.3980 11.8451 -0.6607 0.9363
-12.2324 11.8312 -0.6840 0.9341
-14.1966 11.8831 -0.7441 0.9286
-34.5691 23.1064 -1.6712 0.8467
-34.9728 21.6014 -1.6521 0.8483
-35.7019 20.3185 -1.6510 0.8484
-36.3844 19.0114 -1.6499 0.8485
-27.8110 10.9081 -1.2007 0.8873
-28.1106 8.7565 -1.1834 0.8888
-44.0336 5.4194 -1.7831 0.8373
-44.1758 3.8332 -1.7822 0.8374
-44.2903 0.6532 -1.7803 0.8375
-44.2632 -0.9366 -1.7794 0.8376
-44.1797 -2.5237 -1.7786 0.8377
-43.2874 -8.8053 -1.7754 0.8379
-18.8018 -5.9894 -0.7931 0.9240
-17.2522 -6.1862 -0.7366 0.9293
-16.3805 -6.5463 -0.7090 0.9318
-36.2929 -17.6212 -1.6215 0.8509
-17.9507 -9.5265 -0.8168 0.9219
-16.5834 -9.5792 -0.7697 0.9262
-14.1144 -10.3240 -0.7028 0.9324
-29.0810 -24.6608 -1.5325 0.8584
-29.1065 -26.5361 -1.5830 0.8541
-28.2647 -29.7529 -1.6494 0.8485
-12.1327 -20.0432 -0.9417 0.9105
-5.2304 -9.3853 -0.4318 0.9579
-4.4037 -9.4366 -0.4185 0.9592
-2.8502 -9.4475 -0.3966 0.9613
-2.4843 -9.4489 -0.3927 0.9616
-2.1251 -9.4501 -0.3893 0.9620
-1.4226 -9.4519 -0.3842 0.9625
-1.0774 -9.4526 -0.3824 0.9626
-0.5621 -7.2307 -0.4023 0.9714
-0.3942 -9.4545 -0.5248 0.9628
1.3668 -20.6678 -1.1488 0.9204
2.0857 -20.3894 -1.1368 0.9212
3.2376 -15.2158 -0.8628 0.9396
5.1220 -20.4378 -1.1686 0.9191
6.8294 -20.7916 -1.2138 0.9161
7.5448 -20.4612 -1.2096 0.9163
10.1927 -20.5221 -1.2709 0.9123
15.4552 -20.7363 -1.4344 0.9016
19.2474 -20.7349 -1.5692 0.8928
22.4651 -19.5006 -1.6500 0.8877
23.1621 -18.6908 -1.6508 0.8876
24.4673 -16.9975 -1.6524 0.8875
19.1063 -9.5507 -1.1847 0.9180
21.0696 -9.6029 -1.2843 0.9114
18.0770 -7.4674 -1.0848 0.9246
21.3965 -6.2461 -1.2363 0.9146
31.9777 -6.8900 -1.8143 0.8772
32.2183 -5.7402 -1.8151 0.8771
32.4172 -4.5819 -1.8159 0.8771
32.6886 -2.2461 -1.8173 0.8770
32.7906 0.1051 -1.8187 0.8769
32.7776 1.2825 -1.8194 0.8769
29.5683 5.4638 -1.6677 0.8865
29.3620 6.5236 -1.6682 0.8865
29.1171 7.5756 -1.6687 0.8864
28.4547 9.6302 -1.6661 0.8866
24.4356 10.2779 -1.4703 0.8992
23.4885 11.9300 -1.4612 0.8998
26.0370 14.4228 -1.6509 0.8876
12.4470 8.1135 -0.8241 0.9422
12.0758 8.5044 -0.8192 0.9425
11.9030 9.0388 -0.8290 0.9419
11.8462 10.4168 -0.8749 0.9388
11.8601 11.2091 -0.9051 0.9367
17.3873 20.3976 -1.4866 0.8982
17.4948 23.7895 -1.6378 0.8884
13.4995 19.8092 -1.3296 0.9084
13.3845 30.0793 -1.8260 0.8764
12.2942 30.5355 -1.8257 0.8765
11.1882 30.9518 -1.8254 0.8765
8.9351 31.6621 -1.8247 0.8765
6.6374 32.2067 -1.8238 0.8766
2.8920 21.8763 -1.2239 0.9154
1.7919 30.0159 -1.6678 0.8865
0.7130 30.0516 -1.6672 0.8865
-2.1509 25.5489 -1.4221 0.9024
-2.2987 14.6351 -0.8217 0.9424
-3.1855 13.7532 -0.7830 0.9450
-3.7123 13.7604 -0.7905 0.9445
-4.2500 13.7677 -0.7992 0.9439
-4.5173 12.9629 -0.7614 0.9465
-4.5221 11.6168 -0.6914 0.9513
-5.0734 11.7652 -0.7106 0.9500
-5.5857 11.7722 -0.7227 0.9491
-6.6681 11.7869 -0.7511 0.9472
-15.6288 25.4489 -1.6564 0.8872
-9.0344 11.6779 -0.8189 0.9426
-9.7319 11.6874 -0.8435 0.9409
-11.2662 11.7082 -0.9012 0.9370
-12.1171 11.7197 -0.9350 0.9347
-13.0355 11.7321 -0.9727 0.9322
-15.1214 11.7604 -1.0625 0.9261
-27.5809 17.0357 -1.7980 0.8782
-28.1611 16.0269 -1.7972 0.8783
-28.7045 14.9985 -1.7963 0.8783
-29.2107 13.9519 -1.7955 0.8784
-29.6787 12.8883 -1.7946 0.8784
-27.7266 9.7419 -1.6300 0.8889
-30.8500 9.6099 -1.7922 0.8786
-31.4324 7.3653 -1.7906 0.8787
-31.8529 5.0869 -1.7891 0.8788
-32.0020 3.9386 -1.7883 0.8788
-32.1100 2.7862 -1.7876 0.8789
-32.1768 1.6312 -1.7869 0.8789
-31.4968 -6.4069 -1.7827 0.8792
-31.2376 -7.5313 -1.7822 0.8792
-30.9386 -8.6453 -1.7817 0.8792
-18.8400 -6.0015 -1.0967 0.9238
-16.8438 -6.0397 -0.9925 0.9308
-16.1214 -6.4428 -0.9629 0.9328
-16.0663 -7.0997 -0.9742 0.9321
-17.7954 -9.4441 -1.1174 0.9225
-15.1750 -9.5080 -0.9932 0.9308
-13.8337 -10.9020 -0.9769 0.9319
-22.3831 -18.9809 -1.6277 0.8891
-16.6530 -15.1823 -1.2499 0.9137
-20.9614 -20.5357 -1.6276 0.8891
-20.3478 -21.4221 -1.6388 0.8884
-19.7629 -22.3529 -1.6547 0.8873
-19.0502 -23.1786 -1.6641 0.8867
-17.3528 -24.5064 -1.6655 0.8867
-16.4696 -25.1252 -1.6663 0.8866
-12.1329 -20.0435 -1.2995 0.9104
-5.2304 -9.3854 -0.5959 0.9579
-4.9914 -9.7653 -0.6083 0.9570
-4.5599 -9.7714 -0.5981 0.9577
-3.5979 -9.4208 -0.5593 0.9604
-1.9516 -6.4688 -0.3748 0.9733
-1.6964 -6.4523 -0.3700 0.9736
-1.4516 -6.4550 -0.3670 0.9738
-0.9801 -6.5119 -0.3652 0.9740
-0.5086 -6.5427 -0.4644 0.9740
1.3667 -20.6655 -1.4655 0.9203
3.2213 -15.1392 -1.0953 0.9398
6.7965 -20.6915 -1.5411 0.9164
7.5448 -20.4614 -1.5432 0.9163
8.3243 -20.2991 -1.5525 0.9158
9.2844 -20.5101 -1.5931 0.9137
10.1942 -20.5253 -1.6217 0.9122
11.0729 -20.4198 -1.6437 0.9111
11.8030 -20.0164 -1.6443 0.9110
12.5185 -19.5870 -1.6449 0.9110
13.2185 -19.1321 -1.6455 0.9110
13.9019 -18.6523 -1.6461 0.9109
15.2158 -17.6201 -1.6474 0.9109
16.4534 -16.4956 -1.6486 0.9108
17.0414 -15.9005 -1.6493 0.9108
18.4174 -14.8621 -1.6747 0.9095
21.4591 -13.7928 -1.8051 0.9028
18.7477 -11.1199 -1.5424 0.9163
20.9915 -11.4528 -1.6921 0.9086
18.0104 -7.4399 -1.3789 0.9248
18.0137 -6.6949 -1.3599 0.9258
21.3974 -6.2463 -1.5773 0.9145
24.8098 -6.2854 -1.8111 0.9025
25.0281 -5.3926 -1.8117 0.9024
25.3672 -3.5854 -1.8129 0.9024
25.4877 -2.6734 -1.8135 0.9023
25.5752 -1.7573 -1.8140 0.9023
25.6296 -0.8383 -1.8146 0.9023
25.6507 0.0822 -1.8151 0.9023
25.6386 1.0032 -1.8156 0.9022
25.5143 2.8416 -1.8166 0.9022
22.9587 5.1010 -1.6642 0.9100
22.2913 7.5443 -1.6653 0.9099
22.0103 8.3412 -1.6656 0.9099
21.7005 9.1275 -1.6659 0.9099
21.3624 9.9022 -1.6661 0.9099
12.4473 7.4912 -1.0280 0.9434
11.8392 8.3377 -1.0247 0.9436
11.8237 8.9786 -1.0506 0.9422
11.8185 10.3925 -1.1136 0.9388
14.4966 21.2723 -1.8216 0.9019
13.7229 21.7778 -1.8215 0.9019
12.1232 22.7028 -1.8212 0.9019
11.2994 23.1211 -1.8210 0.9020
10.4610 23.5092 -1.8208 0.9020
9.6092 23.8666 -1.8206 0.9020
3.2810 15.9205 -1.1502 0.9369
2.8810 21.7937 -1.5556 0.9156
-0.2863 23.4998 -1.6630 0.9101
-2.2447 18.6329 -1.3280 0.9275
-2.2988 14.6357 -1.0483 0.9423
-2.6679 13.7461 -0.9909 0.9454
-3.7123 13.7603 -1.0085 0.9445
-4.2500 13.7675 -1.0196 0.9439
-4.5220 11.6167 -0.8821 0.9512
-6.6681 11.7867 -0.9583 0.9471
-10.4736 11.6973 -1.1110 0.9390
-13.0353 11.7320 -1.2410 0.9321
-14.0322 11.7455 -1.2949 0.9292
-15.1212 11.7603 -1.3555 0.9261
-19.8000 12.2297 -1.6468 0.9109
-20.9764 10.0190 -1.6449 0.9110
-24.2096 7.5414 -1.7943 0.9033
-24.6714 5.7810 -1.7931 0.9034
-25.0060 3.9934 -1.7919 0.9034
-25.2121 2.1877 -1.7908 0.9035
-25.2667 1.2809 -1.7902 0.9035
-25.2890 0.3729 -1.7897 0.9036
-25.0548 -3.2468 -1.7877 0.9037
-24.9159 -4.1430 -1.7873 0.9037
-18.8595 -6.0077 -1.4006 0.9237
-17.7957 -9.4443 -1.4256 0.9224
-16.4541 -9.5045 -1.3446 0.9266
-14.0346 -9.5116 -1.1997 0.9343
-13.9556 -10.2078 -1.2235 0.9330
-16.6384 -15.1690 -1.5932 0.9137
-16.4778 -16.1431 -1.6323 0.9116
-15.2766 -17.2832 -1.6323 0.9117
-14.6465 -17.8206 -1.6323 0.9116
-12.6471 -19.2937 -1.6324 0.9116
-11.9471 -19.7366 -1.6325 0.9116
-4.5599 -9.7715 -0.7630 0.9577
-3.9851 -9.4070 -0.7229 0.9599
-3.5973 -9.4194 -0.7135 0.9604
-2.1844 -6.4003 -0.4785 0.9732
-1.9277 -6.3897 -0.4723 0.9736
-1.6849 -6.4087 -0.4689 0.9738
-1.4412 -6.4090 -0.4648 0.9740
-0.7325 -6.4273 -0.4578 0.9744
-0.0568 -9.8357 -0.8468 0.9613
1.2567 -19.0029 -1.6396 0.9264
2.6181 -18.8725 -1.6403 0.9264
3.2946 -18.7709 -1.6407 0.9263
3.2192 -15.1293 -1.3317 0.9398
4.6352 -18.4955 -1.6416 0.9263
6.6020 -17.9044 -1.6429 0.9262
7.8740 -17.3945 -1.6438 0.9262
8.4958 -17.1055 -1.6443 0.9262
9.1070 -16.7945 -1.6448 0.9262
9.7069 -16.4616 -1.6453 0.9261
10.8696 -15.7324 -1.6463 0.9261
11.4308 -15.3368 -1.6468 0.9261
15.3015 -14.2771 -1.8017 0.9194
15.8091 -13.7229 -1.8023 0.9194
16.2967 -13.1508 -1.8029 0.9194
16.7636 -12.5613 -1.8034 0.9193
17.6327 -11.3333 -1.8046 0.9193
18.0338 -10.6964 -1.8051 0.9193
18.4118 -10.0453 -1.8057 0.9192
18.7663 -9.3808 -1.8063 0.9192
20.1698 -5.8879 -1.8090 0.9191
20.5519 -4.4282 -1.8100 0.9191
20.9257 -2.1949 -1.8114 0.9190
21.0399 -0.6882 -1.8124 0.9190
21.0067 1.5787 -1.8136 0.9189
20.7283 3.8303 -1.8148 0.9189
20.3948 5.3062 -1.8143 0.9189
20.1198 6.0136 -1.8079 0.9191
19.5061 6.6017 -1.7729 0.9206
18.5510 7.8027 -1.7326 0.9224
18.1823 8.4281 -1.7254 0.9227
17.8721 9.0774 -1.7258 0.9227
12.4168 7.4728 -1.2477 0.9435
11.9269 7.7745 -1.2257 0.9444
11.8095 8.3168 -1.2435 0.9437
11.8206 8.9763 -1.2778 0.9422
11.8365 9.6775 -1.3163 0.9405
11.8329 12.0164 -1.4519 0.9345
14.2684 15.5702 -1.8182 0.9187
13.7004 16.0723 -1.8182 0.9187
12.5115 17.0132 -1.8181 0.9187
11.8923 17.4508 -1.8181 0.9187
11.2577 17.8656 -1.8180 0.9187
9.9457 18.6250 -1.8178 0.9187
8.5823 19.2873 -1.8175 0.9187
7.1749 19.8491 -1.8171 0.9188
6.4570 20.0914 -1.8169 0.9188
5.7308 20.3075 -1.8166 0.9188
3.3206 16.1125 -1.4163 0.9361
2.5299 19.1376 -1.6619 0.9254
1.8410 19.2125 -1.6616 0.9254
-0.9270 19.2624 -1.6603 0.9255
-2.6679 13.7460 -1.2055 0.9453
-4.2499 13.7674 -1.2405 0.9438
-4.5175 12.9634 -1.1819 0.9464
-4.5220 11.6166 -1.0732 0.9512
-5.5856 11.7719 -1.1218 0.9490
-7.7507 11.6603 -1.2054 0.9453
-11.2660 11.7079 -1.3988 0.9368
-15.9129 10.6363 -1.6478 0.9260
-16.6246 9.4613 -1.6468 0.9261
-16.9483 8.8557 -1.6463 0.9261
-17.5293 7.6123 -1.6453 0.9261
-17.7860 6.9761 -1.6448 0.9262
-18.2300 5.6787 -1.6439 0.9262
-20.6732 2.5443 -1.7932 0.9198
-20.7919 1.0540 -1.7923 0.9198
-20.8113 0.3069 -1.7919 0.9198
-20.8040 -0.4402 -1.7915 0.9199
-20.6225 -2.6724 -1.7903 0.9199
-20.5091 -3.4103 -1.7899 0.9199
-19.2863 -7.7076 -1.7881 0.9200
-17.1691 -7.5871 -1.6160 0.9274
-18.6787 -9.0691 -1.7876 0.9200
-18.3390 -9.7326 -1.7874 0.9200
-17.9759 -10.3835 -1.7872 0.9200
-17.5900 -11.0211 -1.7871 0.9200
-17.1816 -11.6444 -1.7869 0.9200
-14.7789 -14.4787 -1.7812 0.9203
-13.8975 -14.6293 -1.7372 0.9222
-12.9455 -14.6458 -1.6829 0.9245
-12.0611 -14.6749 -1.6354 0.9266
-11.5267 -15.0986 -1.6354 0.9266
-10.9776 -15.5031 -1.6354 0.9266
-10.4145 -15.8878 -1.6355 0.9266
-5.2305 -9.3856 -0.9250 0.9578
-3.9845 -9.4055 -0.8794 0.9598
-1.1917 -6.3577 -0.5569 0.9744
-0.9575 -6.3620 -0.5539 0.9745
-0.7266 -6.3755 -0.5524 0.9746
-0.4911 -6.3180 -0.6430 0.9748
-0.2989 -7.1677 -0.7279 0.9716
1.6463 -16.0935 -1.6414 0.9370
3.2171 -15.1194 -1.5684 0.9397
3.9360 -15.7053 -1.6428 0.9370
4.4982 -15.5574 -1.6432 0.9370
5.0549 -15.3894 -1.6436 0.9369
6.6955 -14.7909 -1.6474 0.9368
7.3438 -14.7862 -1.6751 0.9358
11.1045 -13.8334 -1.7999 0.9312
12.5373 -12.5695 -1.8013 0.9311
12.9839 -12.1146 -1.8018 0.9311
13.4140 -11.6439 -1.8023 0.9311
13.8270 -11.1579 -1.8028 0.9311
14.2225 -10.6572 -1.8033 0.9310
14.9584 -9.6145 -1.8042 0.9310
15.2979 -9.0737 -1.8047 0.9310
15.6179 -8.5210 -1.8052 0.9310
15.9179 -7.9569 -1.8056 0.9310
16.4562 -6.7979 -1.8066 0.9309
17.1044 -4.9931 -1.8079 0.9309
17.2768 -4.3770 -1.8084 0.9309
17.4269 -3.7549 -1.8088 0.9308
17.5546 -3.1276 -1.8092 0.9308
17.6596 -2.4960 -1.8096 0.9308
17.7418 -1.8609 -1.8100 0.9308
17.8010 -1.2231 -1.8104 0.9308
17.8372 -0.5835 -1.8108 0.9308
17.8071 1.3383 -1.8119 0.9307
17.7509 1.9770 -1.8122 0.9307
17.2967 4.5002 -1.8134 0.9307
16.9341 5.7312 -1.8139 0.9306
16.4834 6.9331 -1.8144 0.9306
16.2258 7.5212 -1.8146 0.9306
15.9470 8.0996 -1.8148 0.9306
15.6475 8.6677 -1.8150 0.9306
11.9239 7.7725 -1.4442 0.9444
11.8424 8.9928 -1.5088 0.9420
11.8371 10.4089 -1.5994 0.9386
11.7635 11.1178 -1.6423 0.9370
12.0906 13.1936 -1.8158 0.9306
11.6092 13.6191 -1.8158 0.9306
10.0772 14.7873 -1.8157 0.9306
9.5395 15.1389 -1.8156 0.9306
8.4279 15.7827 -1.8154 0.9306
7.2728 16.3444 -1.8151 0.9306
6.0803 16.8210 -1.8148 0.9306
3.3393 10.3905 -1.1074 0.9571
2.6939 11.0492 -1.1539 0.9553
2.0933 12.3923 -1.2752 0.9507
2.1443 16.2202 -1.6601 0.9363
0.3879 16.3488 -1.6593 0.9364
-0.1992 16.3492 -1.6590 0.9364
-0.7858 16.3285 -1.6587 0.9364
-1.3711 16.2867 -1.6584 0.9364
-2.2990 14.6370 -1.5033 0.9422
-3.1854 13.7528 -1.4324 0.9448
-3.7122 13.7600 -1.4461 0.9443
-4.2499 13.7673 -1.4619 0.9437
-4.5176 12.9637 -1.3929 0.9463
-5.0732 11.7649 -1.3000 0.9498
-6.6679 11.7865 -1.3740 0.9470
-8.5277 13.8859 -1.6534 0.9366
-8.3753 11.6686 -1.4574 0.9439
-11.6914 11.3080 -1.6503 0.9367
-12.0866 10.8781 -1.6499 0.9367
-12.4659 10.4344 -1.6495 0.9367
-13.5045 9.0266 -1.6481 0.9368
-14.1099 8.0301 -1.6473 0.9368
-15.4766 4.8210 -1.6448 0.9369
-15.8299 4.3142 -1.6648 0.9362
-17.5545 2.1605 -1.7946 0.9314
-17.6682 -0.3739 -1.7931 0.9314
-17.6400 -1.0077 -1.7927 0.9314
-17.5158 -2.2698 -1.7921 0.9315
-17.4200 -2.8966 -1.7918 0.9315
-17.3020 -3.5195 -1.7915 0.9315
-17.1618 -4.1376 -1.7912 0.9315
-16.9997 -4.7503 -1.7909 0.9315
-16.8158 -5.3567 -1.7907 0.9315
-16.6105 -5.9561 -1.7904 0.9315
-16.1365 -7.1307 -1.7900 0.9315
-15.5801 -8.2684 -1.7896 0.9315
-15.2719 -8.8215 -1.7895 0.9315
-14.5974 -9.8930 -1.7892 0.9316
-14.2320 -10.4100 -1.7891 0.9316
-13.8484 -10.9136 -1.7890 0.9316
-12.1425 -12.7818 -1.7888 0.9316
-11.6757 -13.2093 -1.7888 0.9316
-10.6981 -14.0132 -1.7888 0.9316
-9.6039 -14.6512 -1.7775 0.9320
-5.2306 -9.3857 -1.0902 0.9577
-2.6774 -6.3202 -0.6964 0.9728
-1.6617 -6.3203 -0.6631 0.9741
-1.4206 -6.3173 -0.6570 0.9743
-1.1834 -6.3134 -0.6517 0.9745
-0.9507 -6.3169 -0.6482 0.9746
-0.4866 -6.2596 -0.7338 0.9750
1.5074 -14.7358 -1.7314 0.9421
2.0445 -14.7381 -1.7391 0.9418
2.5871 -14.7399 -1.7492 0.9415
3.6947 -14.7425 -1.7764 0.9406
4.2514 -14.7037 -1.7890 0.9402
4.7838 -14.5641 -1.7918 0.9401
5.3126 -14.4076 -1.7948 0.9400
6.3416 -14.0091 -1.7974 0.9399
9.2018 -12.3461 -1.7998 0.9399
9.6412 -12.0106 -1.8002 0.9399
11.2714 -10.5168 -1.8019 0.9398
12.3453 -9.2506 -1.8031 0.9398
12.9832 -8.3449 -1.8039 0.9397
13.8145 -6.9055 -1.8052 0.9397
14.0567 -6.4066 -1.8056 0.9397
14.2807 -5.8992 -1.8060 0.9397
14.8418 -4.3326 -1.8072 0.9396
14.9909 -3.7979 -1.8075 0.9396
15.1207 -3.2580 -1.8079 0.9396
15.2310 -2.7136 -1.8083 0.9396
15.3924 -1.6145 -1.8090 0.9396
15.4434 -1.0611 -1.8093 0.9396
15.4744 -0.5062 -1.8097 0.9396
15.4853 0.0496 -1.8100 0.9395
15.4762 0.6056 -1.8103 0.9395
15.3288 2.2669 -1.8112 0.9395
15.0026 3.9033 -1.8119 0.9395
14.5013 5.4955 -1.8126 0.9395
14.2962 6.0131 -1.8128 0.9395
14.0725 6.5231 -1.8130 0.9394
13.8305 7.0247 -1.8131 0.9394
11.8101 8.3172 -1.6884 0.9435
12.0138 9.8224 -1.8138 0.9394
10.8890 11.0579 -1.8139 0.9394
10.4852 11.4417 -1.8140 0.9394
9.6372 12.1644 -1.8139 0.9394
8.7392 12.8239 -1.8139 0.9394
8.2730 13.1290 -1.8138 0.9394
7.3090 13.6874 -1.8136 0.9394
6.3074 14.1748 -1.8134 0.9394
5.7941 14.3910 -1.8133 0.9394
3.0301 12.4279 -1.4952 0.9498
2.5575 12.4099 -1.4810 0.9503
0.8454 14.1622 -1.6583 0.9445
-0.6816 14.1644 -1.6575 0.9445
-2.5585 13.1823 -1.5695 0.9474
-3.0295 13.0795 -1.5692 0.9474
-3.9585 12.8234 -1.5686 0.9474
-4.4154 12.6705 -1.5683 0.9474
-4.5219 11.6163 -1.4570 0.9510
-5.5703 11.7396 -1.5188 0.9490
-9.0409 10.8575 -1.6514 0.9447
-9.7920 10.1762 -1.6507 0.9447
-10.8217 9.0582 -1.6495 0.9448
-11.4384 8.2546 -1.6487 0.9448
-11.7246 7.8369 -1.6484 0.9448
-11.9956 7.4092 -1.6480 0.9448
-12.2510 6.9722 -1.6476 0.9448
-12.4906 6.5265 -1.6472 0.9448
-10.4064 4.5191 -1.3261 0.9553
-13.1110 5.1425 -1.6461 0.9449
-13.2843 4.6675 -1.6458 0.9449
-14.9660 3.5069 -1.7967 0.9400
-15.1730 2.4231 -1.7959 0.9400
-15.3368 0.7775 -1.7949 0.9400
-15.3477 -0.3247 -1.7943 0.9400
-15.3235 -0.8753 -1.7940 0.9401
-15.2798 -1.4246 -1.7937 0.9401
-15.2164 -1.9719 -1.7934 0.9401
-15.1336 -2.5164 -1.7931 0.9401
-14.0203 -6.1956 -1.7916 0.9401
-13.7876 -6.6943 -1.7914 0.9401
-12.9850 -8.1358 -1.7910 0.9402
-12.6838 -8.5961 -1.7909 0.9402
-12.3664 -9.0454 -1.7908 0.9402
-12.0332 -9.4830 -1.7907 0.9402
-11.6845 -9.9085 -1.7907 0.9402
-11.3210 -10.3212 -1.7906 0.9402
-8.3988 -12.8127 -1.7907 0.9402
-5.2306 -9.3858 -1.2559 0.9577
-2.9222 -6.2620 -0.8077 0.9726
-2.6482 -6.2511 -0.7935 0.9730
-2.1390 -6.2671 -0.7740 0.9737
-1.6491 -6.2721 -0.7580 0.9742
-1.4100 -6.2701 -0.7512 0.9745
-1.1750 -6.2685 -0.7454 0.9746
-0.9437 -6.2703 -0.7411 0.9748
-0.4838 -6.2233 -0.8262 0.9751
0.4085 -13.5531 -1.7947 0.9468
0.8949 -13.5317 -1.7949 0.9468
2.8241 -13.2725 -1.7960 0.9467
4.2367 -12.8986 -1.7970 0.9467
5.1531 -12.5659 -1.7976 0.9467
5.6019 -12.3752 -1.7979 0.9467
6.9038 -11.7079 -1.7990 0.9466
7.3210 -11.4548 -1.7993 0.9466
7.7291 -11.1869 -1.7997 0.9466
8.1273 -10.9044 -1.8001 0.9466
9.6121 -9.6368 -1.8015 0.9466
10.2830 -8.9260 -1.8023 0.9465
10.9013 -8.1686 -1.8030 0.9465
11.1898 -7.7736 -1.8034 0.9465
11.7235 -6.9536 -1.8041 0.9465
11.9680 -6.5296 -1.8045 0.9465
12.1971 -6.0970 -1.8048 0.9465
12.4106 -5.6564 -1.8052 0.9465
13.1024 -3.8249 -1.8066 0.9464
13.2337 -3.3527 -1.8069 0.9464
13.4450 -2.3954 -1.8076 0.9464
13.5869 -1.4251 -1.8082 0.9464
13.6316 -0.9366 -1.8085 0.9464
13.6586 -0.4468 -1.8088 0.9464
13.6597 0.5345 -1.8093 0.9463
13.6337 1.0246 -1.8096 0.9463
13.5901 1.5136 -1.8099 0.9463
13.5288 2.0007 -1.8101 0.9463
13.4500 2.4854 -1.8103 0.9463
13.2403 3.4448 -1.8108 0.9463
12.7973 4.8498 -1.8114 0.9463
12.4186 5.7564 -1.8117 0.9463
12.2049 6.1990 -1.8118 0.9463
11.7304 7.0597 -1.8121 0.9463
10.6012 8.6675 -1.8124 0.9462
10.2836 9.0428 -1.8125 0.9462
8.8839 10.4220 -1.8126 0.9462
8.5040 10.7341 -1.8126 0.9462
8.1131 11.0323 -1.8125 0.9462
7.7117 11.3161 -1.8125 0.9462
7.3003 11.5853 -1.8124 0.9462
6.8795 11.8395 -1.8124 0.9462
6.4497 12.0783 -1.8123 0.9463
4.6477 12.8577 -1.8096 0.9463
3.3245 10.3444 -1.4381 0.9571
2.0817 12.3236 -1.6542 0.9508
1.1945 12.4656 -1.6575 0.9507
0.7462 12.4989 -1.6573 0.9507
-0.1525 12.5169 -1.6568 0.9507
-0.6016 12.5016 -1.6566 0.9508
-1.4966 12.4225 -1.6561 0.9508
-2.6848 11.5913 -1.5748 0.9531
-3.1288 11.5973 -1.5899 0.9527
-4.0457 11.6098 -1.6273 0.9516
-4.5218 11.6162 -1.6499 0.9509
-5.3554 11.2867 -1.6535 0.9508
-7.6352 9.8694 -1.6516 0.9509
-7.9830 9.5870 -1.6512 0.9509
-8.3203 9.2924 -1.6509 0.9509
-8.9619 8.6679 -1.6502 0.9509
-9.2653 8.3390 -1.6499 0.9509
-9.8357 7.6496 -1.6492 0.9510
-10.1019 7.2901 -1.6489 0.9510
-10.3549 6.9213 -1.6485 0.9510
-11.2299 5.3637 -1.6472 0.9510
-12.1860 4.2816 -1.7096 0.9492
-13.1037 3.5712 -1.7976 0.9467
-13.3214 2.6209 -1.7970 0.9467
-13.5639 0.2000 -1.7955 0.9467
-13.5393 -0.7734 -1.7949 0.9468
-13.5008 -1.2587 -1.7947 0.9468
-13.3721 -2.2235 -1.7942 0.9468
-13.1749 -3.1764 -1.7938 0.9468
-13.0509 -3.6469 -1.7935 0.9468
-12.9102 -4.1125 -1.7934 0.9468
-12.5793 -5.0272 -1.7930 0.9468
-12.3896 -5.4750 -1.7928 0.9468
-12.1841 -5.9158 -1.7927 0.9468
-11.9630 -6.3488 -1.7926 0.9468
-11.2091 -7.5967 -1.7922 0.9468
-10.3262 -8.7566 -1.7920 0.9468
-10.0050 -9.1214 -1.7920 0.9468
-9.3245 -9.8154 -1.7919 0.9468
-7.4224 -11.3233 -1.7920 0.9468
-7.0114 -11.5828 -1.7921 0.9468
-2.8945 -6.2027 -0.9060 0.9728
-2.6275 -6.2024 -0.8916 0.9732
-2.3640 -6.1900 -0.8770 0.9736
-2.1139 -6.1935 -0.8662 0.9739
-1.8710 -6.2018 -0.8574 0.9742
-1.1651 -6.2158 -0.8370 0.9748
-0.2592 -6.2170 -0.9202 0.9752
-0.0701 -12.1385 -1.7952 0.9521
0.3658 -12.1347 -1.7955 0.9521
0.8012 -12.1153 -1.7957 0.9521
1.6688 -12.0298 -1.7962 0.9521
2.0999 -11.9638 -1.7964 0.9521
2.5283 -11.8825 -1.7967 0.9521
2.9537 -11.7858 -1.7970 0.9521
4.2055 -11.4053 -1.7978 0.9520
4.6130 -11.2489 -1.7981 0.9520
5.0147 -11.0779 -1.7984 0.9520
6.5531 -10.2532 -1.7996 0.9520
6.9181 -10.0131 -1.8000 0.9520
8.6027 -8.6248 -1.8016 0.9519
8.9083 -8.3119 -1.8019 0.9519
9.2027 -7.9883 -1.8023 0.9519
9.7557 -7.3101 -1.8029 0.9519
10.4908 -6.2224 -1.8039 0.9519
10.9141 -5.4557 -1.8046 0.9519
11.1048 -5.0613 -1.8049 0.9519
11.2814 -4.6602 -1.8052 0.9518
11.4433 -4.2530 -1.8055 0.9518
11.5906 -3.8401 -1.8058 0.9518
11.7230 -3.4221 -1.8061 0.9518
11.9422 -2.5731 -1.8067 0.9518
12.0288 -2.1431 -1.8070 0.9518
12.0999 -1.7102 -1.8073 0.9518
12.1553 -1.2750 -1.8076 0.9518
12.1951 -0.8379 -1.8078 0.9518
12.2191 -0.3997 -1.8081 0.9518
12.2272 0.0392 -1.8083 0.9518
12.2196 0.4781 -1.8086 0.9518
12.1962 0.9166 -1.8088 0.9517
12.0313 2.2232 -1.8095 0.9517
11.9451 2.6540 -1.8097 0.9517
11.7264 3.5049 -1.8101 0.9517
11.4468 4.3379 -1.8104 0.9517
11.2846 4.7464 -1.8105 0.9517
11.1079 5.1489 -1.8107 0.9517
10.7113 5.9334 -1.8109 0.9517
10.2591 6.6873 -1.8111 0.9517
10.0129 7.0516 -1.8112 0.9517
9.7537 7.4068 -1.8113 0.9517
8.9017 8.4131 -1.8114 0.9517
8.2753 9.0303 -1.8115 0.9517
7.6060 9.6006 -1.8115 0.9517
7.2564 9.8674 -1.8114 0.9517
6.8974 10.1213 -1.8114 0.9517
5.7688 10.8031 -1.8112 0.9517
5.3770 11.0027 -1.8111 0.9517
4.9783 11.1880 -1.8110 0.9517
4.5682 11.3461 -1.8089 0.9517
3.3170 10.3213 -1.6033 0.9571
3.0438 10.7858 -1.6574 0.9557
2.6544 10.8872 -1.6573 0.9557
2.2617 10.9745 -1.6572 0.9557
1.8661 11.0475 -1.6570 0.9557
1.0685 11.1507 -1.6567 0.9557
-0.5382 11.1835 -1.6559 0.9557
-0.9392 11.1555 -1.6557 0.9557
-1.3389 11.1131 -1.6554 0.9557
-1.7366 11.0563 -1.6552 0.9558
-2.1321 10.9852 -1.6550 0.9558
-2.5246 10.9000 -1.6547 0.9558
-2.9139 10.8007 -1.6545 0.9558
-3.6801 10.5605 -1.6539 0.9558
-4.4268 10.2659 -1.6534 0.9558
-4.7917 10.0987 -1.6531 0.9558
-5.1502 9.9184 -1.6528 0.9558
-6.1834 9.3024 -1.6520 0.9558
-6.8324 8.8316 -1.6514 0.9559
-8.0202 7.7572 -1.6502 0.9559
-9.2679 6.1947 -1.6487 0.9559
-11.4517 4.0236 -1.7951 0.9521
-11.6099 3.6165 -1.7984 0.9520
-11.7303 3.1969 -1.7981 0.9520
-12.0594 1.4842 -1.7970 0.9521
-12.1031 1.0502 -1.7967 0.9521
-12.1312 0.6150 -1.7964 0.9521
-12.1407 -0.2569 -1.7959 0.9521
-12.0381 -1.5600 -1.7952 0.9521
-11.8924 -2.4191 -1.7948 0.9521
-11.5599 -3.6824 -1.7943 0.9521
-11.4192 -4.0946 -1.7941 0.9521
-11.2639 -4.5015 -1.7940 0.9521
-11.0942 -4.9025 -1.7938 0.9521
-10.7123 -5.6851 -1.7936 0.9521
-10.0374 -6.8026 -1.7933 0.9522
-9.7863 -7.1582 -1.7932 0.9522
-9.2469 -7.8414 -1.7931 0.9522
-8.6601 -8.4843 -1.7930 0.9522
-8.3499 -8.7896 -1.7930 0.9522
-8.0290 -9.0836 -1.7930 0.9522
-7.6978 -9.3660 -1.7930 0.9522
-6.6467 -10.1398 -1.7931 0.9522
-6.2786 -10.3721 -1.7931 0.9522
-5.9024 -10.5912 -1.7932 0.9522
-3.1461 -6.1550 -1.0223 0.9724
-2.8725 -6.1554 -1.0046 0.9729
-1.8585 -6.1603 -0.9516 0.9743
-1.6208 -6.1647 -0.9427 0.9746
-1.1579 -6.1772 -0.9295 0.9749
0.3309 -10.9803 -1.7961 0.9565
0.7250 -10.9626 -1.7963 0.9564
2.2877 -10.7514 -1.7972 0.9564
3.8050 -10.3191 -1.7982 0.9564
5.5907 -9.4810 -1.7996 0.9564
5.9284 -9.2757 -1.7999 0.9564
7.1996 -8.3372 -1.8010 0.9563
7.4954 -8.0747 -1.8013 0.9563
7.7817 -7.8017 -1.8016 0.9563
8.5797 -6.9234 -1.8025 0.9563
8.8241 -6.6121 -1.8028 0.9563
9.0573 -6.2921 -1.8031 0.9563
10.0434 -4.5775 -1.8046 0.9563
10.7076 -2.7127 -1.8060 0.9562
10.7997 -2.3270 -1.8063 0.9562
11.0277 -0.7577 -1.8073 0.9562
11.0492 -0.3614 -1.8075 0.9562
11.0565 0.0354 -1.8078 0.9562
11.0495 0.4324 -1.8080 0.9562
11.0281 0.8288 -1.8082 0.9562
10.9427 1.6183 -1.8086 0.9562
10.4829 3.5479 -1.8095 0.9561
10.3497 3.9222 -1.8096 0.9561
9.4861 5.7090 -1.8102 0.9561
9.2755 6.0461 -1.8103 0.9561
9.0528 6.3754 -1.8104 0.9561
8.0480 7.6063 -1.8106 0.9561
7.7699 7.8904 -1.8106 0.9561
7.4817 8.1643 -1.8106 0.9561
6.5605 8.9211 -1.8106 0.9561
6.2360 9.1507 -1.8105 0.9561
5.9033 9.3684 -1.8105 0.9561
4.8615 9.9477 -1.8103 0.9561
4.1222 10.2385 -1.8046 0.9563
3.4450 9.5306 -1.6569 0.9598
3.1005 9.6475 -1.6568 0.9598
2.7520 9.7519 -1.6567 0.9598
2.4000 9.8437 -1.6566 0.9598
2.0449 9.9227 -1.6565 0.9598
0.2402 10.1235 -1.6557 0.9598
-0.1233 10.1245 -1.6555 0.9598
-0.8492 10.0872 -1.6551 0.9598
-1.2106 10.0490 -1.6549 0.9598
-1.9280 9.9337 -1.6545 0.9598
-2.2830 9.8567 -1.6542 0.9598
-2.6350 9.7671 -1.6540 0.9598
-3.3280 9.5501 -1.6535 0.9598
-3.6681 9.4231 -1.6533 0.9598
-4.6578 8.9701 -1.6525 0.9599
-5.2877 8.6101 -1.6520 0.9599
-5.5924 8.4134 -1.6518 0.9599
-5.8899 8.2059 -1.6515 0.9599
-6.1797 7.9879 -1.6512 0.9599
-6.7346 7.5214 -1.6507 0.9599
-7.7366 6.4758 -1.6496 0.9599
-7.9627 6.1929 -1.6493 0.9599
-8.3837 5.6038 -1.6488 0.9600
-8.7613 4.9862 -1.6482 0.9600
-8.9332 4.6677 -1.6479 0.9600
-9.8066 4.2586 -1.7480 0.9576
-10.2252 4.0106 -1.7958 0.9565
-10.5038 3.2720 -1.7988 0.9564
-10.6129 2.8924 -1.7985 0.9564
-10.7899 2.1229 -1.7980 0.9564
-10.8576 1.7340 -1.7977 0.9564
-10.9113 1.3429 -1.7975 0.9564
-10.9766 0.5564 -1.7970 0.9564
-10.9881 0.1621 -1.7968 0.9564
-10.6749 -2.5737 -1.7954 0.9565
-10.5746 -2.9549 -1.7952 0.9565
-10.4608 -3.3323 -1.7950 0.9565
-10.3336 -3.7054 -1.7949 0.9565
-10.0396 -4.4365 -1.7946 0.9565
-9.6942 -5.1447 -1.7944 0.9565
-9.5028 -5.4891 -1.7943 0.9565
-9.2991 -5.8264 -1.7942 0.9565
-8.8564 -6.4780 -1.7940 0.9565
-8.3683 -7.0963 -1.7939 0.9565
-8.1080 -7.3920 -1.7939 0.9565
-7.8373 -7.6782 -1.7939 0.9565
-7.5566 -7.9545 -1.7939 0.9565
-7.2662 -8.2205 -1.7938 0.9565
-6.9664 -8.4761 -1.7939 0.9565
-6.0151 -9.1763 -1.7939 0.9565
-2.3459 -6.1426 -1.0751 0.9737
-2.0982 -6.1476 -1.0621 0.9740
-1.8561 -6.1523 -1.0507 0.9743
-1.6187 -6.1567 -1.0408 0.9745
-1.1561 -6.1678 -1.0260 0.9749
-0.4787 -6.1588 -1.1069 0.9752
-0.2585 -6.1983 -1.1116 0.9751
0.6617 -10.0059 -1.7968 0.9601
1.0206 -9.9767 -1.7970 0.9601
1.3782 -9.9348 -1.7972 0.9601
2.4391 -9.7326 -1.7979 0.9600
2.7872 -9.6400 -1.7981 0.9600
3.1319 -9.5349 -1.7983 0.9600
3.8089 -9.2881 -1.7988 0.9600
4.4667 -8.9934 -1.7993 0.9600
5.1020 -8.6522 -1.7998 0.9600
5.4100 -8.4648 -1.8001 0.9600
6.0052 -8.0572 -1.8006 0.9600
6.8396 -7.3682 -1.8014 0.9600
7.1008 -7.1190 -1.8017 0.9600
7.3529 -6.8606 -1.8020 0.9600
7.5956 -6.5932 -1.8022 0.9600
7.8285 -6.3173 -1.8025 0.9599
8.0515 -6.0331 -1.8028 0.9599
8.8374 -4.8216 -1.8039 0.9599
9.0061 -4.5019 -1.8041 0.9599
9.3086 -3.8453 -1.8047 0.9599
9.4420 -3.5092 -1.8049 0.9599
9.5632 -3.1684 -1.8052 0.9599
9.8524 -2.1228 -1.8059 0.9599
9.9236 -1.7680 -1.8062 0.9599
10.0599 -0.6912 -1.8068 0.9599
10.0860 0.0323 -1.8073 0.9598
10.0794 0.3944 -1.8075 0.9598
10.0599 0.7560 -1.8077 0.9598
10.0273 1.1168 -1.8079 0.9598
9.9818 1.4762 -1.8080 0.9598
9.7679 2.5414 -1.8085 0.9598
9.0027 4.5726 -1.8093 0.9598
8.8333 4.8931 -1.8094 0.9598
8.6524 5.2072 -1.8095 0.9598
8.2571 5.8151 -1.8096 0.9598
7.0869 7.1968 -1.8098 0.9598
6.8240 7.4466 -1.8098 0.9598
6.5523 7.6867 -1.8098 0.9598
6.2721 7.9169 -1.8098 0.9598
5.9838 8.1369 -1.8098 0.9598
5.6878 8.3463 -1.8098 0.9598
5.3844 8.5449 -1.8097 0.9598
4.7572 8.9087 -1.8096 0.9598
4.4342 9.0734 -1.8096 0.9598
3.7581 9.3342 -1.8030 0.9599
2.8281 8.7997 -1.6562 0.9631
2.5102 8.8950 -1.6561 0.9631
2.1891 8.9788 -1.6560 0.9631
0.8812 9.1967 -1.6555 0.9632
0.5505 9.2216 -1.6553 0.9632
0.2191 9.2345 -1.6551 0.9632
-0.1125 9.2355 -1.6550 0.9632
-0.7747 9.2016 -1.6546 0.9632
-1.4325 9.1203 -1.6543 0.9632
-1.7588 9.0619 -1.6541 0.9632
-2.0827 8.9918 -1.6539 0.9632
-2.4038 8.9102 -1.6536 0.9632
-2.7217 8.8170 -1.6534 0.9632
-3.0361 8.7125 -1.6532 0.9632
-3.3464 8.5967 -1.6530 0.9632
-3.6524 8.4699 -1.6528 0.9632
-3.9535 8.3322 -1.6525 0.9632
-5.1024 7.6761 -1.6516 0.9632
-5.3738 7.4869 -1.6513 0.9632
-5.8954 7.0800 -1.6508 0.9633
-6.3862 6.6367 -1.6503 0.9633
-6.6193 6.4022 -1.6501 0.9633
-6.8438 6.1596 -1.6498 0.9633
-7.0595 5.9090 -1.6496 0.9633
-7.2659 5.6510 -1.6493 0.9633
-7.4629 5.3857 -1.6491 0.9633
-8.8962 4.2491 -1.7666 0.9607
-9.4739 3.3287 -1.7993 0.9600
-9.8474 1.9375 -1.7983 0.9600
-2.0428 0.2514 -0.3688 0.9917
-2.0522 0.1781 -0.3691 0.9917
-2.0450 -0.1168 -0.3670 0.9917
-2.0516 -0.1913 -0.3692 0.9917
-2.0396 -0.2643 -0.3685 0.9917
-9.8226 -1.9981 -1.7961 0.9601
-9.7437 -2.3492 -1.7959 0.9601
-9.6523 -2.6972 -1.7958 0.9601
-9.3043 -3.7184 -1.7954 0.9601
-9.1642 -4.0497 -1.7953 0.9601
-8.8490 -4.6962 -1.7951 0.9601
-8.6743 -5.0106 -1.7950 0.9601
-8.4884 -5.3184 -1.7949 0.9601
-8.2917 -5.6195 -1.7948 0.9601
-8.0844 -5.9133 -1.7948 0.9601
-7.6389 -6.4778 -1.7947 0.9601
-7.1542 -7.0089 -1.7946 0.9601
-6.6328 -7.5040 -1.7946 0.9601
-5.1867 -8.5683 -1.7947 0.9601
-3.1237 -6.1112 -1.2298 0.9725
-2.8677 -6.1451 -1.2151 0.9728
-2.3427 -6.1343 -1.1766 0.9737
-0.9274 -6.1615 -1.1165 0.9750
-0.7017 -6.1569 -1.1104 0.9751
-0.4783 -6.1524 -1.2031 0.9752
-0.2573 -6.1701 -1.2039 0.9751
-0.0532 -9.2169 -1.7969 0.9631
0.9382 -9.1718 -1.7974 0.9631
1.5942 -9.0828 -1.7978 0.9631
1.9194 -9.0207 -1.7980 0.9631
2.2422 -8.9470 -1.7982 0.9631
2.8791 -8.7651 -1.7986 0.9631
4.1059 -8.2670 -1.7995 0.9631
4.4006 -8.1153 -1.7998 0.9631
4.6897 -7.9532 -1.8000 0.9631
5.2496 -7.5983 -1.8005 0.9631
5.7828 -7.2040 -1.8010 0.9631
6.0386 -6.9927 -1.8012 0.9630
6.2866 -6.7724 -1.8015 0.9630
7.1951 -5.8062 -1.8025 0.9630
7.4000 -5.5449 -1.8027 0.9630
7.7809 -5.0011 -1.8032 0.9630
7.9565 -4.7192 -1.8035 0.9630
8.1219 -4.4312 -1.8037 0.9630
8.4211 -3.8381 -1.8042 0.9630
8.8884 -2.5947 -1.8052 0.9630
8.9769 -2.2742 -1.8054 0.9630
9.1192 -1.6247 -1.8058 0.9630
9.2144 -0.9665 -1.8063 0.9629
9.2442 -0.6352 -1.8065 0.9629
9.2680 0.0297 -1.8069 0.9629
9.2619 0.3624 -1.8070 0.9629
9.1719 1.3564 -1.8076 0.9629
9.1181 1.6849 -1.8077 0.9629
9.0525 2.0113 -1.8079 0.9629
8.8863 2.6560 -1.8082 0.9629
8.7858 2.9735 -1.8083 0.9629
8.5510 3.5967 -1.8085 0.9629
8.4168 3.9015 -1.8086 0.9629
8.1161 4.4958 -1.8088 0.9629
7.9498 4.7845 -1.8089 0.9629
6.9688 6.1280 -1.8092 0.9629
6.5114 6.6124 -1.8092 0.9629
5.2259 7.6686 -1.8092 0.9629
4.9472 7.8510 -1.8091 0.9629
4.6621 8.0234 -1.8091 0.9629
4.3709 8.1853 -1.8090 0.9629
4.0741 8.3366 -1.8090 0.9629
3.7721 8.4772 -1.8089 0.9629
3.4545 8.5802 -1.8032 0.9630
2.8872 7.9873 -1.6558 0.9660
2.3064 8.1729 -1.6556 0.9660
1.7139 8.3163 -1.6554 0.9660
1.4142 8.3718 -1.6553 0.9660
1.1126 8.4166 -1.6551 0.9660
0.5058 8.4733 -1.6549 0.9660
-1.0148 8.4234 -1.6541 0.9660
-1.3164 8.3807 -1.6539 0.9660
-1.6162 8.3271 -1.6537 0.9660
-2.2089 8.1878 -1.6533 0.9660
-2.7900 8.0063 -1.6529 0.9660
-3.0752 7.9000 -1.6527 0.9660
-4.9388 6.8808 -1.6512 0.9661
-5.1818 6.6981 -1.6510 0.9661
-5.6475 6.3073 -1.6505 0.9661
-5.8695 6.0997 -1.6503 0.9661
-6.0838 5.8843 -1.6501 0.9661
-6.2902 5.6613 -1.6498 0.9661
-6.4885 5.4311 -1.6496 0.9661
-6.6783 5.1940 -1.6494 0.9661
-7.4786 4.2562 -1.6776 0.9655
-8.3183 3.9731 -1.7972 0.9631
-8.4689 3.6777 -1.8000 0.9631
-8.5943 3.3709 -1.7998 0.9631
-8.7087 3.0598 -1.7995 0.9631
-1.7744 0.5527 -0.3623 0.9925
-1.7561 0.4786 -0.3548 0.9926
-1.6983 0.2712 -0.3353 0.9930
-1.7039 0.2097 -0.3347 0.9930
-1.7073 0.1481 -0.3341 0.9930
-1.7084 0.0866 -0.3335 0.9931
-1.7076 -0.0361 -0.3330 0.9931
-1.7084 -0.0976 -0.3336 0.9931
-1.7178 -0.3494 -0.3418 0.9929
-1.7395 -0.4194 -0.3489 0.9927
-1.7595 -0.4917 -0.3562 0.9926
-1.7775 -0.5662 -0.3637 0.9924
-8.6720 -3.1095 -1.7961 0.9632
-8.5542 -3.4186 -1.7959 0.9632
-8.4255 -3.7232 -1.7958 0.9632
-8.2860 -4.0231 -1.7957 0.9632
-7.8043 -4.8898 -1.7955 0.9632
-7.4329 -5.4368 -1.7953 0.9632
-7.2327 -5.6999 -1.7953 0.9632
-7.0233 -5.9558 -1.7953 0.9632
-6.5777 -6.4441 -1.7952 0.9632
-6.3421 -6.6760 -1.7952 0.9632
-6.0983 -6.8994 -1.7952 0.9632
-5.8468 -7.1138 -1.7952 0.9632
-5.5877 -7.3192 -1.7952 0.9632
-5.3214 -7.5151 -1.7952 0.9632
-3.4394 -6.1715 -1.3774 0.9716
-3.1252 -6.1141 -1.3387 0.9724
-2.8536 -6.1149 -1.3156 0.9729
-2.3395 -6.1259 -1.2784 0.9736
-2.0926 -6.1312 -1.2630 0.9739
-1.6145 -6.1407 -1.2379 0.9745
-1.3818 -6.1447 -1.2279 0.9747
-1.1526 -6.1489 -1.2196 0.9748
-0.9260 -6.1526 -1.2130 0.9750
-0.7008 -6.1487 -1.2065 0.9751
-0.2571 -6.1662 -1.3011 0.9751
-0.0492 -8.5252 -1.7973 0.9657
0.2569 -8.5221 -1.7975 0.9657
0.5627 -8.5082 -1.7976 0.9657
0.8678 -8.4833 -1.7978 0.9657
1.1719 -8.4475 -1.7980 0.9657
1.4745 -8.4008 -1.7981 0.9657
1.7753 -8.3433 -1.7983 0.9657
2.0738 -8.2751 -1.7985 0.9657
3.7974 -7.6457 -1.7997 0.9657
4.3372 -7.3554 -1.8002 0.9657
4.5990 -7.1958 -1.8004 0.9657
4.8550 -7.0270 -1.8006 0.9657
5.3479 -6.6622 -1.8011 0.9657
5.5844 -6.4668 -1.8013 0.9657
5.8137 -6.2630 -1.8015 0.9657
6.0355 -6.0510 -1.8018 0.9657
6.4557 -5.6038 -1.8022 0.9657
6.8429 -5.1276 -1.8027 0.9656
7.0235 -4.8792 -1.8029 0.9656
7.3573 -4.3639 -1.8034 0.9656
7.6534 -3.8257 -1.8038 0.9656
7.9101 -3.2676 -1.8043 0.9656
8.1261 -2.6923 -1.8047 0.9656
8.3003 -2.1028 -1.8051 0.9656
8.3714 -1.8037 -1.8054 0.9656
8.4317 -1.5022 -1.8056 0.9656
8.4811 -1.1987 -1.8058 0.9656
8.5196 -0.8936 -1.8059 0.9656
8.5471 -0.5873 -1.8061 0.9656
8.5632 0.3351 -1.8067 0.9656
8.5464 0.6423 -1.8068 0.9656
8.5186 0.9488 -1.8070 0.9656
8.4798 1.2540 -1.8072 0.9656
8.2155 2.4555 -1.8077 0.9656
8.1226 2.7490 -1.8078 0.9656
8.0192 3.0390 -1.8079 0.9656
7.3495 4.4232 -1.8084 0.9655
6.8321 5.1881 -1.8086 0.9655
6.6416 5.4302 -1.8086 0.9655
6.4425 5.6652 -1.8086 0.9655
6.2351 5.8929 -1.8087 0.9655
6.0196 6.1129 -1.8087 0.9655
5.7963 6.3251 -1.8087 0.9655
5.5656 6.5291 -1.8087 0.9655
5.3276 6.7247 -1.8087 0.9655
4.3100 7.4175 -1.8086 0.9655
3.7665 7.7071 -1.8085 0.9655
3.4873 7.8370 -1.8084 0.9655
3.1968 7.9399 -1.8045 0.9656
1.3074 7.7399 -1.6548 0.9684
1.0287 7.7813 -1.6547 0.9684
0.1861 7.8450 -1.6543 0.9684
-0.0956 7.8459 -1.6542 0.9684
-0.3771 7.8367 -1.6541 0.9684
-1.7695 7.6397 -1.6532 0.9685
-2.0424 7.5705 -1.6531 0.9685
-2.5797 7.4028 -1.6527 0.9685
-2.8434 7.3046 -1.6525 0.9685
-3.1035 7.1970 -1.6523 0.9685
-3.3594 7.0801 -1.6521 0.9685
-3.6110 6.9541 -1.6519 0.9685
-3.8578 6.8192 -1.6517 0.9685
-4.5668 6.3626 -1.6511 0.9685
-5.2223 5.8325 -1.6505 0.9685
-5.6259 5.4414 -1.6501 0.9685
-5.8168 5.2353 -1.6498 0.9685
-6.1759 4.8032 -1.6494 0.9685
-6.5029 4.3466 -1.6490 0.9685
-6.8764 4.2473 -1.7039 0.9675
-7.3945 4.2083 -1.7937 0.9658
-7.8323 3.4013 -1.8002 0.9657
-7.9484 3.1176 -1.8000 0.9657
-1.6255 0.5711 -0.3632 0.9930
-1.6130 0.5025 -0.3562 0.9931
-1.5663 0.3082 -0.3365 0.9935
-1.5642 0.2498 -0.3340 0.9935
-1.5740 0.0798 -0.3323 0.9936
-1.5731 0.0232 -0.3317 0.9936
-1.5739 -0.0899 -0.3324 0.9936
-1.5723 -0.1466 -0.3329 0.9936
-1.5631 -0.2599 -0.3341 0.9935
-1.5865 -0.3825 -0.3441 0.9934
-1.6018 -0.4476 -0.3506 0.9932
-1.6154 -0.5146 -0.3574 0.9931
-7.9126 -3.1622 -1.7964 0.9658
-7.6645 -3.7213 -1.7962 0.9658
-7.3771 -4.2613 -1.7960 0.9658
-7.0518 -4.7792 -1.7959 0.9658
-6.6904 -5.2725 -1.7958 0.9658
-6.2946 -5.7387 -1.7957 0.9658
-6.0845 -5.9609 -1.7957 0.9658
-5.6411 -6.3820 -1.7957 0.9658
-4.6698 -7.1240 -1.7958 0.9658
-4.4111 -7.2871 -1.7958 0.9658
-3.4558 -6.2010 -1.4966 0.9714
-2.8541 -6.1161 -1.4229 0.9728
-2.0898 -6.1231 -1.3640 0.9739
-1.6125 -6.1329 -1.3369 0.9744
-0.9252 -6.1471 -1.3105 0.9749
-0.7011 -6.1510 -1.3051 0.9750
0.2388 -7.9236 -1.7978 0.9680
0.5231 -7.9106 -1.7979 0.9680
1.0895 -7.8541 -1.7983 0.9680
1.6506 -7.7571 -1.7986 0.9680
1.9281 -7.6936 -1.7988 0.9680
2.2033 -7.6202 -1.7989 0.9680
2.4756 -7.5370 -1.7991 0.9680
3.5304 -7.1081 -1.7999 0.9680
4.2755 -6.6896 -1.8005 0.9680
4.5134 -6.5326 -1.8007 0.9680
4.7456 -6.3672 -1.8009 0.9680
4.9717 -6.1934 -1.8011 0.9679
5.4045 -5.8221 -1.8016 0.9679
5.6107 -5.6251 -1.8018 0.9679
5.8096 -5.4207 -1.8020 0.9679
6.3610 -4.7664 -1.8027 0.9679
6.6882 -4.2988 -1.8031 0.9679
6.9810 -3.8088 -1.8035 0.9679
7.1141 -3.5561 -1.8037 0.9679
7.5533 -2.5025 -1.8045 0.9679
7.6391 -2.2300 -1.8047 0.9679
7.9186 -0.8306 -1.8057 0.9679
7.9441 -0.5458 -1.8059 0.9679
7.9593 -0.2604 -1.8060 0.9679
7.9642 0.0255 -1.8062 0.9679
7.9589 0.3114 -1.8064 0.9679
7.8812 1.1655 -1.8068 0.9679
7.8349 1.4478 -1.8069 0.9678
