ply
format ascii 1.0
element vertex 1593
property float32 x
property float32 y
property float32 z
property float32 I
end_header
9.3421 6.0895 -1.6492 0.9559
8.8811 6.7441 -1.6492 0.9559
8.3744 7.3639 -1.6492 0.9559
8.1046 7.6598 -1.6492 0.9559
7.2342 8.4867 -1.6492 0.9559
4.1649 10.3446 -1.6492 0.9559
3.4120 10.6168 -1.6492 0.9559
3.0287 10.7324 -1.6492 0.9559
2.6415 10.8342 -1.6492 0.9559
2.2509 10.9220 -1.6492 0.9559
1.0637 11.1007 -1.6492 0.9559
0.6646 11.1317 -1.6492 0.9559
-0.1358 11.1507 -1.6492 0.9559
-1.3338 11.0715 -1.6492 0.9559
-2.9046 10.7666 -1.6492 0.9559
-3.6696 10.5305 -1.6492 0.9559
-4.0453 10.3920 -1.6492 0.9559
-4.4157 10.2401 -1.6492 0.9559
-4.7804 10.0750 -1.6492 0.9559
-5.1390 9.8969 -1.6492 0.9559
-5.8358 9.5027 -1.6492 0.9559
-6.5025 9.0595 -1.6492 0.9559
-7.1358 8.5696 -1.6492 0.9559
-7.4388 8.3079 -1.6492 0.9559
-8.0157 7.7528 -1.6492 0.9559
-9.8784 7.1288 -1.8016 0.9519
-10.1279 6.7696 -1.8016 0.9519
-11.3409 4.4482 -1.8016 0.9519
-11.4932 4.0382 -1.8016 0.9519
-11.7533 3.2032 -1.8016 0.9519
-11.8608 2.7793 -1.8016 0.9519
-11.9529 2.3517 -1.8016 0.9519
-12.1364 1.0531 -1.8016 0.9519
-12.1664 0.6168 -1.8016 0.9519
-12.1807 0.1796 -1.8016 0.9519
-12.1622 -0.6947 -1.8016 0.9519
-12.1294 -1.1309 -1.8016 0.9519
-12.0810 -1.5655 -1.8016 0.9519
-12.0170 -1.9982 -1.8016 0.9519
-11.8427 -2.8552 -1.8016 0.9519
-11.3121 -4.5208 -1.8016 0.9519
-11.1426 -4.9239 -1.8016 0.9519
-10.5486 -6.0933 -1.8016 0.9519
-10.3231 -6.4680 -1.8016 0.9519
-9.8325 -7.1920 -1.8016 0.9519
-9.5680 -7.5403 -1.8016 0.9519
-8.7019 -8.5252 -1.8016 0.9519
-8.3903 -8.8321 -1.8016 0.9519
-8.0678 -9.1275 -1.8016 0.9519
-7.7350 -9.4113 -1.8016 0.9519
-7.3922 -9.6828 -1.8016 0.9519
-7.0398 -9.9420 -1.8016 0.9519
-5.9302 -10.6411 -1.8016 0.9519
-4.7519 -11.2170 -1.8016 0.9519
-3.5185 -11.6628 -1.8016 0.9519
-3.0976 -11.7816 -1.8016 0.9519
-2.6727 -11.8852 -1.8016 0.9519
-2.2443 -11.9735 -1.8016 0.9519
-1.8131 -12.0464 -1.8016 0.9519
-1.3795 -12.1037 -1.8016 0.9519
-0.0636 -11.0190 -1.8016 0.9563
0.7272 -10.9952 -1.8016 0.9563
1.5141 -10.9147 -1.8016 0.9563
1.9050 -10.8533 -1.8016 0.9563
2.2933 -10.7779 -1.8016 0.9563
2.6787 -10.6887 -1.8016 0.9563
3.0607 -10.5856 -1.8016 0.9563
4.9016 -9.8690 -1.8016 0.9563
5.2528 -9.6867 -1.8016 0.9563
5.5971 -9.4919 -1.8016 0.9563
6.5850 -8.8352 -1.8016 0.9563
6.8979 -8.5931 -1.8016 0.9563
7.2020 -8.3400 -1.8016 0.9563
7.7818 -7.8018 -1.8016 0.9563
8.0568 -7.5174 -1.8016 0.9563
8.2924 -6.2137 -1.6942 0.9589
9.0498 -6.2869 -1.8016 0.9563
9.8564 -4.9269 -1.8016 0.9563
10.0269 -4.5700 -1.8016 0.9563
10.1845 -4.2071 -1.8016 0.9563
10.3289 -3.8388 -1.8016 0.9563
10.5777 -3.0878 -1.8016 0.9563
10.6818 -2.7061 -1.8016 0.9563
10.7720 -2.3210 -1.8016 0.9563
10.8484 -1.9328 -1.8016 0.9563
10.9108 -1.5421 -1.8016 0.9563
10.9591 -1.1495 -1.8016 0.9563
10.9933 -0.7554 -1.8016 0.9563
11.0133 -0.3602 -1.8016 0.9563
11.0108 0.4308 -1.8016 0.9563
10.9515 1.2197 -1.8016 0.9563
10.8358 2.0023 -1.8016 0.9563
10.7569 2.3900 -1.8016 0.9563
10.6642 2.7746 -1.8016 0.9563
10.2896 3.8994 -1.7991 0.9564
9.9939 4.2035 -1.7727 0.9570
9.1517 4.2421 -1.6492 0.9599
8.9936 4.5679 -1.6492 0.9599
8.8238 4.8878 -1.6492 0.9599
8.6427 5.2014 -1.6492 0.9599
8.2472 5.8081 -1.6492 0.9599
7.8092 6.3848 -1.6492 0.9599
7.0776 7.1873 -1.6492 0.9599
4.1027 4.4769 -0.9928 0.9757
3.9189 4.5974 -0.9877 0.9758
6.2639 7.9065 -1.6492 0.9599
5.9761 8.1263 -1.6492 0.9599
5.6805 8.3356 -1.6492 0.9599
4.4290 9.0628 -1.6492 0.9599
4.1008 9.2159 -1.6492 0.9599
3.0863 9.6033 -1.6492 0.9599
2.7396 9.7080 -1.6492 0.9599
2.3894 9.8000 -1.6492 0.9599
2.0361 9.8795 -1.6492 0.9599
1.3220 10.0001 -1.6492 0.9599
0.9622 10.0411 -1.6492 0.9599
0.6011 10.0692 -1.6492 0.9599
0.2393 10.0843 -1.6492 0.9599
-0.4849 10.0754 -1.6492 0.9599
-1.2065 10.0147 -1.6492 0.9599
-2.6274 9.7389 -1.6492 0.9599
-2.9753 9.6383 -1.6492 0.9599
-3.3193 9.5253 -1.6492 0.9599
-3.6591 9.4000 -1.6492 0.9599
-4.9668 8.7796 -1.6492 0.9599
-6.4546 7.7516 -1.6492 0.9599
-6.7287 7.5149 -1.6492 0.9599
-7.4976 6.7480 -1.6492 0.9599
-8.4446 7.0685 -1.8005 0.9563
-8.9354 6.4483 -1.8016 0.9563
-9.3750 5.7906 -1.8016 0.9563
-9.9432 4.7492 -1.8016 0.9563
-10.1073 4.3892 -1.8016 0.9563
-10.3962 3.6528 -1.8016 0.9563
-10.6315 2.8975 -1.8016 0.9563
-10.7286 2.5140 -1.8016 0.9563
-10.8119 2.1272 -1.8016 0.9563
-10.9367 1.3460 -1.8016 0.9563
-10.9779 0.9526 -1.8016 0.9563
-11.0180 0.1625 -1.8016 0.9563
-11.0013 -0.6284 -1.8016 0.9563
-10.9716 -1.0229 -1.8016 0.9563
-10.9278 -1.4161 -1.8016 0.9563
-10.7123 -2.5827 -1.8016 0.9563
-10.6127 -2.9655 -1.8016 0.9563
-10.4994 -3.3446 -1.8016 0.9563
-10.2324 -4.0892 -1.8016 0.9563
-9.9126 -4.8128 -1.8016 0.9563
-9.5417 -5.5116 -1.8016 0.9563
-9.1217 -6.1820 -1.8016 0.9563
-8.8939 -6.5055 -1.8016 0.9563
-8.4043 -7.1268 -1.8016 0.9563
-7.5894 -7.9890 -1.8016 0.9563
-7.2977 -8.2563 -1.8016 0.9563
-6.6866 -8.7586 -1.8016 0.9563
-6.0409 -9.2158 -1.8016 0.9563
-5.7062 -9.4267 -1.8016 0.9563
-5.0152 -9.8118 -1.8016 0.9563
-3.9313 -10.2941 -1.8016 0.9563
-3.5593 -10.4285 -1.8016 0.9563
-2.8019 -10.6570 -1.8016 0.9563
-2.0301 -10.8306 -1.8016 0.9563
-1.6400 -10.8965 -1.8016 0.9563
-1.2478 -10.9483 -1.8016 0.9563
-0.0580 -10.0545 -1.8016 0.9600
1.0232 -10.0025 -1.8016 0.9600
1.7382 -9.9033 -1.8016 0.9600
2.4443 -9.7530 -1.8016 0.9600
3.1377 -9.5525 -1.8016 0.9600
3.4786 -9.4338 -1.8016 0.9600
3.8150 -9.3028 -1.8016 0.9600
5.1071 -8.6610 -1.8016 0.9600
5.4148 -8.4721 -1.8016 0.9600
5.7154 -8.2723 -1.8016 0.9600
6.2941 -7.8409 -1.8016 0.9600
6.5716 -7.6099 -1.8016 0.9600
6.8405 -7.3691 -1.8016 0.9600
7.1006 -7.1188 -1.8016 0.9600
7.5930 -6.5910 -1.8016 0.9600
8.2576 -5.7366 -1.8016 0.9600
8.4582 -5.4365 -1.8016 0.9600
8.8264 -4.8156 -1.8016 0.9600
9.1492 -4.1699 -1.8016 0.9600
9.2930 -3.8388 -1.8016 0.9600
9.4248 -3.5028 -1.8016 0.9600
9.5445 -3.1622 -1.8016 0.9600
9.8291 -2.1178 -1.8016 0.9600
10.0310 -0.6892 -1.8016 0.9600
10.0493 -0.3287 -1.8016 0.9600
10.0264 0.7535 -1.8016 0.9600
9.9929 1.1129 -1.8016 0.9600
9.9465 1.4709 -1.8016 0.9600
9.6336 2.8794 -1.8016 0.9600
9.5240 3.2233 -1.8016 0.9600
8.3133 4.2224 -1.6707 0.9628
7.8861 4.7461 -1.6492 0.9633
7.7107 5.0261 -1.6492 0.9633
7.1257 5.8259 -1.6492 0.9633
6.6893 6.3221 -1.6492 0.9633
5.4529 7.4150 -1.6492 0.9633
4.9069 7.7871 -1.6492 0.9633
4.3356 8.1191 -1.6492 0.9633
3.4376 8.5381 -1.6492 0.9633
3.1289 8.6560 -1.6492 0.9633
1.5330 9.0756 -1.6492 0.9633
0.5485 9.1878 -1.6492 0.9633
0.2183 9.2016 -1.6492 0.9633
-0.1121 9.2035 -1.6492 0.9633
-0.7721 9.1717 -1.6492 0.9633
-2.0769 8.9668 -1.6492 0.9633
-2.3974 8.8865 -1.6492 0.9633
-2.7148 8.7947 -1.6492 0.9633
-3.3388 8.5772 -1.6492 0.9633
-3.6446 8.4518 -1.6492 0.9633
-3.9456 8.3155 -1.6492 0.9633
-4.5320 8.0111 -1.6492 0.9633
-4.8167 7.8432 -1.6492 0.9633
-5.0951 7.6652 -1.6492 0.9633
-6.6159 6.3989 -1.6492 0.9633
-7.6964 6.4422 -1.7984 0.9600
-7.9368 6.1728 -1.8016 0.9600
-8.1533 5.8839 -1.8016 0.9600
-8.3592 5.5874 -1.8016 0.9600
-8.5544 5.2838 -1.8016 0.9600
-8.7386 4.9733 -1.8016 0.9600
-9.2226 4.0050 -1.8016 0.9600
-9.4862 3.3330 -1.8016 0.9600
-9.5997 2.9904 -1.8016 0.9600
-9.7895 2.2939 -1.8016 0.9600
-2.0428 0.2514 -0.3688 0.9917
-2.0521 0.1781 -0.3691 0.9917
-2.0449 -0.1168 -0.3670 0.9917
-9.7746 -2.3566 -1.8016 0.9600
-9.3367 -3.7313 -1.8016 0.9600
-9.1967 -4.0641 -1.8016 0.9600
-8.8814 -4.7134 -1.8016 0.9600
-8.7065 -5.0292 -1.8016 0.9600
-7.8971 -6.2235 -1.8016 0.9600
-7.6686 -6.5030 -1.8016 0.9600
-7.4302 -6.7741 -1.8016 0.9600
-7.1823 -7.0364 -1.8016 0.9600
-6.6589 -7.5336 -1.8016 0.9600
-6.3842 -7.7678 -1.8016 0.9600
-5.8104 -8.2058 -1.8016 0.9600
-4.5762 -8.9529 -1.8016 0.9600
-4.2519 -9.1114 -1.8016 0.9600
-3.5872 -9.3930 -1.8016 0.9600
-3.2477 -9.5157 -1.8016 0.9600
-2.5566 -9.7242 -1.8016 0.9600
-2.2059 -9.8097 -1.8016 0.9600
-1.4964 -9.9427 -1.8016 0.9600
-1.1386 -9.9900 -1.8016 0.9600
-0.3850 -9.2333 -1.8016 0.9630
0.2784 -9.2371 -1.8016 0.9630
0.6098 -9.2212 -1.8016 0.9630
3.1972 -8.6706 -1.8016 0.9630
3.5064 -8.5503 -1.8016 0.9630
4.1108 -8.2767 -1.8016 0.9630
4.6940 -7.9604 -1.8016 0.9630
4.9767 -7.7868 -1.8016 0.9630
5.5226 -7.4097 -1.8016 0.9630
5.7850 -7.2067 -1.8016 0.9630
6.5262 -6.5430 -1.8016 0.9630
6.9788 -6.0579 -1.8016 0.9630
7.1918 -5.8035 -1.8016 0.9630
7.3955 -5.5416 -1.8016 0.9630
8.2661 -4.1320 -1.8016 0.9630
8.4091 -3.8326 -1.8016 0.9630
8.6624 -3.2194 -1.8016 0.9630
9.0340 -1.9465 -1.8016 0.9630
9.0981 -1.6210 -1.8016 0.9630
9.2196 -0.6335 -1.8016 0.9630
9.2364 -0.3021 -1.8016 0.9630
9.2413 0.0296 -1.8016 0.9630
9.2343 0.3613 -1.8016 0.9630
9.2153 0.6925 -1.8016 0.9630
9.1845 1.0229 -1.8016 0.9630
9.0213 2.0044 -1.8016 0.9630
8.9436 2.3269 -1.8016 0.9630
8.8543 2.6464 -1.8016 0.9630
8.7536 2.9626 -1.8016 0.9630
8.6416 3.2749 -1.8016 0.9630
8.5185 3.5830 -1.8016 0.9630
8.2070 4.1684 -1.7946 0.9632
7.6138 4.2176 -1.6969 0.9652
7.0869 4.6195 -1.6492 0.9661
6.7373 5.1161 -1.6492 0.9661
6.3528 5.5863 -1.6492 0.9661
4.0954 4.4690 -1.1817 0.9756
3.9108 4.5879 -1.1753 0.9757
5.0119 6.8152 -1.6492 0.9661
4.7640 6.9907 -1.6492 0.9661
4.5100 7.1572 -1.6492 0.9661
4.2501 7.3144 -1.6492 0.9661
3.9848 7.4623 -1.6492 0.9661
3.7144 7.6005 -1.6492 0.9661
3.4392 7.7290 -1.6492 0.9661
1.4090 8.3414 -1.6492 0.9661
1.1087 8.3866 -1.6492 0.9661
0.5041 8.4446 -1.6492 0.9661
-0.1030 8.4590 -1.6492 0.9661
-0.4066 8.4498 -1.6492 0.9661
-1.0118 8.3989 -1.6492 0.9661
-1.3127 8.3571 -1.6492 0.9661
-1.9089 8.2414 -1.6492 0.9661
-3.0687 7.8834 -1.6492 0.9661
-3.3497 7.7681 -1.6492 0.9661
-3.6264 7.6429 -1.6492 0.9661
-3.8984 7.5078 -1.6492 0.9661
-4.4271 7.2087 -1.6492 0.9661
-4.6830 7.0452 -1.6492 0.9661
-4.9328 6.8725 -1.6492 0.9661
-5.4132 6.5009 -1.6492 0.9661
-5.6431 6.3024 -1.6492 0.9661
-6.0807 5.8813 -1.6492 0.9661
-6.2890 5.6603 -1.6495 0.9661
-7.0720 5.9195 -1.7980 0.9631
-7.6830 5.1354 -1.8016 0.9630
-8.6032 3.3744 -1.8016 0.9630
-1.7560 0.4786 -0.3548 0.9926
-1.7084 0.0866 -0.3335 0.9931
-1.7076 -0.0361 -0.3330 0.9931
-1.7084 -0.0976 -0.3336 0.9931
-1.7069 -0.1591 -0.3342 0.9930
-1.6971 -0.2822 -0.3354 0.9930
-1.7395 -0.4194 -0.3489 0.9927
-7.8311 -4.9066 -1.8016 0.9630
-7.4589 -5.4558 -1.8016 0.9630
-7.2583 -5.7201 -1.8016 0.9630
-7.0483 -5.9769 -1.8016 0.9630
-6.6013 -6.4672 -1.8016 0.9630
-6.3649 -6.7000 -1.8016 0.9630
-6.1203 -6.9242 -1.8016 0.9630
-5.3404 -7.5420 -1.8016 0.9630
-5.0663 -7.7288 -1.8016 0.9630
-4.4987 -8.0724 -1.8016 0.9630
-4.2060 -8.2287 -1.8016 0.9630
-3.9079 -8.3744 -1.8016 0.9630
-3.6048 -8.5092 -1.8016 0.9630
-2.9850 -8.7459 -1.8016 0.9630
-2.6692 -8.8475 -1.8016 0.9630
-2.3498 -8.9375 -1.8016 0.9630
-0.3561 -8.5385 -1.8016 0.9657
-0.0493 -8.5457 -1.8016 0.9657
0.8697 -8.5015 -1.8016 0.9657
1.1743 -8.4648 -1.8016 0.9657
1.7786 -8.3588 -1.8016 0.9657
3.2425 -7.9069 -1.8016 0.9657
3.5242 -7.7854 -1.8016 0.9657
4.0737 -7.5125 -1.8016 0.9657
5.1070 -6.8521 -1.8016 0.9657
5.3497 -6.6643 -1.8016 0.9657
5.5854 -6.4680 -1.8016 0.9657
5.8140 -6.2633 -1.8016 0.9657
6.2484 -5.8301 -1.8016 0.9657
6.6506 -5.3667 -1.8016 0.9657
6.8389 -5.1246 -1.8016 0.9657
7.3502 -4.3597 -1.8016 0.9657
7.6441 -3.8211 -1.8016 0.9657
7.7763 -3.5442 -1.8016 0.9657
7.8985 -3.2628 -1.8016 0.9657
8.2842 -2.0987 -1.8016 0.9657
8.4134 -1.4990 -1.8016 0.9657
8.5258 -0.5858 -1.8016 0.9657
8.5413 -0.2794 -1.8016 0.9657
8.5459 0.0274 -1.8016 0.9657
8.5394 0.3341 -1.8016 0.9657
8.5219 0.6405 -1.8016 0.9657
8.4540 1.2502 -1.8016 0.9657
8.4037 1.5529 -1.8016 0.9657
8.2706 2.1518 -1.8016 0.9657
8.0949 2.7396 -1.8016 0.9657
7.9913 3.0284 -1.8016 0.9657
7.8775 3.3133 -1.8016 0.9657
7.7534 3.5940 -1.8016 0.9657
7.6111 3.8658 -1.7997 0.9657
7.4491 4.1263 -1.7953 0.9658
6.5537 4.2719 -1.6492 0.9685
6.0564 4.9517 -1.6492 0.9685
5.8748 5.1659 -1.6492 0.9685
5.6855 5.3735 -1.6492 0.9685
5.4890 5.5741 -1.6492 0.9685
3.9068 4.5832 -1.2696 0.9757
4.8579 6.1319 -1.6492 0.9685
4.6347 6.3023 -1.6492 0.9685
4.1706 6.6186 -1.6492 0.9685
3.6850 6.9008 -1.6492 0.9685
3.1804 7.1474 -1.6492 0.9685
2.9218 7.2569 -1.6492 0.9685
2.1247 7.5290 -1.6492 0.9685
1.5791 7.6620 -1.6492 0.9685
0.7462 7.7873 -1.6492 0.9685
0.4662 7.8091 -1.6492 0.9685
-0.6563 7.7954 -1.6492 0.9685
-1.2139 7.7283 -1.6492 0.9685
-1.4905 7.6797 -1.6492 0.9685
-1.7652 7.6213 -1.6492 0.9685
-2.0376 7.5530 -1.6492 0.9685
-2.5743 7.3873 -1.6492 0.9685
-2.8378 7.2901 -1.6492 0.9685
-3.0977 7.1836 -1.6492 0.9685
-3.3535 7.0677 -1.6492 0.9685
-3.6051 6.9428 -1.6492 0.9685
-4.3306 6.5150 -1.6492 0.9685
-4.5616 6.3554 -1.6492 0.9685
-4.7868 6.1875 -1.6492 0.9685
-5.0058 6.0117 -1.6492 0.9685
-5.4243 5.6371 -1.6492 0.9685
-6.1471 5.5325 -1.7435 0.9668
-6.9298 5.0010 -1.8016 0.9657
-7.1049 4.7490 -1.8016 0.9657
-7.2708 4.4909 -1.8016 0.9657
-7.5742 3.9577 -1.8016 0.9657
-7.8387 3.4040 -1.8016 0.9657
-7.9558 3.1205 -1.8016 0.9657
-1.6130 0.5025 -0.3562 0.9931
-1.5836 0.3711 -0.3429 0.9934
-1.5663 0.3082 -0.3365 0.9935
-1.5695 0.1932 -0.3334 0.9936
-1.5727 0.1365 -0.3328 0.9936
-1.5731 0.0232 -0.3317 0.9936
-1.5734 -0.0333 -0.3318 0.9936
-1.5723 -0.1466 -0.3329 0.9936
-1.5688 -0.2033 -0.3335 0.9936
-1.5631 -0.2599 -0.3341 0.9935
-7.8167 -3.4542 -1.8016 0.9657
-7.6877 -3.7326 -1.8016 0.9657
-7.5487 -4.0061 -1.8016 0.9657
-7.4000 -4.2745 -1.8016 0.9657
-7.2418 -4.5374 -1.8016 0.9657
-7.0743 -4.7944 -1.8016 0.9657
-6.8976 -5.0453 -1.8016 0.9657
-6.1045 -5.9805 -1.8016 0.9657
-5.4262 -6.6022 -1.8016 0.9657
-5.1857 -6.7927 -1.8016 0.9657
-4.9386 -6.9744 -1.8016 0.9657
-4.1602 -7.4650 -1.8016 0.9657
-3.8895 -7.6095 -1.8016 0.9657
-3.6138 -7.7442 -1.8016 0.9657
-3.3335 -7.8689 -1.8016 0.9657
-1.2719 -8.4507 -1.8016 0.9657
-0.9677 -8.4909 -1.8016 0.9657
-0.3310 -7.9373 -1.8016 0.9679
0.5242 -7.9269 -1.8016 0.9679
1.0916 -7.8689 -1.8016 0.9679
2.2066 -7.6316 -1.8016 0.9679
2.4791 -7.5475 -1.8016 0.9679
3.0142 -7.3502 -1.8016 0.9679
3.7869 -6.9835 -1.8016 0.9679
4.0352 -6.8431 -1.8016 0.9679
4.2782 -6.6938 -1.8016 0.9679
4.5157 -6.5360 -1.8016 0.9679
4.9730 -6.1951 -1.8016 0.9679
5.6102 -5.6246 -1.8016 0.9679
5.9993 -5.2076 -1.8016 0.9679
6.1824 -4.9889 -1.8016 0.9679
6.8328 -4.0527 -1.8016 0.9679
7.1059 -3.5520 -1.8016 0.9679
7.2288 -3.2947 -1.8016 0.9679
7.3424 -3.0331 -1.8016 0.9679
7.4466 -2.7675 -1.8016 0.9679
7.5411 -2.4985 -1.8016 0.9679
7.6259 -2.2261 -1.8016 0.9679
7.7009 -1.9510 -1.8016 0.9679
7.7660 -1.6733 -1.8016 0.9679
7.8211 -1.3934 -1.8016 0.9679
7.8661 -1.1118 -1.8016 0.9679
7.9009 -0.8287 -1.8016 0.9679
7.9400 -0.2597 -1.8016 0.9679
7.9382 0.3106 -1.8016 0.9679
7.9219 0.5954 -1.8016 0.9679
7.7551 1.7230 -1.8016 0.9679
7.6115 2.2750 -1.8016 0.9679
7.5250 2.5467 -1.8016 0.9679
7.3229 3.0801 -1.8016 0.9679
7.2076 3.3409 -1.8016 0.9679
7.0830 3.5975 -1.8016 0.9679
6.7853 4.0836 -1.7960 0.9680
6.4558 4.2082 -1.7477 0.9689
5.6300 4.6031 -1.6492 0.9706
5.4612 4.8022 -1.6492 0.9706
5.1025 5.1817 -1.6492 0.9706
4.0880 4.4609 -1.3722 0.9755
3.9028 4.5784 -1.3644 0.9756
4.5159 5.7002 -1.6492 0.9706
4.3084 5.8586 -1.6492 0.9706
4.0953 6.0095 -1.6492 0.9706
3.8770 6.1526 -1.6492 0.9706
3.6536 6.2878 -1.6492 0.9706
3.4255 6.4149 -1.6492 0.9706
3.1931 6.5337 -1.6492 0.9706
2.9565 6.6442 -1.6492 0.9706
2.7161 6.7460 -1.6492 0.9706
2.2251 6.9235 -1.6492 0.9706
1.7226 7.0653 -1.6492 0.9706
1.4679 7.1225 -1.6492 0.9706
0.9531 7.2095 -1.6492 0.9706
0.4334 7.2593 -1.6492 0.9706
0.1725 7.2702 -1.6492 0.9706
-0.0886 7.2717 -1.6492 0.9706
-0.3495 7.2638 -1.6492 0.9706
-1.3856 7.1390 -1.6492 0.9706
-1.6409 7.0847 -1.6492 0.9706
-1.8942 7.0212 -1.6492 0.9706
-2.3930 6.8672 -1.6492 0.9706
-3.1174 6.5702 -1.6492 0.9706
-3.3513 6.4540 -1.6492 0.9706
-3.5808 6.3296 -1.6492 0.9706
-4.0257 6.0563 -1.6492 0.9706
-4.2405 5.9079 -1.6492 0.9706
-4.4498 5.7519 -1.6492 0.9706
-4.8510 5.4178 -1.6492 0.9706
-5.2272 5.0558 -1.6492 0.9706
-5.8832 5.2950 -1.7950 0.9681
-6.2709 4.8771 -1.8016 0.9679
-6.4419 4.6489 -1.8016 0.9679
-6.6047 4.4146 -1.8016 0.9679
-6.9044 3.9294 -1.8016 0.9679
-1.4872 0.5225 -0.3575 0.9936
-1.4783 0.4605 -0.3511 0.9937
-1.4674 0.3999 -0.3449 0.9938
-1.4552 0.3410 -0.3390 0.9939
-1.4420 0.2837 -0.3333 0.9940
-1.4491 0.2314 -0.3328 0.9940
-1.4542 0.1790 -0.3323 0.9940
-1.4585 0.0739 -0.3312 0.9940
-1.4578 0.0215 -0.3307 0.9940
-1.4584 -0.0833 -0.3313 0.9940
-1.4534 -0.1883 -0.3324 0.9940
-1.4800 -0.4715 -0.3523 0.9936
-1.4886 -0.5338 -0.3586 0.9935
-7.2664 -3.2110 -1.8016 0.9679
-6.8791 -3.9736 -1.8016 0.9679
-6.5762 -4.4569 -1.8016 0.9679
-6.2395 -4.9172 -1.8016 0.9679
-5.2613 -5.9523 -1.8016 0.9679
-4.8206 -6.3144 -1.8016 0.9679
-4.5908 -6.4834 -1.8016 0.9679
-4.3552 -6.6440 -1.8016 0.9679
-4.1139 -6.7961 -1.8016 0.9679
-3.0988 -7.3149 -1.8016 0.9679
-2.0200 -7.6831 -1.8016 0.9679
-1.4636 -7.8082 -1.8016 0.9679
-0.8996 -7.8931 -1.8016 0.9679
-0.5749 -7.3960 -1.8016 0.9699
-0.0428 -7.4182 -1.8016 0.9699
0.2235 -7.4150 -1.8016 0.9699
0.4895 -7.4022 -1.8016 0.9699
0.7549 -7.3798 -1.8016 0.9699
1.2825 -7.3066 -1.8016 0.9699
1.5439 -7.2559 -1.8016 0.9699
1.8034 -7.1958 -1.8016 0.9699
2.3150 -7.0479 -1.8016 0.9699
2.5665 -6.9602 -1.8016 0.9699
2.8147 -6.8636 -1.8016 0.9699
3.0592 -6.7581 -1.8016 0.9699
3.2999 -6.6440 -1.8016 0.9699
3.5362 -6.5212 -1.8016 0.9699
4.2168 -6.1033 -1.8016 0.9699
4.4332 -5.9480 -1.8016 0.9699
5.0469 -5.4370 -1.8016 0.9699
5.2388 -5.2523 -1.8016 0.9699
5.4240 -5.0608 -1.8016 0.9699
5.6022 -4.8629 -1.8016 0.9699
6.5122 -3.5529 -1.8016 0.9699
6.8564 -2.8323 -1.8016 0.9699
7.1211 -2.0788 -1.8016 0.9699
7.2519 -1.5625 -1.8016 0.9699
7.3453 -1.0382 -1.8016 0.9699
7.3779 -0.7739 -1.8016 0.9699
7.4009 -0.5085 -1.8016 0.9699
7.4144 -0.2425 -1.8016 0.9699
7.4183 0.0238 -1.8016 0.9699
7.4127 0.2900 -1.8016 0.9699
7.3385 1.0853 -1.8016 0.9699
7.1077 2.1244 -1.8016 0.9699
7.0268 2.3782 -1.8016 0.9699
6.9369 2.6289 -1.8016 0.9699
6.8381 2.8762 -1.8016 0.9699
6.7304 3.1198 -1.8016 0.9699
6.6141 3.3594 -1.8016 0.9699
6.1977 4.0399 -1.7967 0.9700
5.9688 4.2035 -1.7730 0.9704
5.5547 4.2181 -1.6939 0.9717
5.2573 4.2984 -1.6492 0.9724
4.9354 4.6645 -1.6492 0.9724
4.7648 4.8386 -1.6492 0.9724
4.0843 4.4569 -1.4682 0.9754
3.8987 4.5736 -1.4596 0.9756
4.2170 5.3228 -1.6492 0.9724
4.0232 5.4708 -1.6492 0.9724
3.8242 5.6117 -1.6492 0.9724
3.6203 5.7453 -1.6492 0.9724
2.9817 6.1012 -1.6492 0.9724
2.3085 6.3864 -1.6492 0.9724
2.0778 6.4651 -1.6492 0.9724
1.8444 6.5356 -1.6492 0.9724
1.6086 6.5976 -1.6492 0.9724
1.3707 6.6510 -1.6492 0.9724
-0.0827 6.7903 -1.6492 0.9724
-0.8122 6.7421 -1.6492 0.9724
-1.0537 6.7086 -1.6492 0.9724
-1.2938 6.6664 -1.6492 0.9724
-2.0030 6.4887 -1.6492 0.9724
-2.4634 6.3283 -1.6492 0.9724
-2.9111 6.1352 -1.6492 0.9724
-4.5299 5.0592 -1.6492 0.9724
-4.7086 4.8933 -1.6492 0.9724
-5.6872 4.7604 -1.8012 0.9699
-6.0155 4.3411 -1.8016 0.9699
-6.1675 4.1224 -1.8016 0.9699
-6.5749 3.4355 -1.8016 0.9699
-6.6940 3.1972 -1.8016 0.9699
-1.3570 0.1178 -0.3308 0.9944
-1.3583 0.0689 -0.3303 0.9944
-1.3577 0.0200 -0.3298 0.9944
-1.3566 -0.1265 -0.3309 0.9944
-1.3475 -0.3249 -0.3366 0.9943
-1.3709 -0.4916 -0.3537 0.9940
-1.3749 -0.5495 -0.3596 0.9939
-6.5527 -3.4775 -1.8016 0.9699
-6.2863 -3.9387 -1.8016 0.9699
-6.1409 -4.1618 -1.8016 0.9699
-5.9875 -4.3796 -1.8016 0.9699
-4.9129 -5.5583 -1.8016 0.9699
-4.2869 -6.0542 -1.8016 0.9699
-3.6112 -6.4800 -1.8016 0.9699
-2.8937 -6.8307 -1.8016 0.9699
-2.3962 -7.0207 -1.8016 0.9699
-1.8863 -7.1745 -1.8016 0.9699
-1.1041 -7.3357 -1.8016 0.9699
-0.2897 -6.9485 -1.8016 0.9717
0.2095 -6.9514 -1.8016 0.9717
0.9556 -6.8885 -1.8016 0.9717
1.4474 -6.8022 -1.8016 0.9717
1.9317 -6.6808 -1.8016 0.9717
2.1703 -6.6072 -1.8016 0.9717
2.4060 -6.5251 -1.8016 0.9717
2.6387 -6.4345 -1.8016 0.9717
2.8680 -6.3356 -1.8016 0.9717
3.0936 -6.2286 -1.8016 0.9717
3.3152 -6.1135 -1.8016 0.9717
3.9532 -5.7217 -1.8016 0.9717
4.3535 -5.4233 -1.8016 0.9717
4.7314 -5.0970 -1.8016 0.9717
5.0849 -4.7444 -1.8016 0.9717
5.2519 -4.5588 -1.8016 0.9717
5.4122 -4.3674 -1.8016 0.9717
5.8503 -3.7602 -1.8016 0.9717
6.2206 -3.1095 -1.8016 0.9717
6.4277 -2.6552 -1.8016 0.9717
6.6016 -2.1872 -1.8016 0.9717
6.8467 -1.2198 -1.8016 0.9717
6.9382 -0.4767 -1.8016 0.9717
6.9545 0.0223 -1.8016 0.9717
6.9492 0.2719 -1.8016 0.9717
6.8388 1.2637 -1.8016 0.9717
6.7890 1.5084 -1.8016 0.9717
6.7305 1.7511 -1.8016 0.9717
6.3096 2.9247 -1.8016 0.9717
6.2006 3.1493 -1.8016 0.9717
5.9587 3.5861 -1.8016 0.9717
5.6729 3.9951 -1.7975 0.9717
5.5158 4.1885 -1.7942 0.9718
5.1523 4.2125 -1.7241 0.9729
4.8046 4.2249 -1.6575 0.9739
4.6362 4.3817 -1.6526 0.9740
3.9533 4.9900 -1.6492 0.9740
3.7717 5.1287 -1.6492 0.9740
3.5851 5.2608 -1.6492 0.9740
3.3940 5.3861 -1.6492 0.9740
3.1984 5.5045 -1.6492 0.9740
2.9988 5.6157 -1.6492 0.9740
2.1642 5.9871 -1.6492 0.9740
1.9479 6.0609 -1.6492 0.9740
1.2850 6.2352 -1.6492 0.9740
1.0604 6.2773 -1.6492 0.9740
0.8343 6.3113 -1.6492 0.9740
0.3794 6.3549 -1.6492 0.9740
-0.3060 6.3589 -1.6492 0.9740
-0.5341 6.3438 -1.6492 0.9740
-0.9878 6.2891 -1.6492 0.9740
-1.2129 6.2496 -1.6492 0.9740
-1.4365 6.2021 -1.6492 0.9740
-1.6582 6.1465 -1.6492 0.9740
-1.8778 6.0830 -1.6492 0.9740
-2.3094 5.9326 -1.6492 0.9740
-2.7291 5.7516 -1.6492 0.9740
-3.1347 5.5410 -1.6492 0.9740
-3.5242 5.3018 -1.6492 0.9740
-3.8954 5.0353 -1.6492 0.9740
-4.0737 4.8922 -1.6492 0.9740
-5.1619 4.6458 -1.7991 0.9717
-5.4897 4.2695 -1.8016 0.9717
-5.6394 4.0697 -1.8016 0.9717
-5.7818 3.8647 -1.8016 0.9717
-5.9168 3.6546 -1.8016 0.9717
-6.0442 3.4399 -1.8016 0.9717
-6.1638 3.2207 -1.8016 0.9717
-1.2890 0.5056 -0.3587 0.9943
-1.2804 0.3490 -0.3438 0.9945
-1.2765 0.2991 -0.3397 0.9946
-1.2799 0.2518 -0.3379 0.9946
-1.2844 0.2051 -0.3370 0.9946
-1.2877 0.1585 -0.3361 0.9947
-1.2899 0.1119 -0.3354 0.9947
-1.2909 0.0190 -0.3344 0.9947
-1.2909 -0.0737 -0.3350 0.9947
-1.2896 -0.1202 -0.3355 0.9947
-1.2837 -0.2134 -0.3371 0.9946
-1.2771 -0.3079 -0.3403 0.9946
-1.2892 -0.5152 -0.3597 0.9943
-6.1430 -3.2601 -1.8016 0.9717
-6.0220 -3.4785 -1.8016 0.9717
-5.6132 -4.1058 -1.8016 0.9717
-4.9678 -4.8669 -1.8016 0.9717
-4.7899 -5.0421 -1.8016 0.9717
-4.6058 -5.2108 -1.8016 0.9717
-4.0189 -5.6757 -1.8016 0.9717
-3.8126 -5.8163 -1.8016 0.9717
-3.6013 -5.9494 -1.8016 0.9717
-2.9409 -6.3021 -1.8016 0.9717
-2.7128 -6.4036 -1.8016 0.9717
-2.0087 -6.6581 -1.8016 0.9717
-1.7683 -6.7259 -1.8016 0.9717
-1.2812 -6.8355 -1.8016 0.9717
-0.7875 -6.9098 -1.8016 0.9717
-0.5070 -6.5226 -1.8016 0.9732
-0.2726 -6.5366 -1.8016 0.9732
-0.0377 -6.5421 -1.8016 0.9732
0.1971 -6.5393 -1.8016 0.9732
0.6658 -6.5083 -1.8016 0.9732
0.8990 -6.4802 -1.8016 0.9732
1.1310 -6.4437 -1.8016 0.9732
1.3616 -6.3990 -1.8016 0.9732
1.5904 -6.3460 -1.8016 0.9732
2.0416 -6.2155 -1.8016 0.9732
2.4823 -6.0530 -1.8016 0.9732
2.6980 -5.9600 -1.8016 0.9732
2.9102 -5.8593 -1.8016 0.9732
3.1186 -5.7511 -1.8016 0.9732
3.3230 -5.6354 -1.8016 0.9732
3.7188 -5.3825 -1.8016 0.9732
4.0954 -5.1018 -1.8016 0.9732
4.4509 -4.7949 -1.8016 0.9732
4.7834 -4.4632 -1.8016 0.9732
5.0913 -4.1085 -1.8016 0.9732
5.2355 -3.9231 -1.8016 0.9732
5.5035 -3.5373 -1.8016 0.9732
5.6269 -3.3375 -1.8016 0.9732
5.7431 -3.1334 -1.8016 0.9732
5.9531 -2.7132 -1.8016 0.9732
6.0467 -2.4978 -1.8016 0.9732
6.1324 -2.2791 -1.8016 0.9732
6.3419 -1.6067 -1.8016 0.9732
6.3955 -1.3780 -1.8016 0.9732
6.4408 -1.1475 -1.8016 0.9732
6.4779 -0.9156 -1.8016 0.9732
6.5269 -0.4485 -1.8016 0.9732
6.5372 0.2558 -1.8016 0.9732
6.4333 1.1888 -1.8016 0.9732
6.3865 1.4190 -1.8016 0.9732
6.3315 1.6473 -1.8016 0.9732
6.1970 2.0973 -1.8016 0.9732
6.0305 2.5365 -1.8016 0.9732
5.8330 2.9626 -1.8016 0.9732
5.7229 3.1701 -1.8016 0.9732
5.4807 3.5725 -1.8016 0.9732
5.3481 3.7664 -1.8014 0.9732
5.2005 3.9491 -1.7983 0.9733
5.0469 4.1264 -1.7953 0.9733
4.7842 4.2069 -1.7544 0.9739
4.4636 4.2186 -1.6913 0.9748
4.2021 4.2672 -1.6492 0.9755
4.0462 4.4153 -1.6492 0.9755
3.5481 4.8247 -1.6492 0.9755
2.8210 5.2828 -1.6492 0.9755
1.8324 5.7016 -1.6492 0.9755
1.4186 5.8184 -1.6492 0.9755
1.2088 5.8656 -1.6492 0.9755
0.7849 5.9372 -1.6492 0.9755
0.5713 5.9615 -1.6492 0.9755
0.3569 5.9782 -1.6492 0.9755
0.1421 5.9872 -1.6492 0.9755
-0.2879 5.9819 -1.6492 0.9755
-0.7163 5.9458 -1.6492 0.9755
-0.9293 5.9163 -1.6492 0.9755
-1.1410 5.8791 -1.6492 0.9755
-1.3513 5.8344 -1.6492 0.9755
-1.5599 5.7821 -1.6492 0.9755
-1.7665 5.7224 -1.6492 0.9755
-1.9707 5.6553 -1.6492 0.9755
-2.5673 5.4107 -1.6492 0.9755
-2.9489 5.2125 -1.6492 0.9755
-3.1341 5.1033 -1.6492 0.9755
-3.4921 4.8653 -1.6492 0.9755
-3.6645 4.7368 -1.6492 0.9755
-4.1051 4.5848 -1.6947 0.9748
-4.6922 4.5384 -1.7977 0.9733
-5.6859 3.2360 -1.8016 0.9732
-1.2235 0.3811 -0.3529 0.9947
-1.2212 0.2862 -0.3454 0.9948
-1.2268 0.2414 -0.3443 0.9948
-1.2378 0.0627 -0.3413 0.9949
-1.2378 -0.0262 -0.3409 0.9949
-1.2340 -0.1599 -0.3427 0.9949
-1.2206 -0.2943 -0.3458 0.9948
-1.2223 -0.3416 -0.3495 0.9947
-1.2257 -0.4395 -0.3586 0.9946
-1.2261 -0.4900 -0.3636 0.9945
-1.2252 -0.5414 -0.3689 0.9945
-1.2229 -0.5938 -0.3744 0.9944
-1.2193 -0.6471 -0.3801 0.9943
-5.1384 -4.0494 -1.8016 0.9732
-4.9897 -4.2313 -1.8016 0.9732
-4.8346 -4.4077 -1.8016 0.9732
-4.6733 -4.5784 -1.8016 0.9732
-4.5059 -4.7432 -1.8016 0.9732
-4.3327 -4.9018 -1.8016 0.9732
-3.9699 -5.2001 -1.8016 0.9732
-3.5866 -5.4715 -1.8016 0.9732
-3.1848 -5.7147 -1.8016 0.9732
-2.9776 -5.8254 -1.8016 0.9732
-2.7666 -5.9285 -1.8016 0.9732
-2.5520 -6.0240 -1.8016 0.9732
-2.1132 -6.1916 -1.8016 0.9732
-1.6635 -6.3272 -1.8016 0.9732
-1.4353 -6.3828 -1.8016 0.9732
-0.9737 -6.4694 -1.8016 0.9732
-0.7408 -6.5001 -1.8016 0.9732
-0.4784 -6.1546 -1.8016 0.9746
-0.2572 -6.1678 -1.8016 0.9746
0.1860 -6.1704 -1.8016 0.9746
1.2848 -6.0380 -1.8016 0.9746
1.9264 -5.8649 -1.8016 0.9746
2.1357 -5.7920 -1.8016 0.9746
2.3423 -5.7116 -1.8016 0.9746
2.5458 -5.6238 -1.8016 0.9746
2.7460 -5.5288 -1.8016 0.9746
2.9427 -5.4267 -1.8016 0.9746
3.1356 -5.3176 -1.8016 0.9746
3.3245 -5.2016 -1.8016 0.9746
3.5090 -5.0789 -1.8016 0.9746
3.6891 -4.9497 -1.8016 0.9746
4.0347 -4.6722 -1.8016 0.9746
4.1998 -4.5244 -1.8016 0.9746
5.0699 -3.5221 -1.8016 0.9746
5.1930 -3.3378 -1.8016 0.9746
5.3095 -3.1492 -1.8016 0.9746
5.6173 -2.5602 -1.8016 0.9746
5.7056 -2.3569 -1.8016 0.9746
5.7865 -2.1506 -1.8016 0.9746
5.8600 -1.9415 -1.8016 0.9746
5.9842 -1.5160 -1.8016 0.9746
6.0347 -1.3003 -1.8016 0.9746
6.0775 -1.0828 -1.8016 0.9746
6.1125 -0.8639 -1.8016 0.9746
6.1587 -0.4232 -1.8016 0.9746
6.1699 -0.2018 -1.8016 0.9746
6.1732 0.0198 -1.8016 0.9746
6.1559 0.4626 -1.8016 0.9746
6.0263 1.3389 -1.8016 0.9746
5.9743 1.5544 -1.8016 0.9746
5.9147 1.7678 -1.8016 0.9746
5.7726 2.1876 -1.8016 0.9746
5.4001 2.9913 -1.8016 0.9746
5.1716 3.3710 -1.8016 0.9746
5.0472 3.5545 -1.8016 0.9746
4.6221 4.0644 -1.7963 0.9747
4.4452 4.2012 -1.7851 0.9748
3.8693 4.2223 -1.6714 0.9764
3.6659 4.3006 -1.6492 0.9767
3.5092 4.4294 -1.6492 0.9767
3.3479 4.5525 -1.6492 0.9767
3.0127 4.7810 -1.6492 0.9767
2.8391 4.8861 -1.6492 0.9767
2.6619 4.9848 -1.6492 0.9767
2.2974 5.1630 -1.6492 0.9767
2.1106 5.2421 -1.6492 0.9767
1.9211 5.3145 -1.6492 0.9767
1.5348 5.4386 -1.6492 0.9767
0.9412 5.5721 -1.6492 0.9767
0.7406 5.6023 -1.6492 0.9767
0.5390 5.6252 -1.6492 0.9767
-0.2716 5.6445 -1.6492 0.9767
-0.4740 5.6311 -1.6492 0.9767
-0.6759 5.6104 -1.6492 0.9767
-1.0767 5.5475 -1.6492 0.9767
-1.6668 5.3996 -1.6492 0.9767
-1.8596 5.3363 -1.6492 0.9767
-2.0499 5.2661 -1.6492 0.9767
-2.4225 5.1055 -1.6492 0.9767
-2.7825 4.9185 -1.6492 0.9767
-3.1282 4.7062 -1.6492 0.9767
-3.2951 4.5909 -1.6492 0.9767
-3.7277 4.4767 -1.7002 0.9760
-4.0839 4.5610 -1.7868 0.9748
-4.5885 4.1297 -1.8016 0.9746
-4.7337 3.9623 -1.8016 0.9746
-4.8729 3.7899 -1.8016 0.9746
-5.1323 3.4305 -1.8016 0.9746
-5.2521 3.2440 -1.8016 0.9746
-1.1548 0.6572 -0.3878 0.9945
-1.1644 0.5562 -0.3766 0.9946
-1.1695 0.3187 -0.3538 0.9950
-1.1720 0.2746 -0.3513 0.9950
-1.1775 0.2317 -0.3502 0.9950
-1.1819 0.1888 -0.3493 0.9950
-1.1852 0.1459 -0.3485 0.9950
-1.1874 0.1030 -0.3478 0.9950
-1.1884 -0.0251 -0.3469 0.9951
-1.1883 -0.0679 -0.3474 0.9951
-1.1812 -0.1964 -0.3495 0.9950
-1.1696 -0.3726 -0.3582 0.9949
-1.1684 -0.4669 -0.3672 0.9948
-1.1668 -0.5156 -0.3723 0.9947
-1.1638 -0.5651 -0.3776 0.9946
-5.1102 -3.4633 -1.8016 0.9746
-4.7082 -3.9926 -1.8016 0.9746
-4.5619 -4.1590 -1.8016 0.9746
-4.4097 -4.3201 -1.8016 0.9746
-4.2517 -4.4756 -1.8016 0.9746
-4.0883 -4.6253 -1.8016 0.9746
-3.9197 -4.7691 -1.8016 0.9746
-3.1967 -5.2810 -1.8016 0.9746
-2.6105 -5.5941 -1.8016 0.9746
-2.4080 -5.6842 -1.8016 0.9746
-1.3544 -6.0228 -1.8016 0.9746
-0.4527 -5.8232 -1.8016 0.9758
-0.2433 -5.8357 -1.8016 0.9758
-0.0337 -5.8407 -1.8016 0.9758
0.1760 -5.8381 -1.8016 0.9758
0.5944 -5.8105 -1.8016 0.9758
0.8026 -5.7854 -1.8016 0.9758
1.0097 -5.7528 -1.8016 0.9758
1.2156 -5.7129 -1.8016 0.9758
1.4199 -5.6656 -1.8016 0.9758
1.6223 -5.6109 -1.8016 0.9758
1.8227 -5.5491 -1.8016 0.9758
2.4087 -5.3210 -1.8016 0.9758
2.7842 -5.1345 -1.8016 0.9758
2.9667 -5.0312 -1.8016 0.9758
3.1454 -4.9215 -1.8016 0.9758
3.3201 -4.8054 -1.8016 0.9758
3.4904 -4.6831 -1.8016 0.9758
3.6563 -4.5548 -1.8016 0.9758
3.8174 -4.4206 -1.8016 0.9758
3.9737 -4.2807 -1.8016 0.9758
4.1248 -4.1354 -1.8016 0.9758
4.4108 -3.8287 -1.8016 0.9758
4.7969 -3.3324 -1.8016 0.9758
4.9134 -3.1581 -1.8016 0.9758
5.0236 -2.9796 -1.8016 0.9758
5.5444 -1.8369 -1.8016 0.9758
5.6619 -1.4344 -1.8016 0.9758
5.7098 -1.2302 -1.8016 0.9758
5.7503 -1.0245 -1.8016 0.9758
5.7833 -0.8174 -1.8016 0.9758
5.8271 -0.4004 -1.8016 0.9758
5.8408 0.0187 -1.8016 0.9758
5.8363 0.2284 -1.8016 0.9758
5.8244 0.4377 -1.8016 0.9758
5.7780 0.8545 -1.8016 0.9758
5.7436 1.0613 -1.8016 0.9758
5.5962 1.6726 -1.8016 0.9758
5.2992 2.4563 -1.8016 0.9758
4.6516 3.5323 -1.8016 0.9758
4.5218 3.6970 -1.8016 0.9758
4.2349 4.0024 -1.7974 0.9759
4.0829 4.1462 -1.7949 0.9759
3.3464 4.2240 -1.6623 0.9777
3.1676 4.3074 -1.6492 0.9779
2.8504 4.5235 -1.6492 0.9779
2.5186 4.7164 -1.6492 0.9779
2.1737 4.8850 -1.6492 0.9779
1.9969 4.9598 -1.6492 0.9779
1.4522 5.1458 -1.6492 0.9779
1.2665 5.1946 -1.6492 0.9779
0.7007 5.3006 -1.6492 0.9779
-0.2570 5.3405 -1.6492 0.9779
-0.4485 5.3279 -1.6492 0.9779
-0.8296 5.2820 -1.6492 0.9779
-1.2064 5.2088 -1.6492 0.9779
-1.3926 5.1622 -1.6492 0.9779
-1.5771 5.1089 -1.6492 0.9779
-1.7594 5.0489 -1.6492 0.9779
-2.1171 4.9097 -1.6492 0.9779
-2.2920 4.8305 -1.6492 0.9779
-2.6327 4.6536 -1.6492 0.9779
-2.7980 4.5561 -1.6492 0.9779
-3.1271 4.3567 -1.6542 0.9778
-3.4037 4.3996 -1.7158 0.9770
-3.7093 4.4546 -1.7881 0.9760
-4.1983 4.0607 -1.8016 0.9758
-4.7363 3.4180 -1.8016 0.9758
-4.8559 3.2458 -1.8016 0.9758
-4.9693 3.0694 -1.8016 0.9758
-1.0997 0.6259 -0.3903 0.9947
-1.1057 0.5778 -0.3848 0.9948
-1.1104 0.5304 -0.3796 0.9949
-1.1137 0.4837 -0.3745 0.9949
-1.1205 0.3491 -0.3620 0.9951
-1.1316 0.2226 -0.3558 0.9952
-1.1360 0.1814 -0.3548 0.9952
-1.1424 0.0579 -0.3528 0.9952
-1.1422 0.0168 -0.3524 0.9952
-1.1424 -0.0242 -0.3524 0.9952
-1.1423 -0.0652 -0.3529 0.9952
-1.1411 -0.1064 -0.3535 0.9952
-1.1387 -0.1476 -0.3542 0.9952
-1.1353 -0.1888 -0.3550 0.9952
-1.1307 -0.2300 -0.3559 0.9952
-1.1251 -0.2713 -0.3570 0.9952
-1.1158 -0.4459 -0.3706 0.9950
-1.1132 -0.4919 -0.3754 0.9949
-1.1048 -0.5863 -0.3858 0.9948
-4.5875 -3.6153 -1.8016 0.9758
-4.3162 -3.9351 -1.8016 0.9758
-4.1722 -4.0875 -1.8016 0.9758
-3.7086 -4.5123 -1.8016 0.9758
-3.0246 -4.9966 -1.8016 0.9758
-2.6583 -5.2008 -1.8016 0.9758
-2.4699 -5.2928 -1.8016 0.9758
-1.0761 -5.7408 -1.8016 0.9758
-0.6614 -5.8032 -1.8016 0.9758
-0.4293 -5.5230 -1.8016 0.9770
-0.2308 -5.5348 -1.8016 0.9770
0.1669 -5.5372 -1.8016 0.9770
0.5637 -5.5109 -1.8016 0.9770
0.7612 -5.4871 -1.8016 0.9770
0.9577 -5.4563 -1.8016 0.9770
1.3467 -5.3735 -1.8016 0.9770
1.7287 -5.2630 -1.8016 0.9770
2.2845 -5.0467 -1.8016 0.9770
2.4642 -4.9614 -1.8016 0.9770
3.1489 -4.5577 -1.8016 0.9770
3.4678 -4.3200 -1.8016 0.9770
3.7688 -4.0601 -1.8016 0.9770
4.1834 -3.6314 -1.8016 0.9770
4.3111 -3.4789 -1.8016 0.9770
4.6601 -2.9953 -1.8016 0.9770
4.9551 -2.4769 -1.8016 0.9770
5.1927 -1.9299 -1.8016 0.9770
5.2586 -1.7422 -1.8016 0.9770
5.3177 -1.5524 -1.8016 0.9770
5.4154 -1.1668 -1.8016 0.9770
5.4538 -0.9717 -1.8016 0.9770
5.4852 -0.7753 -1.8016 0.9770
5.5267 -0.3797 -1.8016 0.9770
5.5367 -0.1811 -1.8016 0.9770
5.5354 0.2166 -1.8016 0.9770
5.5056 0.6132 -1.8016 0.9770
5.4475 1.0066 -1.8016 0.9770
5.4078 1.2015 -1.8016 0.9770
5.2473 1.7759 -1.8016 0.9770
5.1802 1.9631 -1.8016 0.9770
5.0260 2.3297 -1.8016 0.9770
4.9391 2.5086 -1.8016 0.9770
4.4118 3.3502 -1.8016 0.9770
4.2887 3.5064 -1.8016 0.9770
4.1601 3.6581 -1.8016 0.9770
3.8799 3.9401 -1.7984 0.9770
3.5785 4.1981 -1.7940 0.9771
3.3341 4.2084 -1.7462 0.9777
2.8785 4.2239 -1.6624 0.9787
2.7035 4.2903 -1.6492 0.9789
2.3887 4.4733 -1.6492 0.9789
2.0616 4.6331 -1.6492 0.9789
1.7239 4.7691 -1.6492 0.9789
1.5516 4.8279 -1.6492 0.9789
1.2012 4.9268 -1.6492 0.9789
0.8446 5.0002 -1.6492 0.9789
0.6646 5.0273 -1.6492 0.9789
0.1203 5.0697 -1.6492 0.9789
-0.0618 5.0707 -1.6492 0.9789
-0.2437 5.0652 -1.6492 0.9789
-0.4254 5.0532 -1.6492 0.9789
-0.7869 5.0097 -1.6492 0.9789
-0.9662 4.9782 -1.6492 0.9789
-1.1443 4.9403 -1.6492 0.9789
-1.3208 4.8960 -1.6492 0.9789
-1.4957 4.8455 -1.6492 0.9789
-1.8395 4.7257 -1.6492 0.9789
-2.1738 4.5815 -1.6492 0.9789
-2.8639 4.3086 -1.6826 0.9785
-3.1129 4.3370 -1.7362 0.9778
-3.5353 4.2456 -1.7968 0.9770
-3.9819 3.8513 -1.8016 0.9770
-4.1176 3.7059 -1.8016 0.9770
-4.3728 3.4009 -1.8016 0.9770
-4.6056 3.0784 -1.8016 0.9770
-1.0413 0.6432 -0.3981 0.9949
-1.0556 0.5516 -0.3874 0.9950
-1.0700 0.4197 -0.3738 0.9952
-1.0888 0.2142 -0.3609 0.9953
-1.0993 0.0162 -0.3576 0.9954
-1.0924 -0.1816 -0.3602 0.9954
-1.0879 -0.2213 -0.3611 0.9953
-1.0824 -0.2609 -0.3621 0.9953
-1.0747 -0.3423 -0.3668 0.9953
-1.0726 -0.3846 -0.3706 0.9952
-4.2250 -3.5829 -1.8016 0.9770
-3.9571 -3.8767 -1.8016 0.9770
-3.0369 -4.6330 -1.8016 0.9770
-2.5213 -4.9326 -1.8016 0.9770
-1.9764 -5.1751 -1.8016 0.9770
-1.7894 -5.2427 -1.8016 0.9770
-1.6000 -5.3036 -1.8016 0.9770
-1.2154 -5.4047 -1.8016 0.9770
-1.0206 -5.4448 -1.8016 0.9770
-0.8245 -5.4780 -1.8016 0.9770
-0.4081 -5.2497 -1.8016 0.9780
-0.0304 -5.2654 -1.8016 0.9780
0.3475 -5.2540 -1.8016 0.9780
0.5358 -5.2382 -1.8016 0.9780
0.7235 -5.2156 -1.8016 0.9780
0.9103 -5.1862 -1.8016 0.9780
1.4625 -5.0583 -1.8016 0.9780
2.1714 -4.7969 -1.8016 0.9780
2.5100 -4.6287 -1.8016 0.9780
2.8356 -4.4367 -1.8016 0.9780
2.9931 -4.3321 -1.8016 0.9780
3.4414 -3.9852 -1.8016 0.9780
3.8499 -3.5922 -1.8016 0.9780
3.9764 -3.4517 -1.8016 0.9780
4.2138 -3.1575 -1.8016 0.9780
4.3244 -3.0042 -1.8016 0.9780
4.6223 -2.5219 -1.8016 0.9780
4.7913 -2.1837 -1.8016 0.9780
4.9983 -1.6560 -1.8016 0.9780
5.0546 -1.4755 -1.8016 0.9780
5.1474 -1.1091 -1.8016 0.9780
5.2137 -0.7369 -1.8016 0.9780
5.2627 -0.1722 -1.8016 0.9780
5.2332 0.5828 -1.8016 0.9780
5.1779 0.9568 -1.8016 0.9780
5.1402 1.1420 -1.8016 0.9780
5.0450 1.5079 -1.8016 0.9780
4.9238 1.8659 -1.8016 0.9780
4.8537 2.0415 -1.8016 0.9780
4.6947 2.3845 -1.8016 0.9780
4.6061 2.5515 -1.8016 0.9780
4.5115 2.7151 -1.8016 0.9780
4.0765 3.3329 -1.8016 0.9780
3.8268 3.6168 -1.8016 0.9780
3.6945 3.7517 -1.8016 0.9780
3.2586 4.1131 -1.7955 0.9781
2.8683 4.2091 -1.7428 0.9787
2.6567 4.2161 -1.7051 0.9792
2.1164 4.3306 -1.6492 0.9798
1.9596 4.4038 -1.6492 0.9798
1.8002 4.4713 -1.6492 0.9798
1.4748 4.5889 -1.6492 0.9798
1.3091 4.6389 -1.6492 0.9798
0.9729 4.7209 -1.6492 0.9798
0.6317 4.7785 -1.6492 0.9798
-0.0587 4.8197 -1.6492 0.9798
-0.2317 4.8145 -1.6492 0.9798
-0.4044 4.8031 -1.6492 0.9798
-0.5765 4.7855 -1.6492 0.9798
-0.7479 4.7617 -1.6492 0.9798
-1.0876 4.6958 -1.6492 0.9798
-1.2555 4.6537 -1.6492 0.9798
-1.5861 4.5517 -1.6492 0.9798
-1.7485 4.4918 -1.6492 0.9798
-1.9086 4.4261 -1.6492 0.9798
-2.0663 4.3548 -1.6492 0.9798
-2.2212 4.2778 -1.6492 0.9798
-2.6220 4.2695 -1.7143 0.9790
-2.8527 4.2917 -1.7633 0.9784
-3.0590 4.2618 -1.7950 0.9781
-3.2139 4.1544 -1.7972 0.9780
-3.7848 3.6607 -1.8016 0.9780
-3.9138 3.5225 -1.8016 0.9780
-4.1564 3.2326 -1.8016 0.9780
-4.2698 3.0813 -1.8016 0.9780
-0.9945 0.6143 -0.4000 0.9951
-1.0026 0.5706 -0.3947 0.9951
-1.0167 0.4856 -0.3855 0.9952
-1.0224 0.4440 -0.3814 0.9953
-1.0303 0.3620 -0.3736 0.9954
-1.0325 0.3217 -0.3700 0.9954
-1.0372 0.2827 -0.3678 0.9955
-1.0529 0.1682 -0.3648 0.9955
-1.0581 0.0918 -0.3634 0.9955
-1.0591 0.0156 -0.3624 0.9955
-1.0590 -0.0605 -0.3629 0.9955
-1.0578 -0.0986 -0.3635 0.9955
-1.0556 -0.1368 -0.3642 0.9955
-1.0523 -0.1750 -0.3650 0.9955
-1.0359 -0.2895 -0.3680 0.9955
-1.0298 -0.3692 -0.3743 0.9954
-0.9929 -0.6221 -0.4009 0.9951
-4.2499 -3.1086 -1.8016 0.9780
-4.0160 -3.4055 -1.8016 0.9780
-3.7613 -3.6849 -1.8016 0.9780
-3.4872 -3.9452 -1.8016 0.9780
-3.3433 -4.0679 -1.8016 0.9780
-3.1951 -4.1853 -1.8016 0.9780
-3.0429 -4.2973 -1.8016 0.9780
-2.8866 -4.4037 -1.8016 0.9780
-2.3965 -4.6885 -1.8016 0.9780
-2.2267 -4.7715 -1.8016 0.9780
-2.0539 -4.8484 -1.8016 0.9780
-1.7008 -4.9833 -1.8016 0.9780
-1.3389 -5.0924 -1.8016 0.9780
-0.7837 -5.2069 -1.8016 0.9780
-0.5963 -5.2316 -1.8016 0.9780
-0.3886 -4.9996 -1.8016 0.9789
-0.2089 -5.0104 -1.8016 0.9789
-0.0289 -5.0146 -1.8016 0.9789
0.1511 -5.0124 -1.8016 0.9789
1.2191 -4.8643 -1.8016 0.9789
1.9027 -4.6397 -1.8016 0.9789
2.0680 -4.5684 -1.8016 0.9789
2.9968 -4.0208 -1.8016 0.9789
3.2775 -3.7954 -1.8016 0.9789
3.4117 -3.6753 -1.8016 0.9789
3.5414 -3.5505 -1.8016 0.9789
4.2185 -2.7114 -1.8016 0.9789
4.4855 -2.2422 -1.8016 0.9789
4.5631 -2.0797 -1.8016 0.9789
4.6349 -1.9146 -1.8016 0.9789
4.7603 -1.5771 -1.8016 0.9789
4.8612 -1.2315 -1.8016 0.9789
4.9370 -0.8796 -1.8016 0.9789
4.9654 -0.7018 -1.8016 0.9789
4.9874 -0.5231 -1.8016 0.9789
5.0147 0.0161 -1.8016 0.9789
5.0109 0.1961 -1.8016 0.9789
5.0006 0.3758 -1.8016 0.9789
4.8954 1.0877 -1.8016 0.9789
4.8532 1.2627 -1.8016 0.9789
4.6225 1.9443 -1.8016 0.9789
4.3867 2.4299 -1.8016 0.9789
4.1000 2.8874 -1.8016 0.9789
3.9937 3.0327 -1.8016 0.9789
3.8823 3.1742 -1.8016 0.9789
3.7658 3.3115 -1.8016 0.9789
3.6446 3.4445 -1.8016 0.9789
3.5186 3.5731 -1.8016 0.9789
2.9631 4.0293 -1.7969 0.9790
1.7145 4.2583 -1.6492 0.9807
0.9266 4.4960 -1.6492 0.9807
0.2736 4.5824 -1.6492 0.9807
-0.3851 4.5743 -1.6492 0.9807
-0.5491 4.5576 -1.6492 0.9807
-1.3540 4.3863 -1.6492 0.9807
-1.6652 4.2779 -1.6492 0.9807
-1.8243 4.2307 -1.6553 0.9806
-2.1967 4.2305 -1.7126 0.9799
-2.7671 4.1629 -1.7959 0.9790
-2.9180 4.0654 -1.7979 0.9790
-3.0657 3.9627 -1.8000 0.9789
-3.3451 3.7360 -1.8016 0.9789
-3.4771 3.6135 -1.8016 0.9789
-3.7274 3.3547 -1.8016 0.9789
-3.8454 3.2188 -1.8016 0.9789
-0.9306 0.6716 -0.4123 0.9951
-0.9417 0.6294 -0.4069 0.9952
-0.9761 0.4662 -0.3886 0.9954
-0.9820 0.4265 -0.3846 0.9955
-1.0111 0.1989 -0.3702 0.9956
-1.0152 0.1621 -0.3694 0.9956
-1.0202 0.0885 -0.3679 0.9957
-1.0213 0.0151 -0.3670 0.9957
-1.0178 -0.1319 -0.3687 0.9956
-1.0146 -0.1687 -0.3695 0.9956
-1.0103 -0.2055 -0.3704 0.9956
-1.0049 -0.2423 -0.3714 0.9956
-0.9925 -0.3162 -0.3743 0.9956
-0.9497 -0.5950 -0.4026 0.9952
-4.0475 -2.9606 -1.8016 0.9789
-3.9386 -3.1039 -1.8016 0.9789
-3.4538 -3.6357 -1.8016 0.9789
-3.3211 -3.7573 -1.8016 0.9789
-3.0430 -3.9859 -1.8016 0.9789
-2.8979 -4.0926 -1.8016 0.9789
-2.2824 -4.4652 -1.8016 0.9789
-2.1206 -4.5443 -1.8016 0.9789
-1.9561 -4.6175 -1.8016 0.9789
-1.4484 -4.8010 -1.8016 0.9789
-1.1002 -4.8925 -1.8016 0.9789
-0.7463 -4.9589 -1.8016 0.9789
-0.5679 -4.9825 -1.8016 0.9789
0.1442 -4.7822 -1.8016 0.9798
0.4869 -4.7595 -1.8016 0.9798
0.6574 -4.7390 -1.8016 0.9798
1.1631 -4.6408 -1.8016 0.9798
1.8153 -4.4266 -1.8016 0.9798
2.1282 -4.2849 -1.8016 0.9798
2.5765 -4.0313 -1.8016 0.9798
2.8591 -3.8361 -1.8016 0.9798
2.9950 -3.7310 -1.8016 0.9798
3.2549 -3.5065 -1.8016 0.9798
3.3787 -3.3874 -1.8016 0.9798
3.8287 -2.8689 -1.8016 0.9798
3.9292 -2.7296 -1.8016 0.9798
4.0247 -2.5868 -1.8016 0.9798
4.1999 -2.2914 -1.8016 0.9798
4.4846 -1.6667 -1.8016 0.9798
4.6770 -1.0077 -1.8016 0.9798
4.7102 -0.8392 -1.8016 0.9798
4.7373 -0.6696 -1.8016 0.9798
4.7731 -0.3280 -1.8016 0.9798
4.7818 -0.1564 -1.8016 0.9798
4.7709 0.3586 -1.8016 0.9798
4.7047 0.8694 -1.8016 0.9798
4.5318 1.5337 -1.8016 0.9798
4.4739 1.6954 -1.8016 0.9798
4.4101 1.8550 -1.8016 0.9798
4.2657 2.1666 -1.8016 0.9798
4.0992 2.4670 -1.8016 0.9798
4.0080 2.6126 -1.8016 0.9798
3.8103 2.8934 -1.8016 0.9798
3.7039 3.0283 -1.8016 0.9798
3.5929 3.1593 -1.8016 0.9798
3.4771 3.2863 -1.8016 0.9798
3.3569 3.4090 -1.8016 0.9798
3.2324 3.5273 -1.8016 0.9798
3.1037 3.6410 -1.8016 0.9798
2.6893 3.9463 -1.7983 0.9798
2.3953 4.1222 -1.7953 0.9798
2.0552 4.2054 -1.7626 0.9802
1.8735 4.2104 -1.7354 0.9805
1.6970 4.2150 -1.7110 0.9808
1.5250 4.2190 -1.6893 0.9810
1.1931 4.2277 -1.6542 0.9814
0.8840 4.2895 -1.6492 0.9815
0.7295 4.3185 -1.6492 0.9815
0.2616 4.3814 -1.6528 0.9814
-0.5238 4.3482 -1.6492 0.9815
-0.6796 4.3266 -1.6492 0.9815
-0.9882 4.2667 -1.6492 0.9815
-1.3038 4.2236 -1.6645 0.9813
-1.6413 4.2163 -1.7038 0.9808
-2.0004 4.2159 -1.7572 0.9803
-2.1891 4.2159 -1.7888 0.9799
-2.3476 4.1497 -1.7954 0.9798
-2.4973 4.0664 -1.7970 0.9798
-2.6442 3.9780 -1.7987 0.9798
-2.7881 3.8845 -1.8006 0.9798
-3.0614 3.6766 -1.8016 0.9798
-3.1915 3.5643 -1.8016 0.9798
-3.3173 3.4475 -1.8016 0.9798
-3.5561 3.2006 -1.8016 0.9798
-3.7766 2.9372 -1.8016 0.9798
-0.8905 0.6426 -0.4135 0.9953
-0.9022 0.6030 -0.4086 0.9954
-0.9383 0.4482 -0.3916 0.9956
-0.9575 0.2983 -0.3777 0.9957
-0.9797 0.1565 -0.3736 0.9958
-0.9826 0.1209 -0.3728 0.9958
-0.9846 0.0854 -0.3722 0.9958
-0.9844 -0.0918 -0.3723 0.9958
-0.9822 -0.1273 -0.3730 0.9958
-0.9790 -0.1628 -0.3737 0.9958
-0.9562 -0.3046 -0.3779 0.9957
-0.9210 -0.5320 -0.4005 0.9955
-3.6490 -3.0943 -1.8016 0.9798
-3.4176 -3.3481 -1.8016 0.9798
-3.1685 -3.5847 -1.8016 0.9798
-2.9032 -3.8028 -1.8016 0.9798
-2.6229 -4.0013 -1.8016 0.9798
-2.4775 -4.0929 -1.8016 0.9798
-2.3290 -4.1792 -1.8016 0.9798
-2.1775 -4.2601 -1.8016 0.9798
-1.8662 -4.4053 -1.8016 0.9798
-1.7069 -4.4695 -1.8016 0.9798
-1.0496 -4.6678 -1.8016 0.9798
-0.7121 -4.7310 -1.8016 0.9798
-0.5418 -4.7535 -1.8016 0.9798
-0.1905 -4.5679 -1.8016 0.9805
-0.0264 -4.5718 -1.8016 0.9805
0.1377 -4.5698 -1.8016 0.9805
0.6282 -4.5285 -1.8016 0.9805
0.7904 -4.5030 -1.8016 0.9805
0.9515 -4.4718 -1.8016 0.9805
1.5817 -4.2896 -1.8016 0.9805
1.7347 -4.2300 -1.8016 0.9805
2.3222 -3.9382 -1.8016 0.9805
2.4621 -3.8523 -1.8016 0.9805
2.5988 -3.7614 -1.8016 0.9805
2.7321 -3.6657 -1.8016 0.9805
2.8620 -3.5653 -1.8016 0.9805
2.9881 -3.4603 -1.8016 0.9805
3.1104 -3.3508 -1.8016 0.9805
3.2287 -3.2369 -1.8016 0.9805
3.4526 -2.9970 -1.8016 0.9805
3.9322 -2.3323 -1.8016 0.9805
4.2855 -1.5927 -1.8016 0.9805
4.3399 -1.4379 -1.8016 0.9805
4.4319 -1.1228 -1.8016 0.9805
4.5470 -0.4769 -1.8016 0.9805
4.5611 -0.3134 -1.8016 0.9805
4.5719 0.0146 -1.8016 0.9805
4.5438 0.5061 -1.8016 0.9805
4.4246 1.1512 -1.8016 0.9805
4.3804 1.3092 -1.8016 0.9805
4.3306 1.4657 -1.8016 0.9805
4.2752 1.6202 -1.8016 0.9805
4.0762 2.0704 -1.8016 0.9805
3.9993 2.2153 -1.8016 0.9805
3.8301 2.4966 -1.8016 0.9805
3.7380 2.6325 -1.8016 0.9805
3.6411 2.7649 -1.8016 0.9805
3.5395 2.8939 -1.8016 0.9805
3.3227 3.1403 -1.8016 0.9805
3.0889 3.3706 -1.8016 0.9805
2.9659 3.4793 -1.8016 0.9805
2.8391 3.5836 -1.8016 0.9805
2.7086 3.6832 -1.8016 0.9805
2.5740 3.7771 -1.8012 0.9805
2.1480 4.0226 -1.7970 0.9806
1.8515 4.1609 -1.7947 0.9806
1.3527 4.2092 -1.7423 0.9812
1.0277 4.2152 -1.7097 0.9815
0.5580 4.2211 -1.6779 0.9819
0.2521 4.2231 -1.6672 0.9820
-0.0514 4.2236 -1.6645 0.9820
-0.2032 4.2233 -1.6662 0.9820
-0.3555 4.2226 -1.6699 0.9819
-0.5086 4.2215 -1.6756 0.9819
-0.6628 4.2201 -1.6834 0.9818
-0.8187 4.2182 -1.6933 0.9817
-0.9765 4.2160 -1.7054 0.9816
-1.1367 4.2133 -1.7197 0.9814
-1.2997 4.2103 -1.7364 0.9812
-1.4659 4.2067 -1.7555 0.9810
-1.8030 4.1813 -1.7944 0.9806
-2.1012 4.0467 -1.7968 0.9806
-2.2469 3.9717 -1.7982 0.9806
-2.3901 3.8919 -1.7998 0.9806
-2.6659 3.7142 -1.8016 0.9805
-2.7975 3.6161 -1.8016 0.9805
-3.3982 3.0585 -1.8016 0.9805
-0.8546 0.6168 -0.4153 0.9955
-0.8667 0.5793 -0.4108 0.9955
-0.8775 0.5420 -0.4065 0.9956
-0.9029 0.4312 -0.3943 0.9957
-0.9141 0.3585 -0.3869 0.9958
-0.9181 0.3226 -0.3835 0.9958
-0.9245 0.2880 -0.3816 0.9958
-0.9315 0.2539 -0.3804 0.9959
-0.9374 0.2197 -0.3794 0.9959
-0.9422 0.1854 -0.3784 0.9959
-0.9491 0.1168 -0.3768 0.9959
-0.9511 0.0825 -0.3762 0.9959
-0.9523 -0.0201 -0.3754 0.9959
-0.9508 -0.0886 -0.3763 0.9959
-0.9415 -0.1915 -0.3786 0.9959
-0.9364 -0.2258 -0.3796 0.9959
-0.9303 -0.2600 -0.3806 0.9959
-0.9232 -0.2941 -0.3818 0.9958
-0.9175 -0.3290 -0.3841 0.9958
-0.9080 -0.4013 -0.3912 0.9957
-0.9016 -0.4378 -0.3950 0.9957
-0.8941 -0.4745 -0.3989 0.9957
-0.8757 -0.5487 -0.4072 0.9956
-0.8646 -0.5860 -0.4116 0.9955
-0.8388 -0.6611 -0.4209 0.9954
-3.4869 -2.9569 -1.8016 0.9805
-3.1488 -3.3146 -1.8016 0.9805
-3.0278 -3.4255 -1.8016 0.9805
-2.7743 -3.6339 -1.8016 0.9805
-2.6420 -3.7312 -1.8016 0.9805
-2.5064 -3.8236 -1.8016 0.9805
-2.0808 -4.0709 -1.8016 0.9805
-1.7834 -4.2097 -1.8016 0.9805
-1.6311 -4.2710 -1.8016 0.9805
-1.3205 -4.3770 -1.8016 0.9805
-1.0030 -4.4605 -1.8016 0.9805
-0.6804 -4.5210 -1.8016 0.9805
-0.3391 -4.3621 -1.8016 0.9813
-0.1823 -4.3715 -1.8016 0.9813
0.4453 -4.3525 -1.8016 0.9813
0.6012 -4.3337 -1.8016 0.9813
0.9106 -4.2794 -1.8016 0.9813
1.0636 -4.2440 -1.8016 0.9813
1.2153 -4.2031 -1.8016 0.9813
1.6601 -4.0481 -1.8016 0.9813
1.9462 -3.9185 -1.8016 0.9813
2.0856 -3.8461 -1.8016 0.9813
2.2224 -3.7688 -1.8016 0.9813
2.3562 -3.6866 -1.8016 0.9813
2.6146 -3.5081 -1.8016 0.9813
2.7389 -3.4119 -1.8016 0.9813
2.9766 -3.2066 -1.8016 0.9813
3.0898 -3.0977 -1.8016 0.9813
3.1990 -2.9848 -1.8016 0.9813
3.3041 -2.8681 -1.8016 0.9813
3.4049 -2.7476 -1.8016 0.9813
3.5933 -2.4962 -1.8016 0.9813
3.7631 -2.2320 -1.8016 0.9813
3.8408 -2.0955 -1.8016 0.9813
4.0438 -1.6704 -1.8016 0.9813
4.1532 -1.3760 -1.8016 0.9813
4.2000 -1.2260 -1.8016 0.9813
4.2771 -0.9216 -1.8016 0.9813
4.3074 -0.7674 -1.8016 0.9813
4.3729 -0.1430 -1.8016 0.9813
4.3752 0.0140 -1.8016 0.9813
4.3719 0.1711 -1.8016 0.9813
4.3629 0.3279 -1.8016 0.9813
4.3024 0.7950 -1.8016 0.9813
4.2711 0.9490 -1.8016 0.9813
4.1920 1.2529 -1.8016 0.9813
3.9009 1.9813 -1.8016 0.9813
3.7487 2.2561 -1.8016 0.9813
3.6653 2.3892 -1.8016 0.9813
3.4845 2.6460 -1.8016 0.9813
2.7170 3.4294 -1.8016 0.9813
2.4639 3.6155 -1.8016 0.9813
2.1975 3.7819 -1.8011 0.9813
1.6295 4.0473 -1.7966 0.9813
1.4824 4.1011 -1.7957 0.9813
1.1833 4.1932 -1.7941 0.9813
0.7106 4.2065 -1.7567 0.9817
0.2514 4.2102 -1.7368 0.9819
0.0999 4.2106 -1.7343 0.9819
-0.0513 4.2107 -1.7340 0.9819
-0.2026 4.2104 -1.7358 0.9819
-0.3544 4.2097 -1.7396 0.9819
-0.5070 4.2086 -1.7455 0.9818
-0.6608 4.2071 -1.7536 0.9817
-0.9734 4.2028 -1.7765 0.9815
-1.1331 4.2001 -1.7913 0.9814
-1.2855 4.1643 -1.7946 0.9813
-1.4348 4.1173 -1.7954 0.9813
-1.5824 4.0651 -1.7963 0.9813
-2.2896 3.7283 -1.8016 0.9813
-2.5512 3.5544 -1.8016 0.9813
-2.6772 3.4606 -1.8016 0.9813
-2.7997 3.3622 -1.8016 0.9813
-2.9186 3.2596 -1.8016 0.9813
-3.1449 3.0418 -1.8016 0.9813
-0.8335 0.5572 -0.4129 0.9957
-0.8443 0.5215 -0.4086 0.9957
-0.8539 0.4859 -0.4046 0.9958
-0.8623 0.4506 -0.4006 0.9958
-0.8811 0.3456 -0.3897 0.9959
-0.8857 0.3112 -0.3866 0.9959
-0.8934 0.2783 -0.3853 0.9960
-0.9001 0.2453 -0.3842 0.9960
-0.9059 0.2123 -0.3831 0.9960
-0.9145 0.1460 -0.3813 0.9960
-0.9174 0.1129 -0.3806 0.9960
-0.9206 0.0136 -0.3791 0.9960
-0.9206 -0.0195 -0.3792 0.9960
-0.9203 -0.0526 -0.3796 0.9960
-0.9191 -0.0857 -0.3801 0.9960
-0.9169 -0.1188 -0.3807 0.9960
-0.9139 -0.1519 -0.3815 0.9960
-0.9099 -0.1851 -0.3823 0.9960
-0.9049 -0.2182 -0.3833 0.9960
-0.8990 -0.2512 -0.3844 0.9960
-0.8845 -0.3172 -0.3870 0.9959
-0.8684 -0.4216 -0.3975 0.9958
-0.8424 -0.5278 -0.4094 0.9957
-0.8075 -0.6363 -0.4233 0.9956
-3.2332 -2.9477 -1.8016 0.9813
-2.7781 -3.3801 -1.8016 0.9813
-2.5284 -3.5707 -1.8016 0.9813
-2.3986 -3.6592 -1.8016 0.9813
-1.8502 -3.9648 -1.8016 0.9813
-1.2637 -4.1888 -1.8016 0.9813
-1.1125 -4.2314 -1.8016 0.9813
-0.8061 -4.3003 -1.8016 0.9813
-0.3249 -4.1800 -1.8016 0.9819
-0.1747 -4.1890 -1.8016 0.9819
0.1263 -4.1907 -1.8016 0.9819
0.2767 -4.1835 -1.8016 0.9819
0.4267 -4.1709 -1.8016 0.9819
0.7248 -4.1295 -1.8016 0.9819
0.8726 -4.1008 -1.8016 0.9819
1.1645 -4.0277 -1.8016 0.9819
1.3084 -3.9833 -1.8016 0.9819
1.4505 -3.9337 -1.8016 0.9819
1.7290 -3.8195 -1.8016 0.9819
1.9986 -3.6856 -1.8016 0.9819
2.1296 -3.6115 -1.8016 0.9819
2.3832 -3.4494 -1.8016 0.9819
2.7402 -3.1732 -1.8016 0.9819
2.8524 -3.0728 -1.8016 0.9819
3.1662 -2.7484 -1.8016 0.9819
3.3552 -2.5141 -1.8016 0.9819
3.5269 -2.2669 -1.8016 0.9819
3.6061 -2.1389 -1.8016 0.9819
3.9799 -1.3186 -1.8016 0.9819
4.1514 -0.5867 -1.8016 0.9819
4.1828 -0.2874 -1.8016 0.9819
4.1926 0.0134 -1.8016 0.9819
4.1895 0.1639 -1.8016 0.9819
