ply
format ascii 1.0
element vertex 1587
property float32 x
property float32 y
property float32 z
property float32 I
end_header
-4.1620 13.4826 -1.6493 0.9448
-5.1186 13.1493 -1.6493 0.9448
-6.5025 12.5228 -1.6493 0.9448
-9.4125 10.5123 -1.6493 0.9448
-10.6879 11.1072 -1.8017 0.9398
-11.0797 10.7163 -1.8017 0.9398
-11.4572 10.3117 -1.8017 0.9398
-11.8200 9.8938 -1.8017 0.9398
-13.3966 7.6243 -1.8017 0.9398
-13.6617 7.1385 -1.8017 0.9398
-14.1386 6.1399 -1.8017 0.9398
-14.3499 5.6284 -1.8017 0.9398
-14.5427 5.1097 -1.8017 0.9398
-14.8718 4.0531 -1.8017 0.9398
-15.1243 2.9757 -1.8017 0.9398
-15.2988 1.8829 -1.8017 0.9398
-15.4126 0.2273 -1.8017 0.9398
-15.1049 -3.0726 -1.8017 0.9398
-14.9849 -3.6128 -1.8017 0.9398
-14.6871 -4.6786 -1.8017 0.9398
-14.5097 -5.2028 -1.8017 0.9398
-14.3136 -5.7203 -1.8017 0.9398
-13.3475 -7.7100 -1.8017 0.9398
-12.7599 -8.6477 -1.8017 0.9398
-12.1066 -9.5409 -1.8017 0.9398
-11.7563 -9.9694 -1.8017 0.9398
-11.3909 -10.3849 -1.8017 0.9398
-11.0108 -10.7871 -1.8017 0.9398
-10.6165 -11.1754 -1.8017 0.9398
-10.2085 -11.5493 -1.8017 0.9398
-7.0155 -13.7252 -1.8017 0.9398
-6.0127 -14.1932 -1.8017 0.9398
-3.8656 -14.7028 -1.7769 0.9406
-2.7569 -14.7079 -1.7490 0.9415
-2.2139 -14.7098 -1.7387 0.9419
-1.0550 -13.5712 -1.8017 0.9466
-0.5671 -13.6004 -1.8017 0.9466
0.8983 -13.5825 -1.8017 0.9466
1.8704 -13.4831 -1.8017 0.9466
4.2479 -12.9324 -1.8017 0.9466
4.7094 -12.7716 -1.8017 0.9466
5.1648 -12.5943 -1.8017 0.9466
5.6135 -12.4008 -1.8017 0.9466
6.0551 -12.1913 -1.8017 0.9466
7.3306 -11.4697 -1.8017 0.9466
8.5211 -10.6152 -1.8017 0.9466
9.2608 -9.9765 -1.8017 0.9466
9.6129 -9.6376 -1.8017 0.9466
7.7847 -7.2635 -1.4092 0.9579
7.7772 -6.7509 -1.3631 0.9593
7.8950 -6.3709 -1.3428 0.9599
8.1702 -6.1221 -1.3513 0.9596
9.5287 -6.1245 -1.4992 0.9553
11.7077 -6.9442 -1.8017 0.9466
11.1993 -6.1102 -1.6886 0.9498
12.5810 -5.1971 -1.8017 0.9466
12.7595 -4.7421 -1.8017 0.9466
12.9215 -4.2811 -1.8017 0.9466
13.0668 -3.8145 -1.8017 0.9466
13.1953 -3.3429 -1.8017 0.9466
13.3068 -2.8671 -1.8017 0.9466
13.5379 -1.4200 -1.8017 0.9466
13.5802 -0.9331 -1.8017 0.9466
13.6049 -0.4450 -1.8017 0.9466
13.6018 0.5322 -1.8017 0.9466
13.5286 1.5067 -1.8017 0.9466
13.4657 1.9914 -1.8017 0.9466
13.2882 2.9524 -1.8017 0.9466
13.0421 3.8981 -1.8017 0.9466
11.4861 4.8312 -1.6493 0.9510
11.3053 5.2404 -1.6493 0.9510
11.1099 5.6428 -1.6493 0.9510
10.1879 7.1748 -1.6493 0.9510
9.9238 7.5359 -1.6493 0.9510
9.6469 7.8873 -1.6493 0.9510
9.3575 8.2285 -1.6493 0.9510
9.0561 8.5590 -1.6493 0.9510
8.4187 9.1867 -1.6493 0.9510
7.7379 9.7671 -1.6493 0.9510
7.3823 10.0385 -1.6493 0.9510
5.8696 10.9918 -1.6493 0.9510
5.4712 11.1954 -1.6493 0.9510
4.2071 11.6387 -1.6380 0.9513
3.2863 11.6450 -1.6015 0.9524
2.8400 11.6480 -1.5869 0.9528
1.1173 11.6597 -1.5503 0.9538
-0.9905 11.7659 -1.5628 0.9535
-2.7066 11.6858 -1.5876 0.9528
-3.6754 11.9064 -1.6493 0.9510
-4.1004 11.7668 -1.6493 0.9510
-5.3417 11.2578 -1.6493 0.9510
-5.7423 11.0588 -1.6493 0.9510
-7.2660 10.1231 -1.6493 0.9510
-7.6246 9.8557 -1.6493 0.9510
-7.9735 9.5757 -1.6493 0.9510
-8.3121 9.2833 -1.6493 0.9510
-8.9567 8.6630 -1.6493 0.9510
-10.1178 9.1062 -1.8017 0.9466
-10.7450 8.3568 -1.8017 0.9466
-11.0381 7.9657 -1.8017 0.9466
-11.3169 7.5644 -1.8017 0.9466
-12.0645 6.3039 -1.8017 0.9466
-12.2830 5.8667 -1.8017 0.9466
-12.6723 4.9704 -1.8017 0.9466
-12.9962 4.0484 -1.8017 0.9466
-13.1332 3.5793 -1.8017 0.9466
-13.3561 2.6278 -1.8017 0.9466
-13.5102 1.6628 -1.8017 0.9466
-13.5612 1.1767 -1.8017 0.9466
-13.6091 -0.2880 -1.8017 0.9466
-13.4993 -1.7493 -1.8017 0.9466
-13.3390 -2.7133 -1.8017 0.9466
-13.2330 -3.1904 -1.8017 0.9466
-12.6401 -5.0515 -1.8017 0.9466
-12.4507 -5.5020 -1.8017 0.9466
-12.2452 -5.9454 -1.8017 0.9466
-11.5350 -7.2273 -1.8017 0.9466
-11.2682 -7.6367 -1.8017 0.9466
-10.6912 -8.4255 -1.8017 0.9466
-10.3819 -8.8039 -1.8017 0.9466
-10.0592 -9.1708 -1.8017 0.9466
-9.0150 -10.1991 -1.8017 0.9466
-8.6431 -10.5161 -1.8017 0.9466
-8.2600 -10.8196 -1.8017 0.9466
-7.4625 -11.3843 -1.8017 0.9466
-6.6264 -11.8904 -1.8017 0.9466
-6.1953 -12.1206 -1.8017 0.9466
-5.7563 -12.3352 -1.8017 0.9466
-4.8564 -12.7164 -1.8017 0.9466
-2.9864 -13.2805 -1.8017 0.9466
-1.5414 -13.5246 -1.8017 0.9466
-0.9441 -12.1456 -1.8017 0.9519
-0.0703 -12.1820 -1.8017 0.9519
1.2397 -12.1190 -1.8017 0.9519
2.9614 -11.8168 -1.8017 0.9519
3.8016 -11.5738 -1.8017 0.9519
5.0238 -11.0981 -1.8017 0.9519
5.4190 -10.9106 -1.8017 0.9519
7.6260 -9.5000 -1.8017 0.9519
7.9621 -9.2202 -1.8017 0.9519
8.2879 -8.9284 -1.8017 0.9519
7.7911 -6.7630 -1.5258 0.9591
8.2074 -6.1499 -1.5168 0.9594
8.7954 -6.1102 -1.5839 0.9576
10.2479 -6.5868 -1.8017 0.9519
10.4778 -6.2148 -1.8017 0.9519
11.2594 -4.6511 -1.8017 0.9519
11.5641 -3.8313 -1.8017 0.9519
11.9933 -2.1368 -1.8017 0.9519
12.1158 -1.2708 -1.8017 0.9519
12.1757 -0.3983 -1.8017 0.9519
12.1822 0.0390 -1.8017 0.9519
12.1729 0.4763 -1.8017 0.9519
12.1480 0.9130 -1.8017 0.9519
12.1074 1.3484 -1.8017 0.9519
12.0512 1.7822 -1.8017 0.9519
11.8922 2.6422 -1.8017 0.9519
11.6720 3.4886 -1.8017 0.9519
11.1807 4.2371 -1.7683 0.9528
10.2795 4.3237 -1.6493 0.9559
9.9428 5.0500 -1.6493 0.9559
9.7551 5.4037 -1.6493 0.9559
9.1176 6.4211 -1.6493 0.9559
8.3745 7.3641 -1.6493 0.9559
7.5343 8.2217 -1.6493 0.9559
6.6068 8.9840 -1.6493 0.9559
5.9452 9.4348 -1.6493 0.9559
5.6027 9.6422 -1.6493 0.9559
4.8965 10.0193 -1.6493 0.9559
4.5337 10.1886 -1.6493 0.9559
4.1650 10.3448 -1.6493 0.9559
3.7910 10.4876 -1.6493 0.9559
3.0288 10.7326 -1.6493 0.9559
2.2510 10.9222 -1.6493 0.9559
1.8575 10.9960 -1.6493 0.9559
1.4615 11.0555 -1.6493 0.9559
0.6646 11.1319 -1.6493 0.9559
0.2646 11.1486 -1.6493 0.9559
-1.7304 11.0167 -1.6493 0.9559
-2.9047 10.7668 -1.6493 0.9559
-3.6697 10.5307 -1.6493 0.9559
-5.1391 9.8970 -1.6493 0.9559
-5.8359 9.5028 -1.6493 0.9559
-6.1733 9.2872 -1.6493 0.9559
-6.8237 8.8204 -1.6493 0.9559
-7.1359 8.5697 -1.6493 0.9559
-7.4389 8.3081 -1.6493 0.9559
-7.7323 8.0357 -1.6493 0.9559
-9.3416 7.8193 -1.8017 0.9519
-9.6162 7.4789 -1.8017 0.9519
-9.8785 7.1289 -1.8017 0.9519
-10.1280 6.7697 -1.8017 0.9519
-10.3645 6.4018 -1.8017 0.9519
-10.9927 5.2505 -1.8017 0.9519
-11.1741 4.8525 -1.8017 0.9519
-11.3410 4.4483 -1.8017 0.9519
-11.4934 4.0383 -1.8017 0.9519
-11.6310 3.6231 -1.8017 0.9519
-11.7535 3.2033 -1.8017 0.9519
-11.9530 2.3517 -1.8017 0.9519
-12.0298 1.9212 -1.8017 0.9519
-12.0910 1.4881 -1.8017 0.9519
-12.1366 1.0531 -1.8017 0.9519
-12.1809 0.1796 -1.8017 0.9519
-12.0812 -1.5656 -1.8017 0.9519
-12.0172 -1.9982 -1.8017 0.9519
-11.9377 -2.4283 -1.8017 0.9519
-11.8429 -2.8553 -1.8017 0.9519
-11.6075 -3.6976 -1.8017 0.9519
-11.4673 -4.1118 -1.8017 0.9519
-11.3123 -4.5208 -1.8017 0.9519
-11.1427 -4.9240 -1.8017 0.9519
-10.9588 -5.3208 -1.8017 0.9519
-10.3233 -6.4681 -1.8017 0.9519
-9.8326 -7.1921 -1.8017 0.9519
-9.2913 -7.8790 -1.8017 0.9519
-9.0025 -8.2074 -1.8017 0.9519
-8.7020 -8.5253 -1.8017 0.9519
-8.0679 -9.1276 -1.8017 0.9519
-7.7351 -9.4114 -1.8017 0.9519
-7.0399 -9.9421 -1.8017 0.9519
-6.6785 -10.1884 -1.8017 0.9519
-5.1516 -11.0393 -1.8017 0.9519
-4.7520 -11.2172 -1.8017 0.9519
-4.3463 -11.3805 -1.8017 0.9519
-3.9350 -11.5292 -1.8017 0.9519
-3.0976 -11.7818 -1.8017 0.9519
-2.6727 -11.8854 -1.8017 0.9519
-1.8131 -12.0465 -1.8017 0.9519
-1.3795 -12.1038 -1.8017 0.9519
-0.0636 -11.0192 -1.8017 0.9563
1.1214 -10.9622 -1.8017 0.9563
1.5142 -10.9149 -1.8017 0.9563
1.9050 -10.8535 -1.8017 0.9563
2.2933 -10.7781 -1.8017 0.9563
2.6788 -10.6888 -1.8017 0.9563
3.0607 -10.5858 -1.8017 0.9563
4.1810 -10.1954 -1.8017 0.9563
5.2528 -9.6868 -1.8017 0.9563
5.5971 -9.4920 -1.8017 0.9563
6.2637 -9.0660 -1.8017 0.9563
6.8981 -8.5932 -1.8017 0.9563
7.4968 -8.0762 -1.8017 0.9563
7.7819 -7.8019 -1.8017 0.9563
8.0569 -7.5175 -1.8017 0.9563
8.3216 -7.2234 -1.8017 0.9563
8.5755 -6.9201 -1.8017 0.9563
9.2697 -5.9581 -1.8017 0.9563
10.1846 -4.2071 -1.8017 0.9563
10.4602 -3.4656 -1.8017 0.9563
10.5779 -3.0879 -1.8017 0.9563
10.7722 -2.3210 -1.8017 0.9563
10.9593 -1.1495 -1.8017 0.9563
10.9935 -0.7554 -1.8017 0.9563
11.0135 -0.3603 -1.8017 0.9563
11.0193 0.0353 -1.8017 0.9563
11.0110 0.4309 -1.8017 0.9563
10.8359 2.0023 -1.8017 0.9563
10.7571 2.3900 -1.8017 0.9563
10.4378 3.5326 -1.8017 0.9563
10.2898 3.8995 -1.7991 0.9564
9.1519 4.2422 -1.6493 0.9599
8.8239 4.8879 -1.6493 0.9599
8.6428 5.2015 -1.6493 0.9599
8.4505 5.5084 -1.6493 0.9599
7.5751 6.6611 -1.6493 0.9599
7.0777 7.1874 -1.6493 0.9599
4.1027 4.4769 -0.9928 0.9757
3.9189 4.5974 -0.9877 0.9758
6.2640 7.9067 -1.6493 0.9599
5.9762 8.1264 -1.6493 0.9599
5.6806 8.3357 -1.6493 0.9599
5.0679 8.7218 -1.6493 0.9599
4.7516 8.8981 -1.6493 0.9599
4.4291 9.0629 -1.6493 0.9599
3.4291 9.4865 -1.6493 0.9599
2.0361 9.8796 -1.6493 0.9599
1.6801 9.9464 -1.6493 0.9599
1.3220 10.0003 -1.6493 0.9599
0.9622 10.0413 -1.6493 0.9599
0.6011 10.0693 -1.6493 0.9599
0.2393 10.0844 -1.6493 0.9599
-0.1229 10.0865 -1.6493 0.9599
-0.8462 10.0517 -1.6493 0.9599
-1.2065 10.0149 -1.6493 0.9599
-1.5652 9.9651 -1.6493 0.9599
-1.9219 9.9025 -1.6493 0.9599
-2.6274 9.7391 -1.6493 0.9599
-2.9753 9.6385 -1.6493 0.9599
-3.3194 9.5255 -1.6493 0.9599
-4.6485 8.9523 -1.6493 0.9599
-5.2789 8.5957 -1.6493 0.9599
-5.5840 8.4007 -1.6493 0.9599
-6.1723 7.9784 -1.6493 0.9599
-6.4547 7.7517 -1.6493 0.9599
-6.7288 7.5150 -1.6493 0.9599
-6.9943 7.2687 -1.6493 0.9599
-7.2507 7.0129 -1.6493 0.9599
-8.6983 6.7650 -1.8017 0.9563
-8.9356 6.4484 -1.8017 0.9563
-9.3752 5.7907 -1.8017 0.9563
-10.3963 3.6528 -1.8017 0.9563
-10.5208 3.2773 -1.8017 0.9563
-10.6316 2.8975 -1.8017 0.9563
-10.8121 2.1273 -1.8017 0.9563
-10.9369 1.3460 -1.8017 0.9563
-11.0182 0.1625 -1.8017 0.9563
-10.9718 -1.0229 -1.8017 0.9563
-10.7982 -2.1965 -1.8017 0.9563
-10.4995 -3.3446 -1.8017 0.9563
-10.3727 -3.7194 -1.8017 0.9563
-10.0791 -4.4540 -1.8017 0.9563
-9.7336 -5.1656 -1.8017 0.9563
-9.1218 -6.1821 -1.8017 0.9563
-8.6548 -6.8206 -1.8017 0.9563
-8.1431 -7.4240 -1.8017 0.9563
-7.2978 -8.2564 -1.8017 0.9563
-6.9967 -8.5130 -1.8017 0.9563
-6.6867 -8.7587 -1.8017 0.9563
-6.3679 -8.9931 -1.8017 0.9563
-5.7063 -9.4268 -1.8017 0.9563
-5.3642 -9.6256 -1.8017 0.9563
-4.6598 -9.9856 -1.8017 0.9563
-4.2984 -10.1464 -1.8017 0.9563
-3.9314 -10.2942 -1.8017 0.9563
-3.5593 -10.4287 -1.8017 0.9563
-2.8020 -10.6572 -1.8017 0.9563
-2.4176 -10.7509 -1.8017 0.9563
-1.6400 -10.8966 -1.8017 0.9563
-1.2478 -10.9485 -1.8017 0.9563
-0.4189 -10.0461 -1.8017 0.9600
0.3029 -10.0502 -1.8017 0.9600
1.0232 -10.0026 -1.8017 0.9600
1.3816 -9.9594 -1.8017 0.9600
1.7382 -9.9034 -1.8017 0.9600
2.0926 -9.8346 -1.8017 0.9600
2.4443 -9.7532 -1.8017 0.9600
3.1377 -9.5527 -1.8017 0.9600
3.4786 -9.4339 -1.8017 0.9600
4.4726 -9.0053 -1.8017 0.9600
4.7930 -8.8389 -1.8017 0.9600
5.4148 -8.4722 -1.8017 0.9600
6.0087 -8.0619 -1.8017 0.9600
6.5716 -7.6100 -1.8017 0.9600
6.8406 -7.3692 -1.8017 0.9600
7.1007 -7.1189 -1.8017 0.9600
7.3517 -6.8595 -1.8017 0.9600
7.5932 -6.5911 -1.8017 0.9600
8.0465 -6.0294 -1.8017 0.9600
8.2577 -5.7367 -1.8017 0.9600
8.4583 -5.4365 -1.8017 0.9600
9.2931 -3.8389 -1.8017 0.9600
9.9559 -1.4072 -1.8017 0.9600
10.0000 -1.0489 -1.8017 0.9600
10.0312 -0.6892 -1.8017 0.9600
10.0494 -0.3287 -1.8017 0.9600
9.9930 1.1130 -1.8017 0.9600
9.9466 1.4710 -1.8017 0.9600
9.8874 1.8271 -1.8017 0.9600
9.8155 2.1808 -1.8017 0.9600
9.7309 2.5317 -1.8017 0.9600
9.6337 2.8794 -1.8017 0.9600
9.5241 3.2233 -1.8017 0.9600
9.2559 3.8931 -1.7992 0.9600
7.8863 4.7462 -1.6493 0.9633
7.3303 5.5665 -1.6493 0.9633
6.9121 6.0781 -1.6493 0.9633
6.4582 6.5583 -1.6493 0.9633
5.4530 7.4151 -1.6493 0.9633
5.1834 7.6060 -1.6493 0.9633
4.9070 7.7872 -1.6493 0.9633
4.6243 7.9583 -1.6493 0.9633
4.3356 8.1192 -1.6493 0.9633
4.0414 8.2696 -1.6493 0.9633
3.4377 8.5382 -1.6493 0.9633
3.1290 8.6561 -1.6493 0.9633
2.4999 8.8583 -1.6493 0.9633
2.1803 8.9424 -1.6493 0.9633
1.8579 9.0149 -1.6493 0.9633
1.5331 9.0757 -1.6493 0.9633
0.5485 9.1879 -1.6493 0.9633
0.2183 9.2017 -1.6493 0.9633
-0.1121 9.2036 -1.6493 0.9633
-0.7721 9.1719 -1.6493 0.9633
-1.1009 9.1382 -1.6493 0.9633
-2.3974 8.8866 -1.6493 0.9633
-3.0288 8.6917 -1.6493 0.9633
-3.3389 8.5774 -1.6493 0.9633
-3.6446 8.4520 -1.6493 0.9633
-3.9457 8.3157 -1.6493 0.9633
-4.5321 8.0112 -1.6493 0.9633
-5.6320 7.2801 -1.6493 0.9633
-6.3820 6.6324 -1.6493 0.9633
-6.8414 6.1574 -1.6493 0.9633
-8.7387 4.9733 -1.8017 0.9600
-8.9116 4.6565 -1.8017 0.9600
-9.0730 4.3336 -1.8017 0.9600
-9.2227 4.0051 -1.8017 0.9600
-9.3605 3.6715 -1.8017 0.9600
-9.4863 3.3331 -1.8017 0.9600
-9.5998 2.9904 -1.8017 0.9600
-9.7010 2.6439 -1.8017 0.9600
-9.7896 2.2939 -1.8017 0.9600
-9.9290 1.5857 -1.8017 0.9600
-9.7747 -2.3566 -1.8017 0.9600
-9.5805 -3.0519 -1.8017 0.9600
-9.1968 -4.0641 -1.8017 0.9600
-8.7066 -5.0293 -1.8017 0.9600
-6.9252 -7.2898 -1.8017 0.9600
-5.8105 -8.2059 -1.8017 0.9600
-5.2068 -8.6016 -1.8017 0.9600
-4.8947 -8.7830 -1.8017 0.9600
-4.2519 -9.1115 -1.8017 0.9600
-3.5873 -9.3931 -1.8017 0.9600
-3.2478 -9.5158 -1.8017 0.9600
-2.9041 -9.6263 -1.8017 0.9600
-2.5567 -9.7243 -1.8017 0.9600
-2.2060 -9.8098 -1.8017 0.9600
-1.8524 -9.8827 -1.8017 0.9600
-1.1386 -9.9901 -1.8017 0.9600
-0.7162 -9.2136 -1.8017 0.9630
-0.0533 -9.2413 -1.8017 0.9630
0.2784 -9.2372 -1.8017 0.9630
0.6098 -9.2213 -1.8017 0.9630
0.9404 -9.1935 -1.8017 0.9630
1.5976 -9.1023 -1.8017 0.9630
2.8839 -8.7800 -1.8017 0.9630
3.1972 -8.6708 -1.8017 0.9630
3.8111 -8.4190 -1.8017 0.9630
4.4053 -8.1239 -1.8017 0.9630
4.6941 -7.9605 -1.8017 0.9630
4.9768 -7.7869 -1.8017 0.9630
5.2531 -7.6032 -1.8017 0.9630
6.0401 -6.9944 -1.8017 0.9630
6.9789 -6.0580 -1.8017 0.9630
7.9485 -4.7145 -1.8017 0.9630
8.1126 -4.4261 -1.8017 0.9630
8.2662 -4.1321 -1.8017 0.9630
8.5414 -3.5283 -1.8017 0.9630
8.7725 -2.9064 -1.8017 0.9630
8.9584 -2.2696 -1.8017 0.9630
9.1505 -1.2933 -1.8017 0.9630
9.1910 -0.9640 -1.8017 0.9630
9.2365 -0.3021 -1.8017 0.9630
9.2414 0.0296 -1.8017 0.9630
9.2344 0.3613 -1.8017 0.9630
9.2155 0.6926 -1.8017 0.9630
9.1847 1.0229 -1.8017 0.9630
9.1420 1.3520 -1.8017 0.9630
8.8544 2.6465 -1.8017 0.9630
8.7537 2.9626 -1.8017 0.9630
8.6417 3.2749 -1.8017 0.9630
8.2071 4.1685 -1.7946 0.9632
7.6138 4.2176 -1.6969 0.9652
7.2483 4.3623 -1.6493 0.9661
6.5494 5.3547 -1.6493 0.9661
3.9108 4.5879 -1.1753 0.9757
5.0119 6.8153 -1.6493 0.9661
4.7641 6.9908 -1.6493 0.9661
4.5100 7.1573 -1.6493 0.9661
3.7145 7.6007 -1.6493 0.9661
3.1596 7.8476 -1.6493 0.9661
2.5884 8.0540 -1.6493 0.9661
2.2976 8.1417 -1.6493 0.9661
1.7076 8.2856 -1.6493 0.9661
1.4091 8.3416 -1.6493 0.9661
0.8070 8.4212 -1.6493 0.9661
0.5042 8.4447 -1.6493 0.9661
-1.0118 8.3990 -1.6493 0.9661
-1.3127 8.3573 -1.6493 0.9661
-1.6118 8.3048 -1.6493 0.9661
-3.0688 7.8835 -1.6493 0.9661
-4.9329 6.8727 -1.6493 0.9661
-5.4133 6.5010 -1.6493 0.9661
-5.6432 6.3025 -1.6493 0.9661
-6.2891 5.6603 -1.6496 0.9661
-7.0721 5.9196 -1.7980 0.9631
-7.2949 5.6735 -1.8017 0.9630
-7.4939 5.4080 -1.8017 0.9630
-7.8625 4.8564 -1.8017 0.9630
-8.3391 3.9830 -1.8017 0.9630
-8.7189 3.0634 -1.8017 0.9630
-1.7744 0.5527 -0.3623 0.9925
-1.7039 0.2097 -0.3347 0.9930
-1.7084 0.0866 -0.3335 0.9931
-1.7072 0.0252 -0.3329 0.9931
-1.7076 -0.0361 -0.3330 0.9931
-1.7030 -0.2207 -0.3348 0.9930
-1.6971 -0.2822 -0.3354 0.9930
-1.7178 -0.3494 -0.3418 0.9929
-1.7395 -0.4194 -0.3489 0.9927
-8.6991 -3.1193 -1.8017 0.9630
-8.5815 -3.4295 -1.8017 0.9630
-8.4529 -3.7353 -1.8017 0.9630
-8.3134 -4.0364 -1.8017 0.9630
-8.1631 -4.3322 -1.8017 0.9630
-8.0023 -4.6224 -1.8017 0.9630
-7.8312 -4.9067 -1.8017 0.9630
-7.0484 -5.9770 -1.8017 0.9630
-6.3650 -6.7001 -1.8017 0.9630
-6.1204 -6.9243 -1.8017 0.9630
-5.8679 -7.1395 -1.8017 0.9630
-5.3405 -7.5421 -1.8017 0.9630
-5.0663 -7.7289 -1.8017 0.9630
-4.7856 -7.9058 -1.8017 0.9630
-4.4988 -8.0725 -1.8017 0.9630
-4.2061 -8.2288 -1.8017 0.9630
-3.2971 -8.6333 -1.8017 0.9630
-2.0275 -9.0163 -1.8017 0.9630
-1.7026 -9.0833 -1.8017 0.9630
-1.3754 -9.1385 -1.8017 0.9630
-1.0465 -9.1820 -1.8017 0.9630
-0.0493 -8.5459 -1.8017 0.9657
0.2575 -8.5421 -1.8017 0.9657
1.1743 -8.4650 -1.8017 0.9657
1.4774 -8.4174 -1.8017 0.9657
1.7786 -8.3589 -1.8017 0.9657
2.0775 -8.2896 -1.8017 0.9657
2.3737 -8.2097 -1.8017 0.9657
2.9566 -8.0183 -1.8017 0.9657
3.2426 -7.9070 -1.8017 0.9657
4.0738 -7.5126 -1.8017 0.9657
4.3408 -7.3615 -1.8017 0.9657
4.6023 -7.2009 -1.8017 0.9657
4.8578 -7.0311 -1.8017 0.9657
5.1071 -6.8522 -1.8017 0.9657
5.5855 -6.4681 -1.8017 0.9657
6.2485 -5.8302 -1.8017 0.9657
7.6442 -3.8211 -1.8017 0.9657
7.7764 -3.5443 -1.8017 0.9657
7.8987 -3.2628 -1.8017 0.9657
8.1124 -2.6877 -1.8017 0.9657
8.3543 -1.8000 -1.8017 0.9657
8.4619 -1.1960 -1.8017 0.9657
8.5460 0.0274 -1.8017 0.9657
8.5395 0.3342 -1.8017 0.9657
8.5220 0.6405 -1.8017 0.9657
8.4541 1.2502 -1.8017 0.9657
8.4038 1.5529 -1.8017 0.9657
8.1881 2.4473 -1.8017 0.9657
7.7535 3.5940 -1.8017 0.9657
7.6112 3.8658 -1.7997 0.9657
7.0001 4.2129 -1.7224 0.9672
6.3962 4.5045 -1.6493 0.9685
6.2304 4.7312 -1.6493 0.9685
6.0565 4.9518 -1.6493 0.9685
5.8749 5.1660 -1.6493 0.9685
5.6856 5.3735 -1.6493 0.9685
4.8580 6.1320 -1.6493 0.9685
4.6348 6.3024 -1.6493 0.9685
2.9218 7.2570 -1.6493 0.9685
2.3936 7.4480 -1.6493 0.9685
2.1247 7.5291 -1.6493 0.9685
1.5791 7.6621 -1.6493 0.9685
1.3030 7.7139 -1.6493 0.9685
1.0253 7.7557 -1.6493 0.9685
0.7462 7.7875 -1.6493 0.9685
-0.3760 7.8141 -1.6493 0.9685
-1.2139 7.7284 -1.6493 0.9685
-1.7652 7.6214 -1.6493 0.9685
-2.3075 7.4751 -1.6493 0.9685
-2.5743 7.3874 -1.6493 0.9685
-3.0977 7.1837 -1.6493 0.9685
-3.3536 7.0679 -1.6493 0.9685
-3.6051 6.9429 -1.6493 0.9685
-4.0940 6.6664 -1.6493 0.9685
-4.5617 6.3555 -1.6493 0.9685
-5.0059 6.0118 -1.6493 0.9685
-5.2185 5.8283 -1.6493 0.9685
-5.6232 5.4388 -1.6493 0.9685
-6.1471 5.5326 -1.7435 0.9668
-6.5419 5.4758 -1.7985 0.9657
-6.9299 5.0011 -1.8017 0.9657
-7.1050 4.7491 -1.8017 0.9657
-7.2709 4.4910 -1.8017 0.9657
-7.4274 4.2271 -1.8017 0.9657
-7.5744 3.9577 -1.8017 0.9657
-7.7115 3.6833 -1.8017 0.9657
-7.9559 3.1205 -1.8017 0.9657
-1.5992 0.4358 -0.3494 0.9932
-1.5642 0.2498 -0.3340 0.9935
-1.5727 0.1365 -0.3328 0.9936
-1.5740 0.0798 -0.3323 0.9936
-1.5739 -0.0899 -0.3324 0.9936
-1.5723 -0.1466 -0.3329 0.9936
-1.5695 -0.3193 -0.3377 0.9935
-1.6154 -0.5146 -0.3574 0.9931
-7.9358 -3.1714 -1.8017 0.9657
-7.5488 -4.0062 -1.8017 0.9657
-7.2419 -4.5375 -1.8017 0.9657
-6.8977 -5.0454 -1.8017 0.9657
-6.7122 -5.2897 -1.8017 0.9657
-6.3154 -5.7576 -1.8017 0.9657
-6.1046 -5.9806 -1.8017 0.9657
-5.4263 -6.6023 -1.8017 0.9657
-4.6851 -7.1473 -1.8017 0.9657
-4.4255 -7.3109 -1.8017 0.9657
-3.6139 -7.7443 -1.8017 0.9657
-3.3336 -7.8690 -1.8017 0.9657
-2.4683 -8.1818 -1.8017 0.9657
-1.5745 -8.3997 -1.8017 0.9657
-1.2719 -8.4508 -1.8017 0.9657
-0.6157 -7.9205 -1.8017 0.9679
-0.3310 -7.9374 -1.8017 0.9679
-0.0458 -7.9442 -1.8017 0.9679
0.2394 -7.9407 -1.8017 0.9679
0.8085 -7.9031 -1.8017 0.9679
1.0916 -7.8690 -1.8017 0.9679
1.3734 -7.8247 -1.8017 0.9679
1.6534 -7.7704 -1.8017 0.9679
2.4791 -7.5476 -1.8017 0.9679
4.0352 -6.8432 -1.8017 0.9679
4.5158 -6.5361 -1.8017 0.9679
4.7475 -6.3698 -1.8017 0.9679
5.1923 -6.0127 -1.8017 0.9679
5.4048 -5.8225 -1.8017 0.9679
5.6103 -5.6247 -1.8017 0.9679
5.8086 -5.4197 -1.8017 0.9679
5.9994 -5.2077 -1.8017 0.9679
6.1825 -4.9890 -1.8017 0.9679
6.3576 -4.7638 -1.8017 0.9679
6.9739 -3.8049 -1.8017 0.9679
7.1060 -3.5521 -1.8017 0.9679
7.3425 -3.0331 -1.8017 0.9679
7.6261 -2.2262 -1.8017 0.9679
7.7661 -1.6733 -1.8017 0.9679
7.8212 -1.3934 -1.8017 0.9679
7.9257 -0.5446 -1.8017 0.9679
7.9401 -0.2597 -1.8017 0.9679
7.9383 0.3106 -1.8017 0.9679
7.8955 0.8794 -1.8017 0.9679
7.8589 1.1622 -1.8017 0.9679
7.8121 1.4436 -1.8017 0.9679
7.7552 1.7231 -1.8017 0.9679
7.6884 2.0003 -1.8017 0.9679
7.6116 2.2750 -1.8017 0.9679
7.5251 2.5468 -1.8017 0.9679
7.4288 2.8153 -1.8017 0.9679
7.2077 3.3410 -1.8017 0.9679
6.9431 3.8460 -1.8000 0.9680
6.4558 4.2082 -1.7477 0.9689
5.9975 4.2237 -1.6636 0.9704
5.6301 4.6032 -1.6493 0.9706
5.4612 4.8023 -1.6493 0.9706
5.2854 4.9952 -1.6493 0.9706
5.1026 5.1817 -1.6493 0.9706
4.5160 5.7003 -1.6493 0.9706
4.3085 5.8587 -1.6493 0.9706
4.0954 6.0096 -1.6493 0.9706
3.4256 6.4150 -1.6493 0.9706
2.7161 6.7461 -1.6493 0.9706
2.4722 6.8392 -1.6493 0.9706
2.2251 6.9236 -1.6493 0.9706
1.9751 6.9990 -1.6493 0.9706
1.4679 7.1227 -1.6493 0.9706
1.2113 7.1708 -1.6493 0.9706
0.6937 7.2392 -1.6493 0.9706
-0.0886 7.2718 -1.6493 0.9706
-0.3496 7.2639 -1.6493 0.9706
-0.6101 7.2467 -1.6493 0.9706
-1.1284 7.1843 -1.6493 0.9706
-1.6410 7.0848 -1.6493 0.9706
-1.8942 7.0213 -1.6493 0.9706
-2.1450 6.9488 -1.6493 0.9706
-2.8796 6.6779 -1.6493 0.9706
-3.1175 6.5703 -1.6493 0.9706
-3.3513 6.4541 -1.6493 0.9706
-3.5808 6.3297 -1.6493 0.9706
-4.6535 5.5886 -1.6493 0.9706
-4.8511 5.4179 -1.6493 0.9706
-5.8833 5.2951 -1.7951 0.9681
-6.7590 4.1748 -1.8017 0.9679
-6.9045 3.9295 -1.8017 0.9679
-7.1686 3.4240 -1.8017 0.9679
-1.4941 0.5860 -0.3640 0.9934
-1.4872 0.5225 -0.3575 0.9936
-1.4783 0.4605 -0.3511 0.9937
-1.4491 0.2314 -0.3328 0.9940
-1.4578 0.0215 -0.3307 0.9940
-1.4581 -0.0309 -0.3308 0.9940
-1.4584 -0.0833 -0.3313 0.9940
-1.4569 -0.1358 -0.3318 0.9940
-1.4534 -0.1883 -0.3324 0.9940
-1.4479 -0.2408 -0.3329 0.9940
-1.4440 -0.2937 -0.3342 0.9940
-1.4575 -0.3514 -0.3400 0.9939
-1.4695 -0.4106 -0.3460 0.9938
-1.4800 -0.4715 -0.3523 0.9936
-1.4952 -0.5975 -0.3652 0.9934
-7.2665 -3.2111 -1.8017 0.9679
-7.0173 -3.7241 -1.8017 0.9679
-6.8792 -3.9736 -1.8017 0.9679
-6.7321 -4.2180 -1.8017 0.9679
-6.5763 -4.4569 -1.8017 0.9679
-6.2396 -4.9173 -1.8017 0.9679
-6.0591 -5.1381 -1.8017 0.9679
-5.6748 -5.5596 -1.8017 0.9679
-5.2613 -5.9524 -1.8017 0.9679
-5.0443 -6.1374 -1.8017 0.9679
-4.5909 -6.4835 -1.8017 0.9679
-3.6157 -7.0738 -1.8017 0.9679
-2.8343 -7.4215 -1.8017 0.9679
-2.5661 -7.5185 -1.8017 0.9679
-2.2946 -7.6058 -1.8017 0.9679
-1.7429 -7.7508 -1.8017 0.9679
-1.1824 -7.8558 -1.8017 0.9679
-0.5749 -7.3961 -1.8017 0.9699
-0.3091 -7.4120 -1.8017 0.9699
0.4895 -7.4023 -1.8017 0.9699
0.7549 -7.3799 -1.8017 0.9699
1.0194 -7.3481 -1.8017 0.9699
1.2825 -7.3067 -1.8017 0.9699
1.5439 -7.2560 -1.8017 0.9699
1.8034 -7.1959 -1.8017 0.9699
2.5665 -6.9603 -1.8017 0.9699
2.8147 -6.8637 -1.8017 0.9699
3.0593 -6.7583 -1.8017 0.9699
3.9951 -6.2508 -1.8017 0.9699
4.2169 -6.1034 -1.8017 0.9699
4.4332 -5.9481 -1.8017 0.9699
4.6439 -5.7851 -1.8017 0.9699
5.0470 -5.4370 -1.8017 0.9699
5.4241 -5.0609 -1.8017 0.9699
5.6022 -4.8629 -1.8017 0.9699
5.7732 -4.6587 -1.8017 0.9699
5.9367 -4.4485 -1.8017 0.9699
6.0926 -4.2325 -1.8017 0.9699
6.3805 -3.7845 -1.8017 0.9699
6.5123 -3.5530 -1.8017 0.9699
6.8565 -2.8323 -1.8017 0.9699
7.0420 -2.3331 -1.8017 0.9699
7.2520 -1.5625 -1.8017 0.9699
7.3034 -1.3012 -1.8017 0.9699
7.4145 -0.2425 -1.8017 0.9699
7.4184 0.0238 -1.8017 0.9699
7.4128 0.2901 -1.8017 0.9699
7.2950 1.3480 -1.8017 0.9699
7.2419 1.6090 -1.8017 0.9699
7.1794 1.8679 -1.8017 0.9699
7.1078 2.1244 -1.8017 0.9699
7.0269 2.3782 -1.8017 0.9699
6.9370 2.6289 -1.8017 0.9699
6.4893 3.5947 -1.8017 0.9699
6.3518 3.8227 -1.8004 0.9699
5.9688 4.2035 -1.7730 0.9704
5.5547 4.2181 -1.6939 0.9717
5.2574 4.2984 -1.6493 0.9724
5.0997 4.4844 -1.6493 0.9724
4.9355 4.6645 -1.6493 0.9724
4.7648 4.8387 -1.6493 0.9724
4.0233 5.4708 -1.6493 0.9724
3.8243 5.6117 -1.6493 0.9724
3.6204 5.7454 -1.6493 0.9724
3.4118 5.8717 -1.6493 0.9724
2.9817 6.1013 -1.6493 0.9724
2.5363 6.2995 -1.6493 0.9724
2.3085 6.3865 -1.6493 0.9724
2.0778 6.4652 -1.6493 0.9724
1.6086 6.5977 -1.6493 0.9724
1.3707 6.6511 -1.6493 0.9724
0.8900 6.7324 -1.6493 0.9724
0.4047 6.7789 -1.6493 0.9724
-0.0827 6.7904 -1.6493 0.9724
-0.5697 6.7670 -1.6493 0.9724
-0.8122 6.7422 -1.6493 0.9724
-1.7688 6.5565 -1.6493 0.9724
-2.2347 6.4127 -1.6493 0.9724
-2.4634 6.3284 -1.6493 0.9724
-2.9111 6.1353 -1.6493 0.9724
-3.1295 6.0269 -1.6493 0.9724
-3.7592 5.6555 -1.6493 0.9724
-3.9598 5.5169 -1.6493 0.9724
-4.5300 5.0593 -1.6493 0.9724
-4.7087 4.8934 -1.6493 0.9724
-5.4996 4.9498 -1.7970 0.9700
-6.1675 4.1225 -1.8017 0.9699
-6.5750 3.4355 -1.8017 0.9699
-6.6941 3.1973 -1.8017 0.9699
-1.3456 0.3153 -0.3356 0.9943
-1.3423 0.2641 -0.3323 0.9944
-1.3583 0.0689 -0.3303 0.9944
-1.3577 0.0200 -0.3298 0.9944
-1.3579 -0.0287 -0.3299 0.9944
-1.3582 -0.0776 -0.3304 0.9944
-1.3480 -0.2241 -0.3319 0.9944
-1.3475 -0.3249 -0.3366 0.9943
-1.3769 -0.6084 -0.3656 0.9938
-6.6734 -3.2401 -1.8017 0.9699
-6.5528 -3.4776 -1.8017 0.9699
-6.2864 -3.9388 -1.8017 0.9699
-6.1410 -4.1619 -1.8017 0.9699
-5.9876 -4.3797 -1.8017 0.9699
-5.6580 -4.7980 -1.8017 0.9699
-5.4821 -4.9980 -1.8017 0.9699
-5.2992 -5.1915 -1.8017 0.9699
-4.7103 -5.7311 -1.8017 0.9699
-4.0669 -6.2043 -1.8017 0.9699
-3.6113 -6.4801 -1.8017 0.9699
-3.3764 -6.6055 -1.8017 0.9699
-2.8937 -6.8308 -1.8017 0.9699
-2.6467 -6.9302 -1.8017 0.9699
-2.3962 -7.0208 -1.8017 0.9699
-1.8863 -7.1746 -1.8017 0.9699
-1.6276 -7.2377 -1.8017 0.9699
-1.3667 -7.2914 -1.8017 0.9699
-1.1041 -7.3358 -1.8017 0.9699
-0.0401 -6.9545 -1.8017 0.9717
0.2095 -6.9515 -1.8017 0.9717
0.4589 -6.9395 -1.8017 0.9717
0.7077 -6.9185 -1.8017 0.9717
1.2023 -6.8499 -1.8017 0.9717
1.4474 -6.8023 -1.8017 0.9717
1.9317 -6.6809 -1.8017 0.9717
2.4061 -6.5251 -1.8017 0.9717
3.0936 -6.2287 -1.8017 0.9717
3.7453 -5.8600 -1.8017 0.9717
4.3535 -5.4234 -1.8017 0.9717
4.9114 -4.9240 -1.8017 0.9717
5.8504 -3.7603 -1.8017 0.9717
5.9816 -3.5479 -1.8017 0.9717
6.1051 -3.3308 -1.8017 0.9717
6.4278 -2.6552 -1.8017 0.9717
6.5190 -2.4228 -1.8017 0.9717
6.6760 -1.9488 -1.8017 0.9717
6.7416 -1.7079 -1.8017 0.9717
6.7986 -1.4649 -1.8017 0.9717
6.8468 -1.2199 -1.8017 0.9717
6.9167 -0.7255 -1.8017 0.9717
6.9383 -0.4767 -1.8017 0.9717
6.9546 0.0223 -1.8017 0.9717
6.9493 0.2719 -1.8017 0.9717
6.9351 0.5212 -1.8017 0.9717
6.9119 0.7698 -1.8017 0.9717
6.7891 1.5084 -1.8017 0.9717
6.6634 1.9916 -1.8017 0.9717
6.4106 2.6964 -1.8017 0.9717
6.3097 2.9248 -1.8017 0.9717
6.0836 3.3699 -1.8017 0.9717
5.9587 3.5861 -1.8017 0.9717
5.8236 3.7961 -1.8009 0.9717
5.5158 4.1886 -1.7942 0.9718
5.1523 4.2125 -1.7241 0.9729
4.8046 4.2249 -1.6575 0.9739
4.6362 4.3817 -1.6526 0.9740
3.8946 4.5689 -1.5553 0.9755
3.9534 4.9901 -1.6493 0.9740
3.7717 5.1288 -1.6493 0.9740
3.5852 5.2609 -1.6493 0.9740
3.3940 5.3862 -1.6493 0.9740
2.9988 5.6158 -1.6493 0.9740
2.7953 5.7198 -1.6493 0.9740
2.5882 5.8165 -1.6493 0.9740
1.9479 6.0610 -1.6493 0.9740
1.7291 6.1270 -1.6493 0.9740
1.5080 6.1852 -1.6493 0.9740
1.2850 6.2353 -1.6493 0.9740
1.0604 6.2774 -1.6493 0.9740
0.6073 6.3373 -1.6493 0.9740
0.1510 6.3646 -1.6493 0.9740
-0.0775 6.3659 -1.6493 0.9740
-0.9878 6.2892 -1.6493 0.9740
-1.2130 6.2497 -1.6493 0.9740
-1.4365 6.2022 -1.6493 0.9740
-1.6582 6.1466 -1.6493 0.9740
-2.0950 6.0118 -1.6493 0.9740
-2.3094 5.9327 -1.6493 0.9740
-2.9338 5.6500 -1.6493 0.9740
-3.3316 5.4250 -1.6493 0.9740
-3.5242 5.3019 -1.6493 0.9740
-3.7123 5.1720 -1.6493 0.9740
-3.8955 5.0354 -1.6493 0.9740
-4.2467 4.7429 -1.6493 0.9740
-5.3329 4.4639 -1.8017 0.9717
-5.4898 4.2696 -1.8017 0.9717
-5.6395 4.0698 -1.8017 0.9717
-5.7819 3.8647 -1.8017 0.9717
-6.0443 3.4399 -1.8017 0.9717
-1.2890 0.5056 -0.3587 0.9943
-1.2804 0.3490 -0.3438 0.9945
-1.2799 0.2518 -0.3379 0.9946
-1.2877 0.1585 -0.3361 0.9947
-1.2910 -0.0273 -0.3345 0.9947
-1.2909 -0.0737 -0.3350 0.9947
-1.2837 -0.2134 -0.3371 0.9946
-1.2790 -0.2602 -0.3381 0.9946
-1.2813 -0.3580 -0.3446 0.9945
-1.2892 -0.5152 -0.3597 0.9943
-1.2892 -0.5697 -0.3651 0.9942
-6.1431 -3.2602 -1.8017 0.9717
-6.0221 -3.4786 -1.8017 0.9717
-5.7570 -3.9017 -1.8017 0.9717
-5.4623 -4.3047 -1.8017 0.9717
-5.1393 -4.6855 -1.8017 0.9717
-4.9679 -4.8670 -1.8017 0.9717
-4.6059 -5.2108 -1.8017 0.9717
-4.4158 -5.3728 -1.8017 0.9717
-3.8126 -5.8164 -1.8017 0.9717
-3.3855 -6.0749 -1.8017 0.9717
-3.1653 -6.1926 -1.8017 0.9717
-2.2464 -6.5818 -1.8017 0.9717
-2.0087 -6.6582 -1.8017 0.9717
-1.0351 -6.8772 -1.8017 0.9717
-0.7875 -6.9099 -1.8017 0.9717
-0.5070 -6.5227 -1.8017 0.9732
-0.2726 -6.5367 -1.8017 0.9732
-0.0378 -6.5422 -1.8017 0.9732
0.4317 -6.5281 -1.8017 0.9732
0.6658 -6.5084 -1.8017 0.9732
0.8990 -6.4803 -1.8017 0.9732
1.8172 -6.2849 -1.8017 0.9732
2.6980 -5.9601 -1.8017 0.9732
2.9102 -5.8594 -1.8017 0.9732
3.1187 -5.7512 -1.8017 0.9732
3.5233 -5.5126 -1.8017 0.9732
3.9097 -5.2456 -1.8017 0.9732
4.0955 -5.1019 -1.8017 0.9732
4.2760 -4.9516 -1.8017 0.9732
4.4510 -4.7949 -1.8017 0.9732
4.6202 -4.6321 -1.8017 0.9732
4.9406 -4.2886 -1.8017 0.9732
5.0914 -4.1085 -1.8017 0.9732
5.2356 -3.9231 -1.8017 0.9732
5.6270 -3.3375 -1.8017 0.9732
5.9532 -2.7133 -1.8017 0.9732
6.1325 -2.2792 -1.8017 0.9732
6.2802 -1.8333 -1.8017 0.9732
6.3956 -1.3780 -1.8017 0.9732
6.4780 -0.9156 -1.8017 0.9732
6.5067 -0.6825 -1.8017 0.9732
6.5270 -0.4485 -1.8017 0.9732
6.5423 0.0210 -1.8017 0.9732
6.5373 0.2558 -1.8017 0.9732
6.5239 0.4903 -1.8017 0.9732
6.4720 0.9571 -1.8017 0.9732
6.4334 1.1888 -1.8017 0.9732
6.3866 1.4190 -1.8017 0.9732
6.3316 1.6473 -1.8017 0.9732
6.1178 2.3184 -1.8017 0.9732
6.0306 2.5365 -1.8017 0.9732
5.8331 2.9627 -1.8017 0.9732
5.7230 3.1702 -1.8017 0.9732
5.2006 3.9492 -1.7983 0.9733
4.7842 4.2069 -1.7544 0.9739
4.2021 4.2673 -1.6493 0.9755
3.8851 4.5578 -1.6493 0.9755
3.7190 4.6943 -1.6493 0.9755
3.5481 4.8248 -1.6493 0.9755
3.0089 5.1782 -1.6493 0.9755
2.8211 5.2829 -1.6493 0.9755
2.4348 5.4717 -1.6493 0.9755
1.8324 5.7017 -1.6493 0.9755
0.3569 5.9783 -1.6493 0.9755
0.1421 5.9873 -1.6493 0.9755
-0.0729 5.9885 -1.6493 0.9755
-0.5024 5.9678 -1.6493 0.9755
-0.9293 5.9164 -1.6493 0.9755
-1.5599 5.7822 -1.6493 0.9755
-1.9708 5.6554 -1.6493 0.9755
-2.1725 5.5810 -1.6493 0.9755
-2.5673 5.4108 -1.6493 0.9755
-3.3153 4.9876 -1.6493 0.9755
-3.4922 4.8654 -1.6493 0.9755
-4.6923 4.5384 -1.7977 0.9733
-5.0168 4.1993 -1.8017 0.9732
-5.1643 4.0165 -1.8017 0.9732
-5.5662 3.4380 -1.8017 0.9732
-5.6860 3.2360 -1.8017 0.9732
-1.2200 0.6375 -0.3791 0.9943
-1.2235 0.3811 -0.3529 0.9947
-1.2221 0.3331 -0.3488 0.9948
-1.2212 0.2862 -0.3454 0.9948
-1.2345 0.1519 -0.3425 0.9949
-1.2376 0.0183 -0.3409 0.9949
-1.2378 -0.0262 -0.3409 0.9949
-1.2364 -0.1153 -0.3420 0.9949
-1.2340 -0.1599 -0.3427 0.9949
-1.2206 -0.2943 -0.3458 0.9948
-1.2239 -0.3899 -0.3538 0.9947
-1.2261 -0.4900 -0.3636 0.9945
-1.2252 -0.5414 -0.3689 0.9945
-5.4157 -3.6704 -1.8017 0.9732
-5.2805 -3.8624 -1.8017 0.9732
-5.1385 -4.0495 -1.8017 0.9732
-4.9898 -4.2313 -1.8017 0.9732
-4.8347 -4.4077 -1.8017 0.9732
-4.6733 -4.5784 -1.8017 0.9732
-4.1541 -5.0543 -1.8017 0.9732
-3.9700 -5.2002 -1.8017 0.9732
-3.7807 -5.3393 -1.8017 0.9732
-3.3879 -5.5968 -1.8017 0.9732
-2.9776 -5.8254 -1.8017 0.9732
-2.3341 -6.1118 -1.8017 0.9732
-1.8896 -6.2635 -1.8017 0.9732
-0.9737 -6.4695 -1.8017 0.9732
-0.7408 -6.5002 -1.8017 0.9732
-0.0356 -6.1732 -1.8017 0.9746
0.4074 -6.1598 -1.8017 0.9746
0.8483 -6.1147 -1.8017 0.9746
1.0672 -6.0803 -1.8017 0.9746
1.7147 -5.9304 -1.8017 0.9746
2.1358 -5.7921 -1.8017 0.9746
2.5458 -5.6239 -1.8017 0.9746
2.7460 -5.5289 -1.8017 0.9746
3.1357 -5.3176 -1.8017 0.9746
3.3245 -5.2017 -1.8017 0.9746
3.5091 -5.0790 -1.8017 0.9746
3.8644 -4.8141 -1.8017 0.9746
4.0348 -4.6723 -1.8017 0.9746
4.6619 -4.0467 -1.8017 0.9746
5.1931 -3.3378 -1.8017 0.9746
5.4192 -2.9566 -1.8017 0.9746
5.5218 -2.7602 -1.8017 0.9746
5.7057 -2.3569 -1.8017 0.9746
5.7866 -2.1506 -1.8017 0.9746
5.8601 -1.9415 -1.8017 0.9746
5.9260 -1.7299 -1.8017 0.9746
5.9843 -1.5161 -1.8017 0.9746
6.0348 -1.3003 -1.8017 0.9746
6.1125 -0.8640 -1.8017 0.9746
6.1588 -0.4232 -1.8017 0.9746
6.1700 -0.2018 -1.8017 0.9746
6.1069 0.9031 -1.8017 0.9746
5.9744 1.5544 -1.8017 0.9746
5.7727 2.1876 -1.8017 0.9746
5.6904 2.3935 -1.8017 0.9746
5.6008 2.5962 -1.8017 0.9746
5.4002 2.9913 -1.8017 0.9746
5.1716 3.3711 -1.8017 0.9746
5.0473 3.5545 -1.8017 0.9746
4.9164 3.7334 -1.8017 0.9746
4.7724 3.9019 -1.7991 0.9746
4.6222 4.0645 -1.7963 0.9747
4.1480 4.2123 -1.7254 0.9757
3.8693 4.2223 -1.6714 0.9764
3.6660 4.3007 -1.6493 0.9767
3.5092 4.4295 -1.6493 0.9767
3.3480 4.5526 -1.6493 0.9767
2.8392 4.8861 -1.6493 0.9767
2.6619 4.9849 -1.6493 0.9767
2.2974 5.1630 -1.6493 0.9767
2.1106 5.2422 -1.6493 0.9767
1.9211 5.3146 -1.6493 0.9767
1.7291 5.3801 -1.6493 0.9767
1.3386 5.4903 -1.6493 0.9767
1.1407 5.5348 -1.6493 0.9767
0.9413 5.5722 -1.6493 0.9767
0.3368 5.6411 -1.6493 0.9767
-0.2716 5.6446 -1.6493 0.9767
-0.4741 5.6312 -1.6493 0.9767
-0.6759 5.6105 -1.6493 0.9767
-0.8769 5.5827 -1.6493 0.9767
-1.0767 5.5476 -1.6493 0.9767
-1.2751 5.5054 -1.6493 0.9767
-1.4719 5.4560 -1.6493 0.9767
-1.8596 5.3364 -1.6493 0.9767
-2.6042 5.0153 -1.6493 0.9767
-2.7825 4.9186 -1.6493 0.9767
-3.1283 4.7063 -1.6493 0.9767
-3.2952 4.5909 -1.6493 0.9767
-3.4579 4.4697 -1.6493 0.9767
-3.7277 4.4767 -1.7002 0.9760
-4.0839 4.5610 -1.7868 0.9748
-4.2692 4.4367 -1.7970 0.9747
-4.4339 4.2885 -1.8003 0.9746
-4.5885 4.1298 -1.8017 0.9746
-5.0059 3.6125 -1.8017 0.9746
-5.1324 3.4305 -1.8017 0.9746
-5.2522 3.2441 -1.8017 0.9746
-1.1548 0.6572 -0.3878 0.9945
-1.1603 0.6063 -0.3821 0.9946
-1.1644 0.5562 -0.3766 0.9946
-1.1687 0.4106 -0.3615 0.9949
-1.1697 0.3644 -0.3576 0.9949
-1.1695 0.3187 -0.3538 0.9950
-1.1874 0.1030 -0.3478 0.9950
-1.1884 0.0602 -0.3473 0.9951
-1.1882 0.0175 -0.3468 0.9951
-1.1871 -0.1107 -0.3480 0.9950
-1.1847 -0.1535 -0.3486 0.9950
-1.1812 -0.1964 -0.3495 0.9950
-1.1766 -0.2393 -0.3504 0.9950
-1.1709 -0.2823 -0.3515 0.9950
-1.1696 -0.3268 -0.3544 0.9950
-1.1696 -0.3726 -0.3582 0.9949
-1.1684 -0.4669 -0.3672 0.9948
-1.1668 -0.5156 -0.3723 0.9947
-1.1638 -0.5651 -0.3776 0.9946
-1.1595 -0.6153 -0.3831 0.9945
-5.2313 -3.2777 -1.8017 0.9746
-5.1102 -3.4633 -1.8017 0.9746
-4.9826 -3.6446 -1.8017 0.9746
-4.8486 -3.8211 -1.8017 0.9746
-4.5620 -4.1591 -1.8017 0.9746
-4.4097 -4.3202 -1.8017 0.9746
-4.2518 -4.4757 -1.8017 0.9746
-3.7460 -4.9068 -1.8017 0.9746
-3.3843 -5.1629 -1.8017 0.9746
-3.1968 -5.2811 -1.8017 0.9746
-2.6105 -5.5942 -1.8017 0.9746
-2.2025 -5.7670 -1.8017 0.9746
-1.9940 -5.8424 -1.8017 0.9746
-1.7830 -5.9102 -1.8017 0.9746
-1.3544 -6.0229 -1.8017 0.9746
-1.1373 -6.0676 -1.8017 0.9746
-0.6991 -6.1336 -1.8017 0.9746
-0.4527 -5.8233 -1.8017 0.9758
-0.2433 -5.8358 -1.8017 0.9758
0.3854 -5.8281 -1.8017 0.9758
0.5944 -5.8106 -1.8017 0.9758
0.8026 -5.7855 -1.8017 0.9758
1.2156 -5.7130 -1.8017 0.9758
1.8227 -5.5492 -1.8017 0.9758
2.0208 -5.4802 -1.8017 0.9758
2.2162 -5.4041 -1.8017 0.9758
2.4087 -5.3211 -1.8017 0.9758
3.1455 -4.9216 -1.8017 0.9758
3.3201 -4.8055 -1.8017 0.9758
3.6563 -4.5549 -1.8017 0.9758
4.1248 -4.1354 -1.8017 0.9758
4.2706 -3.9847 -1.8017 0.9758
4.7969 -3.3325 -1.8017 0.9758
4.9135 -3.1581 -1.8017 0.9758
5.1274 -2.7975 -1.8017 0.9758
5.2245 -2.6116 -1.8017 0.9758
5.5445 -1.8370 -1.8017 0.9758
5.6069 -1.6367 -1.8017 0.9758
5.7503 -1.0245 -1.8017 0.9758
5.7834 -0.8174 -1.8017 0.9758
5.8090 -0.6093 -1.8017 0.9758
5.8271 -0.4004 -1.8017 0.9758
5.8378 -0.1909 -1.8017 0.9758
5.8364 0.2284 -1.8017 0.9758
5.7780 0.8545 -1.8017 0.9758
5.7018 1.2668 -1.8017 0.9758
5.6527 1.4707 -1.8017 0.9758
5.4618 2.0699 -1.8017 0.9758
5.2077 2.6450 -1.8017 0.9758
4.8931 3.1895 -1.8017 0.9758
4.5219 3.6971 -1.8017 0.9758
4.3820 3.8533 -1.7999 0.9759
4.2349 4.0025 -1.7974 0.9759
3.5933 4.2154 -1.7086 0.9771
3.3464 4.2240 -1.6623 0.9777
3.1677 4.3075 -1.6493 0.9779
2.3477 4.8038 -1.6493 0.9779
2.1737 4.8850 -1.6493 0.9779
1.4522 5.1458 -1.6493 0.9779
1.2665 5.1946 -1.6493 0.9779
0.8906 5.2721 -1.6493 0.9779
0.7008 5.3007 -1.6493 0.9779
0.5100 5.3224 -1.6493 0.9779
-0.4485 5.3280 -1.6493 0.9779
-0.6395 5.3084 -1.6493 0.9779
-1.3927 5.1623 -1.6493 0.9779
-1.5771 5.1089 -1.6493 0.9779
-2.1172 4.9098 -1.6493 0.9779
-2.2920 4.8306 -1.6493 0.9779
-2.6327 4.6537 -1.6493 0.9779
-2.7981 4.5562 -1.6493 0.9779
-2.9598 4.4528 -1.6493 0.9779
-3.8855 4.3395 -1.7967 0.9759
-4.0454 4.2041 -1.7997 0.9759
-4.3414 3.9074 -1.8017 0.9758
-4.4789 3.7490 -1.8017 0.9758
-4.8560 3.2458 -1.8017 0.9758
-4.9694 3.0694 -1.8017 0.9758
-1.0997 0.6259 -0.3903 0.9947
-1.1104 0.5304 -0.3796 0.9949
-1.1137 0.4837 -0.3745 0.9949
-1.1191 0.3932 -0.3659 0.9950
-1.1209 0.3055 -0.3584 0.9951
-1.1316 0.2226 -0.3557 0.9952
-1.1360 0.1814 -0.3548 0.9952
-1.1392 0.1402 -0.3541 0.9952
-1.1414 0.0991 -0.3534 0.9952
-1.1387 -0.1476 -0.3542 0.9952
-1.1251 -0.2713 -0.3570 0.9952
-1.1204 -0.3569 -0.3627 0.9951
-1.1187 -0.4011 -0.3666 0.9950
-1.1097 -0.5388 -0.3805 0.9948
-1.0985 -0.6345 -0.3913 0.9947
-4.9496 -3.1012 -1.8017 0.9758
-4.8351 -3.2769 -1.8017 0.9758
-4.7143 -3.4483 -1.8017 0.9758
-4.5875 -3.6153 -1.8017 0.9758
-4.3163 -3.9351 -1.8017 0.9758
-4.0229 -4.2347 -1.8017 0.9758
-3.7087 -4.5124 -1.8017 0.9758
-3.5443 -4.6426 -1.8017 0.9758
-3.3754 -4.7668 -1.8017 0.9758
-3.2021 -4.8849 -1.8017 0.9758
-3.0247 -4.9967 -1.8017 0.9758
-2.6584 -5.2008 -1.8017 0.9758
-2.4700 -5.2929 -1.8017 0.9758
-2.2784 -5.3782 -1.8017 0.9758
-1.8866 -5.5278 -1.8017 0.9758
-1.6870 -5.5919 -1.8017 0.9758
-1.2815 -5.6986 -1.8017 0.9758
-0.8693 -5.7758 -1.8017 0.9758
-0.6614 -5.8033 -1.8017 0.9758
-0.2308 -5.5349 -1.8017 0.9770
-0.0320 -5.5396 -1.8017 0.9770
0.1669 -5.5372 -1.8017 0.9770
0.3656 -5.5277 -1.8017 0.9770
0.9577 -5.4563 -1.8017 0.9770
1.1529 -5.4184 -1.8017 0.9770
1.3467 -5.3736 -1.8017 0.9770
1.5387 -5.3217 -1.8017 0.9770
2.1019 -5.1255 -1.8017 0.9770
2.2846 -5.0467 -1.8017 0.9770
2.6408 -4.8698 -1.8017 0.9770
2.8138 -4.7719 -1.8017 0.9770
2.9833 -4.6678 -1.8017 0.9770
3.3105 -4.4417 -1.8017 0.9770
3.7689 -4.0601 -1.8017 0.9770
3.9122 -3.9222 -1.8017 0.9770
4.3112 -3.4789 -1.8017 0.9770
4.7647 -2.8261 -1.8017 0.9770
4.8631 -2.6532 -1.8017 0.9770
4.9552 -2.4769 -1.8017 0.9770
5.0409 -2.2975 -1.8017 0.9770
5.1201 -2.1150 -1.8017 0.9770
5.1927 -1.9299 -1.8017 0.9770
5.4155 -1.1668 -1.8017 0.9770
5.4539 -0.9717 -1.8017 0.9770
5.4852 -0.7753 -1.8017 0.9770
5.5368 -0.1811 -1.8017 0.9770
5.5397 0.0178 -1.8017 0.9770
5.5057 0.6132 -1.8017 0.9770
5.4475 1.0066 -1.8017 0.9770
5.1803 1.9631 -1.8017 0.9770
5.0261 2.3298 -1.8017 0.9770
4.9392 2.5087 -1.8017 0.9770
4.4119 3.3503 -1.8017 0.9770
4.1601 3.6582 -1.8017 0.9770
4.0241 3.8033 -1.8008 0.9770
3.8800 3.9401 -1.7984 0.9770
3.5786 4.1982 -1.7941 0.9771
3.1009 4.2166 -1.7022 0.9782
2.8785 4.2240 -1.6624 0.9787
2.7035 4.2904 -1.6493 0.9789
2.3887 4.4733 -1.6493 0.9789
2.2266 4.5562 -1.6493 0.9789
2.0617 4.6332 -1.6493 0.9789
1.8940 4.7042 -1.6493 0.9789
1.3773 4.8805 -1.6493 0.9789
1.2012 4.9268 -1.6493 0.9789
0.4837 5.0480 -1.6493 0.9789
0.1203 5.0697 -1.6493 0.9789
-0.2437 5.0653 -1.6493 0.9789
-0.4254 5.0533 -1.6493 0.9789
-0.6065 5.0348 -1.6493 0.9789
-0.9662 4.9783 -1.6493 0.9789
-1.3209 4.8961 -1.6493 0.9789
-1.4958 4.8455 -1.6493 0.9789
-2.1739 4.5816 -1.6493 0.9789
-2.3369 4.5006 -1.6493 0.9789
-2.4970 4.4138 -1.6493 0.9789
-2.6538 4.3213 -1.6493 0.9789
-3.1129 4.3370 -1.7362 0.9778
-3.5353 4.2457 -1.7968 0.9770
-3.8411 3.9918 -1.8017 0.9770
-3.9819 3.8514 -1.8017 0.9770
-4.1176 3.7059 -1.8017 0.9770
-4.3729 3.4010 -1.8017 0.9770
-4.4922 3.2418 -1.8017 0.9770
-1.0413 0.6432 -0.3981 0.9949
-1.0607 0.5067 -0.3823 0.9951
-1.0657 0.4628 -0.3779 0.9951
-1.0700 0.4197 -0.3738 0.9952
-1.0749 0.3349 -0.3662 0.9953
-1.0834 0.2539 -0.3619 0.9953
-1.0931 0.1746 -0.3600 0.9954
-1.0963 0.1349 -0.3592 0.9954
-1.0992 -0.0628 -0.3581 0.9954
-1.0981 -0.1024 -0.3587 0.9954
-1.0924 -0.1816 -0.3602 0.9954
-1.0879 -0.2213 -0.3611 0.9953
-1.0726 -0.3846 -0.3706 0.9952
-1.0693 -0.4273 -0.3745 0.9952
-1.0649 -0.4706 -0.3786 0.9951
-1.0599 -0.5146 -0.3832 0.9951
-4.4713 -3.2705 -1.8017 0.9770
-3.6688 -4.1507 -1.8017 0.9770
-3.5175 -4.2797 -1.8017 0.9770
-3.3616 -4.4033 -1.8017 0.9770
-3.2013 -4.5211 -1.8017 0.9770
-3.0370 -4.6331 -1.8017 0.9770
-2.8687 -4.7391 -1.8017 0.9770
-2.6968 -4.8390 -1.8017 0.9770
-2.5213 -4.9327 -1.8017 0.9770
-1.9764 -5.1752 -1.8017 0.9770
-1.7894 -5.2428 -1.8017 0.9770
-0.8245 -5.4780 -1.8017 0.9770
-0.4081 -5.2497 -1.8017 0.9780
-0.0304 -5.2655 -1.8017 0.9780
0.1587 -5.2632 -1.8017 0.9780
0.3475 -5.2541 -1.8017 0.9780
1.2800 -5.1076 -1.8017 0.9780
1.9979 -4.8718 -1.8017 0.9780
3.2962 -4.1063 -1.8017 0.9780
3.5823 -3.8592 -1.8017 0.9780
3.7186 -3.7281 -1.8017 0.9780
3.8500 -3.5922 -1.8017 0.9780
3.9765 -3.4517 -1.8017 0.9780
4.2138 -3.1575 -1.8017 0.9780
4.3245 -3.0042 -1.8017 0.9780
4.5289 -2.6862 -1.8017 0.9780
4.6224 -2.5219 -1.8017 0.9780
4.7099 -2.3544 -1.8017 0.9780
4.9984 -1.6560 -1.8017 0.9780
5.0546 -1.4755 -1.8017 0.9780
5.1043 -1.2931 -1.8017 0.9780
5.2138 -0.7369 -1.8017 0.9780
5.2628 -0.1722 -1.8017 0.9780
5.2656 0.0169 -1.8017 0.9780
5.2616 0.2059 -1.8017 0.9780
5.2332 0.5828 -1.8017 0.9780
5.0959 1.3258 -1.8017 0.9780
4.7773 2.2145 -1.8017 0.9780
3.8269 3.6168 -1.8017 0.9780
3.0897 4.2014 -1.7844 0.9782
2.8684 4.2091 -1.7428 0.9787
2.4535 4.2224 -1.6709 0.9796
1.9596 4.4039 -1.6493 0.9798
1.8003 4.4714 -1.6493 0.9798
1.1418 4.6830 -1.6493 0.9798
0.8029 4.7528 -1.6493 0.9798
0.6317 4.7786 -1.6493 0.9798
-0.0587 4.8198 -1.6493 0.9798
-0.2317 4.8146 -1.6493 0.9798
-0.4043 4.8032 -1.6493 0.9798
-0.5765 4.7856 -1.6493 0.9798
-0.9184 4.7319 -1.6493 0.9798
-1.4217 4.6057 -1.6493 0.9798
-1.9086 4.4262 -1.6493 0.9798
-2.2213 4.2778 -1.6493 0.9798
-3.0590 4.2619 -1.7950 0.9781
-3.5125 3.9229 -1.8017 0.9780
-3.6510 3.7943 -1.8017 0.9780
-3.9138 3.5225 -1.8017 0.9780
-4.2698 3.0814 -1.8017 0.9780
-0.9850 0.6584 -0.4054 0.9950
-0.9945 0.6143 -0.4000 0.9951
-1.0026 0.5706 -0.3947 0.9951
-1.0224 0.4440 -0.3814 0.9953
-1.0325 0.3217 -0.3700 0.9954
-1.0372 0.2827 -0.3678 0.9955
-1.0435 0.2445 -0.3667 0.9955
-1.0581 0.0918 -0.3634 0.9955
-1.0591 0.0537 -0.3628 0.9955
-1.0359 -0.2895 -0.3680 0.9955
-1.0298 -0.3692 -0.3743 0.9954
-1.0214 -0.4514 -0.3821 0.9953
-1.0083 -0.5351 -0.3906 0.9952
-1.0013 -0.5784 -0.3956 0.9951
-0.9831 -0.6663 -0.4064 0.9950
-4.2500 -3.1087 -1.8017 0.9780
-4.1357 -3.2592 -1.8017 0.9780
-4.0160 -3.4056 -1.8017 0.9780
-3.8912 -3.5475 -1.8017 0.9780
-3.3434 -4.0679 -1.8017 0.9780
-3.1952 -4.1853 -1.8017 0.9780
-3.0429 -4.2973 -1.8017 0.9780
-2.5633 -4.5996 -1.8017 0.9780
-2.3965 -4.6886 -1.8017 0.9780
-2.2267 -4.7716 -1.8017 0.9780
-2.0540 -4.8484 -1.8017 0.9780
-1.7008 -4.9833 -1.8017 0.9780
-1.3389 -5.0925 -1.8017 0.9780
-1.1552 -5.1373 -1.8017 0.9780
-0.7837 -5.2069 -1.8017 0.9780
-0.3887 -4.9997 -1.8017 0.9789
-0.2089 -5.0104 -1.8017 0.9789
0.6891 -4.9672 -1.8017 0.9789
0.8669 -4.9393 -1.8017 0.9789
1.3929 -4.8175 -1.8017 0.9789
1.9027 -4.6398 -1.8017 0.9789
2.0681 -4.5685 -1.8017 0.9789
2.2307 -4.4913 -1.8017 0.9789
2.5472 -4.3197 -1.8017 0.9789
2.7006 -4.2255 -1.8017 0.9789
3.2776 -3.7955 -1.8017 0.9789
3.4117 -3.6754 -1.8017 0.9789
3.5414 -3.5505 -1.8017 0.9789
3.6666 -3.4211 -1.8017 0.9789
3.9026 -3.1492 -1.8017 0.9789
4.0132 -3.0071 -1.8017 0.9789
4.1185 -2.8611 -1.8017 0.9789
4.2185 -2.7114 -1.8017 0.9789
4.3132 -2.5583 -1.8017 0.9789
4.5632 -2.0798 -1.8017 0.9789
4.7603 -1.5772 -1.8017 0.9789
4.8139 -1.4053 -1.8017 0.9789
4.8612 -1.2315 -1.8017 0.9789
4.9371 -0.8796 -1.8017 0.9789
4.9654 -0.7018 -1.8017 0.9789
4.9874 -0.5231 -1.8017 0.9789
5.0030 -0.3438 -1.8017 0.9789
5.0148 0.0161 -1.8017 0.9789
5.0007 0.3758 -1.8017 0.9789
4.9840 0.5551 -1.8017 0.9789
4.9608 0.7336 -1.8017 0.9789
4.9313 0.9112 -1.8017 0.9789
4.7501 1.6076 -1.8017 0.9789
4.6225 1.9443 -1.8017 0.9789
4.5498 2.1090 -1.8017 0.9789
4.3867 2.4300 -1.8017 0.9789
4.2967 2.5859 -1.8017 0.9789
4.2011 2.7384 -1.8017 0.9789
3.9938 3.0328 -1.8017 0.9789
3.7659 3.3115 -1.8017 0.9789
3.5186 3.5732 -1.8017 0.9789
3.2512 3.8141 -1.8006 0.9789
2.4451 4.2080 -1.7485 0.9795
2.2503 4.2140 -1.7163 0.9799
2.0620 4.2194 -1.6872 0.9802
1.8797 4.2242 -1.6611 0.9805
1.7145 4.2584 -1.6493 0.9807
1.5606 4.3172 -1.6493 0.9807
1.2468 4.4181 -1.6493 0.9807
0.9266 4.4961 -1.6493 0.9807
0.6016 4.5510 -1.6493 0.9807
-0.2206 4.5853 -1.6493 0.9807
-0.3851 4.5744 -1.6493 0.9807
-0.5491 4.5576 -1.6493 0.9807
-0.7123 4.5350 -1.6493 0.9807
-1.0358 4.4722 -1.6493 0.9807
-1.1957 4.4321 -1.6493 0.9807
-1.6652 4.2779 -1.6493 0.9807
-2.7671 4.1629 -1.7959 0.9790
-2.9181 4.0655 -1.7979 0.9790
-3.0657 3.9628 -1.8000 0.9789
-3.2089 3.8537 -1.8017 0.9789
-3.4771 3.6135 -1.8017 0.9789
-3.6046 3.4864 -1.8017 0.9789
-3.8454 3.2188 -1.8017 0.9789
-3.9585 3.0787 -1.8017 0.9789
-0.9306 0.6716 -0.4123 0.9951
-0.9513 0.5876 -0.4017 0.9953
-0.9761 0.4662 -0.3886 0.9954
-0.9820 0.4265 -0.3846 0.9955
-0.9868 0.3870 -0.3808 0.9955
-0.9904 0.3480 -0.3771 0.9955
-0.9929 0.3093 -0.3736 0.9956
-0.9998 0.2725 -0.3723 0.9956
-1.0059 0.2357 -0.3712 0.9956
-1.0182 0.1253 -0.3686 0.9956
-1.0213 0.0518 -0.3674 0.9957
-1.0178 -0.1319 -0.3687 0.9956
-1.0103 -0.2055 -0.3704 0.9956
-1.0049 -0.2423 -0.3714 0.9956
-0.9925 -0.3162 -0.3743 0.9956
-0.9898 -0.3549 -0.3778 0.9955
-0.9810 -0.4335 -0.3853 0.9955
-0.9497 -0.5950 -0.4026 0.9952
-0.9398 -0.6369 -0.4079 0.9952
-4.0476 -2.9606 -1.8017 0.9789
-3.4539 -3.6358 -1.8017 0.9789
-2.7492 -4.1941 -1.8017 0.9789
-2.5969 -4.2900 -1.8017 0.9789
-2.2824 -4.4653 -1.8017 0.9789
-1.9561 -4.6175 -1.8017 0.9789
-1.7891 -4.6848 -1.8017 0.9789
-1.2751 -4.8500 -1.8017 0.9789
-1.1002 -4.8926 -1.8017 0.9789
-0.9239 -4.9289 -1.8017 0.9789
-0.7463 -4.9589 -1.8017 0.9789
-0.3708 -4.7700 -1.8017 0.9798
-0.0276 -4.7843 -1.8017 0.9798
0.1442 -4.7822 -1.8017 0.9798
0.3157 -4.7740 -1.8017 0.9798
0.4869 -4.7596 -1.8017 0.9798
0.9957 -4.6796 -1.8017 0.9798
1.3289 -4.5961 -1.8017 0.9798
1.6553 -4.4890 -1.8017 0.9798
1.8153 -4.4266 -1.8017 0.9798
2.1282 -4.2850 -1.8017 0.9798
2.2807 -4.2058 -1.8017 0.9798
2.4302 -4.1213 -1.8017 0.9798
2.7196 -3.9363 -1.8017 0.9798
2.8592 -3.8361 -1.8017 0.9798
2.9950 -3.7310 -1.8017 0.9798
3.1270 -3.6211 -1.8017 0.9798
3.2550 -3.5065 -1.8017 0.9798
3.3787 -3.3874 -1.8017 0.9798
3.4982 -3.2640 -1.8017 0.9798
3.6131 -3.1363 -1.8017 0.9798
3.8288 -2.8690 -1.8017 0.9798
4.0247 -2.5869 -1.8017 0.9798
4.1150 -2.4407 -1.8017 0.9798
4.2795 -2.1392 -1.8017 0.9798
4.3536 -1.9842 -1.8017 0.9798
4.4220 -1.8267 -1.8017 0.9798
4.4847 -1.6667 -1.8017 0.9798
4.5927 -1.3407 -1.8017 0.9798
4.7732 -0.3280 -1.8017 0.9798
4.7844 0.0153 -1.8017 0.9798
4.7808 0.1871 -1.8017 0.9798
4.7710 0.3586 -1.8017 0.9798
4.7550 0.5296 -1.8017 0.9798
4.7329 0.6999 -1.8017 0.9798
4.7048 0.8694 -1.8017 0.9798
4.6303 1.2047 -1.8017 0.9798
4.5840 1.3701 -1.8017 0.9798
4.5319 1.5338 -1.8017 0.9798
4.4739 1.6955 -1.8017 0.9798
4.3408 2.0121 -1.8017 0.9798
4.0993 2.4671 -1.8017 0.9798
4.0081 2.6126 -1.8017 0.9798
3.8103 2.8935 -1.8017 0.9798
3.7040 3.0284 -1.8017 0.9798
3.4772 3.2863 -1.8017 0.9798
3.3570 3.4090 -1.8017 0.9798
3.1037 3.6411 -1.8017 0.9798
2.9710 3.7501 -1.8017 0.9798
2.8318 3.8507 -1.8000 0.9798
2.6894 3.9463 -1.7983 0.9798
2.3953 4.1223 -1.7954 0.9798
2.2427 4.1998 -1.7929 0.9799
1.5250 4.2190 -1.6893 0.9810
1.0374 4.2551 -1.6493 0.9815
0.8840 4.2896 -1.6493 0.9815
0.5740 4.3419 -1.6493 0.9815
0.4178 4.3597 -1.6493 0.9815
0.1039 4.3785 -1.6493 0.9815
-0.2109 4.3822 -1.6521 0.9814
-0.5238 4.3483 -1.6493 0.9815
-0.6796 4.3267 -1.6493 0.9815
-2.0004 4.2159 -1.7572 0.9803
-2.3476 4.1497 -1.7954 0.9798
-2.4973 4.0665 -1.7970 0.9798
-2.9275 3.7842 -1.8017 0.9798
-3.3174 3.4475 -1.8017 0.9798
-3.5562 3.2006 -1.8017 0.9798
-3.6688 3.0709 -1.8017 0.9798
-0.9130 0.5640 -0.4041 0.9954
-0.9443 0.4101 -0.3877 0.9956
-0.9492 0.3723 -0.3840 0.9957
-0.9531 0.3349 -0.3804 0.9957
-0.9706 0.2275 -0.3754 0.9957
-0.9757 0.1920 -0.3745 0.9958
-0.9826 0.1209 -0.3728 0.9958
-0.9858 0.0145 -0.3713 0.9958
-0.9856 -0.0563 -0.3717 0.9958
-0.9822 -0.1273 -0.3730 0.9958
-0.9790 -0.1628 -0.3737 0.9958
-0.9749 -0.1983 -0.3746 0.9958
-0.9696 -0.2338 -0.3756 0.9957
-0.9634 -0.2692 -0.3767 0.9957
-0.9562 -0.3046 -0.3779 0.9957
-0.9525 -0.3415 -0.3810 0.9957
-0.9433 -0.4168 -0.3884 0.9956
-0.9371 -0.4550 -0.3923 0.9956
-0.9296 -0.4934 -0.3963 0.9955
-0.9210 -0.5320 -0.4005 0.9955
-0.8883 -0.6498 -0.4145 0.9953
-3.5356 -3.2234 -1.8017 0.9798
-3.2952 -3.4687 -1.8017 0.9798
-3.1686 -3.5848 -1.8017 0.9798
-3.0379 -3.6962 -1.8017 0.9798
-2.7648 -3.9046 -1.8017 0.9798
-2.6229 -4.0014 -1.8017 0.9798
-2.4776 -4.0929 -1.8017 0.9798
-2.0232 -4.3356 -1.8017 0.9798
-1.8663 -4.4054 -1.8017 0.9798
-1.3819 -4.5805 -1.8017 0.9798
-1.2165 -4.6272 -1.8017 0.9798
-1.0497 -4.6678 -1.8017 0.9798
-0.7121 -4.7311 -1.8017 0.9798
-0.1905 -4.5680 -1.8017 0.9805
0.1378 -4.5699 -1.8017 0.9805
0.3017 -4.5620 -1.8017 0.9805
0.4653 -4.5482 -1.8017 0.9805
0.7904 -4.5031 -1.8017 0.9805
0.9515 -4.4718 -1.8017 0.9805
1.4267 -4.3436 -1.8017 0.9805
1.5817 -4.2896 -1.8017 0.9805
1.7347 -4.2301 -1.8017 0.9805
1.8854 -4.1651 -1.8017 0.9805
2.0337 -4.0947 -1.8017 0.9805
2.3223 -3.9383 -1.8017 0.9805
2.5988 -3.7615 -1.8017 0.9805
2.8620 -3.5653 -1.8017 0.9805
3.2287 -3.2370 -1.8017 0.9805
3.4526 -2.9970 -1.8017 0.9805
3.6588 -2.7416 -1.8017 0.9805
